0.465339 -0.053776 0.032948
0.465339 -0.013201 -0.006795
0.465339 -0.033015 -0.023021
0.465339 -0.004013 -0.046993
0.465339 -0.027017 0.095395
0.465339 -0.071582 0.031806
0.465339 -0.089043 0.013505
0.465339 0.009797 0.017901
0.465339 0.027645 -0.033123
0.465339 0.048911 0.008673
0.465339 0.078216 0.014882
0.465339 -0.062445 -0.077382
0.465339 -0.094107 -0.007248
0.465339 -0.020683 0.084357
0.465339 0.061143 -0.043429
0.465339 -0.021011 0.052069
0.465339 -0.054963 0.001477
0.465339 -0.021213 0.030976
0.465339 -0.057804 -0.015551
0.465339 0.037301 0.056511
0.465339 -0.068318 -0.024526
0.465339 0.063254 -0.009254
0.465339 -0.049779 0.043863
0.465339 -0.042530 -0.065122
0.465339 0.010181 0.080684
0.465339 -0.060069 0.036131
0.465339 -0.071221 0.067724
0.465339 -0.093747 -0.001528
0.465339 0.083229 0.037550
0.465339 0.007138 -0.003397
0.465339 0.051423 0.031428
0.465339 0.073893 -0.041900
0.465339 -0.015300 0.006782
0.465339 0.050517 -0.052907
0.465339 -0.062092 -0.051494
0.465339 -0.099075 0.005366
0.465339 -0.023346 0.029699
0.465339 0.052325 0.064596
0.465339 0.031751 -0.060497
0.465339 0.065276 -0.061086
0.465339 0.045640 0.074781
0.465339 -0.030836 0.086024
0.465339 -0.022098 -0.021984
0.465339 -0.072445 0.035796
0.465339 0.044038 0.000174
0.465339 -0.013919 -0.026525
0.465339 0.083808 -0.049052
0.465339 -0.022496 -0.046938
0.465339 -0.045809 -0.042651
0.465339 0.012336 -0.043057
0.465339 -0.053801 -0.077789
0.465339 -0.036986 -0.021814
0.465339 -0.056443 0.017564
0.465339 -0.056650 -0.044695
0.465339 0.004022 -0.047483
0.465339 0.060212 -0.026119
0.465339 -0.029909 -0.009488
0.465339 0.020909 -0.058519
0.465339 0.044854 -0.076137
0.465339 -0.028457 0.095724
0.465339 0.025506 0.005203
0.465339 0.067504 -0.060822
0.465339 -0.025345 0.087177
0.465339 -0.099121 -0.009967
0.465339 -0.064566 0.030926
0.465339 -0.073466 0.004433
0.465339 0.022046 -0.055725
0.465339 0.035034 0.029985
0.465339 -0.038509 -0.062833
0.465339 0.094687 0.016860
0.465339 -0.068737 -0.065904
0.465339 -0.019587 -0.022098
0.465339 0.052293 0.008672
0.465339 0.090422 0.037484
0.465339 -0.031526 0.024656
0.465339 0.044749 -0.054559
0.465339 -0.002885 -0.033173
0.465339 -0.083145 -0.023192
0.465339 0.033316 0.004424
0.465339 -0.034126 0.010271
0.465339 -0.065900 0.016901
0.465339 -0.057477 0.050445
0.465339 0.021966 -0.091278
0.465339 0.027036 0.021672
0.465339 -0.015134 -0.070073
0.465339 -0.066111 0.062980
0.465339 -0.061300 -0.037674
0.465339 0.058702 -0.069375
0.465339 -0.015454 -0.005122
0.465339 -0.014949 0.042872
0.465339 -0.064642 -0.022464
0.465339 -0.081750 -0.039594
0.465339 -0.073912 -0.024877
0.465339 -0.057569 -0.036168
0.465339 -0.025889 0.073625
0.465339 0.046434 -0.010720
0.465339 0.001566 -0.063768
0.465339 -0.029366 0.020620
0.465339 0.043300 -0.071455
0.465339 -0.079283 0.037160
0.465339 0.081761 0.044348
0.465339 -0.045000 0.056467
0.465339 0.047470 0.070584
0.465339 -0.030816 -0.047305
0.465339 0.087702 0.041712
0.465339 -0.071079 0.061794
0.465339 -0.007006 -0.088338
0.465339 -0.063825 0.052512
0.465339 0.010146 0.037725
0.465339 0.043290 0.037657
0.465339 -0.021420 0.034179
0.465339 0.054031 0.072608
0.465339 0.004691 0.079039
0.465339 0.071529 0.029929
0.465339 -0.068929 0.009653
0.465339 0.000183 0.092573
0.465339 0.060323 -0.019501
0.465339 0.005084 -0.017101
0.465339 0.003063 0.017372
0.465339 0.095278 0.030455
0.465339 0.050093 0.045044
0.465339 0.021066 -0.016524
0.465339 0.053050 0.044597
0.465339 -0.010776 -0.093700
0.465339 -0.010421 -0.005469
0.465339 -0.063860 0.067823
0.465339 0.018648 0.057271
0.465339 0.013767 0.087240
0.465339 -0.008998 -0.017625
0.465339 -0.048703 -0.066153
0.465339 0.006122 -0.015059
0.465339 0.009328 -0.048760
0.465339 0.066161 -0.056456
0.465339 -0.006387 0.082123
0.465339 0.070227 0.039001
0.465339 0.014201 0.061878
0.465339 -0.023274 0.065207
0.465339 -0.067862 -0.007265
0.465339 0.060747 -0.059226
0.465339 0.003839 0.049087
0.465339 0.078956 -0.006201
0.465339 0.036554 0.015081
0.465339 -0.021534 -0.020123
0.465339 0.017877 0.091304
0.465339 -0.065339 0.019372
0.465339 -0.022323 -0.080021
0.465339 -0.032611 0.069819
0.465339 -0.004245 -0.060056
0.465339 0.028525 0.008987
0.465339 0.010534 -0.047213
0.465339 -0.015948 0.081222
0.465339 0.065486 0.001702
0.465339 -0.046141 0.080885
0.465339 0.093306 0.033081
0.465339 -0.054614 0.043832
0.465339 -0.093260 0.030070
0.465339 -0.007438 0.062790
0.465339 0.016331 0.057023
0.465339 0.093529 0.019104
0.465339 -0.076688 -0.041574
0.465339 -0.066322 0.024114
0.465339 0.046433 -0.082875
0.465339 -0.050546 0.080287
0.465339 -0.015906 -0.001470
0.465339 0.050206 -0.058606
0.465339 -0.036206 -0.071632
0.465339 -0.015157 0.008278
0.465339 -0.081913 0.056568
0.465339 0.057185 0.052330
0.465339 0.065152 0.067452
0.465339 -0.006608 0.050918
0.465339 0.095112 0.001286
0.465339 0.057172 0.048562
0.465339 -0.043927 -0.064548
0.465339 0.016110 0.085154
0.465339 0.076823 -0.036129
0.465339 0.094989 -0.012467
0.465339 0.086553 0.020331
0.465339 -0.063561 0.054760
0.465339 -0.050345 -0.055842
0.465339 0.060799 -0.053548
0.465339 -0.090451 -0.037549
0.465339 0.055237 0.003714
0.465339 0.016153 -0.077664
0.465339 -0.067598 -0.015861
0.465339 -0.031245 0.033622
0.465339 0.007446 -0.061981
0.465339 0.059017 -0.042149
0.465339 0.070117 0.036232
0.465339 -0.007722 0.048951
0.465339 -0.081742 -0.022381
0.465339 -0.004977 -0.070386
0.465339 0.064638 -0.058327
0.465339 -0.041318 0.069533
0.465339 -0.016567 0.035543
0.465339 0.022473 0.037896
0.465339 -0.026336 -0.033816
0.465339 -0.074813 0.050593
0.465339 0.012143 0.013788
0.465339 0.018427 -0.002545
0.465339 0.036954 0.008389
0.465339 -0.037429 -0.047804
0.465339 0.032858 -0.040676
0.465339 -0.004523 -0.093246
0.465339 0.047316 0.042343
0.465339 0.033039 0.044176
0.465339 0.086713 0.012896
0.465339 -0.017990 0.036114
0.465339 -0.032907 0.030071
0.465339 -0.061608 0.063950
0.465339 0.053027 -0.079467
0.465339 -0.002044 0.003904
0.465339 0.039307 0.072644
0.465339 -0.045761 -0.033800
0.465339 0.066907 0.031799
0.465339 -0.017741 -0.070622
0.465339 -0.001367 0.049084
0.465339 -0.009237 0.022344
0.465339 -0.037640 0.036952
0.465339 0.029320 -0.010150
0.465339 -0.090758 -0.006580
0.465339 0.022303 -0.019094
0.465339 0.033218 0.022994
0.465339 0.050828 -0.062393
0.465339 0.023084 -0.047004
0.465339 -0.039843 -0.030062
0.465339 0.050593 0.086298
0.465339 -0.019877 -0.097397
0.465339 0.020509 0.001046
0.465339 -0.027700 0.034792
0.465339 0.031471 0.053998
0.465339 -0.039091 0.091029
0.465339 0.036763 0.093090
0.465339 0.073891 0.054015
0.465339 -0.026028 -0.002700
0.465339 0.052289 -0.044989
0.465339 -0.031655 0.093742
0.465339 -0.037346 -0.015146
0.465339 0.013956 -0.048393
0.465339 0.042468 0.039047
0.465339 -0.029120 -0.028614
0.465339 -0.034181 -0.091192
0.465339 0.078183 -0.036876
0.465339 -0.032735 0.076802
0.465339 0.015146 -0.098442
0.465339 -0.000647 0.007025
0.465339 -0.015022 -0.077472
0.465339 -0.026648 0.062263
0.465339 -0.005482 0.085796
0.465339 0.072039 -0.053907
0.465339 0.058903 -0.021026
0.465339 -0.090960 -0.020430
0.465339 0.036542 -0.061925
0.465339 0.081866 -0.049926
0.465339 0.039935 -0.028283
0.465339 0.018557 -0.051438
0.465339 -0.039419 -0.072368
0.465339 -0.015698 -0.098349
0.465339 0.051131 -0.083520
0.465339 0.030556 0.068506
0.465339 0.071164 0.037550
0.465339 0.096979 0.018197
0.465339 -0.055492 -0.033876
0.465339 -0.017861 -0.068449
0.465339 0.057956 -0.077374
0.465339 0.049524 0.041996
0.465339 -0.076502 -0.038881
0.465339 -0.044657 -0.071341
0.465339 -0.013125 -0.010904
0.465339 -0.070636 -0.010027
0.465339 0.036612 0.022620
0.465339 -0.032814 0.088789
0.465339 0.015586 -0.005872
0.465339 0.009032 -0.098837
0.465339 -0.082316 0.023517
0.465339 -0.013880 -0.008168
0.465339 -0.077834 0.038045
0.465339 -0.023136 -0.088174
0.465339 0.087979 -0.008401
0.465339 -0.085061 0.015597
0.465339 -0.067063 0.015494
0.465339 0.041981 0.008040
0.465339 0.000117 -0.045274
0.465339 -0.018379 0.045259
0.465339 -0.030371 0.004767
0.465339 -0.002400 -0.063613
0.465339 -0.028033 -0.050875
0.465339 -0.036052 0.084684
0.465339 -0.086930 0.040424
0.465339 -0.049487 -0.049169
0.465339 0.049791 -0.013109
0.465339 0.054358 0.079519
0.465339 0.088861 0.024777
0.465339 -0.087665 0.020014
0.465339 -0.068092 0.062804
0.465339 -0.060962 -0.031764
0.465339 0.021646 -0.059892
0.465339 0.027117 0.006357
0.465339 -0.090486 -0.015981
0.465339 0.034520 0.087623
0.465339 0.001937 0.071501
0.465339 0.052936 0.006388
0.465339 0.083799 0.008438
0.465339 0.055095 0.053518
0.465339 -0.012129 -0.017536
0.465339 -0.014872 0.046247
0.465339 -0.078251 0.044477
0.465339 -0.012731 -0.001690
0.465339 -0.059418 -0.056553
0.465339 -0.003150 0.056943
0.465339 -0.031150 -0.035071
0.465339 -0.000188 0.059168
0.465339 0.056344 0.018224
0.465339 -0.048435 0.010756
0.465339 -0.046300 -0.070193
0.465339 -0.063937 0.047008
0.465339 -0.090682 0.002776
0.465339 0.018143 0.031461
0.465339 0.016064 -0.032092
0.465339 0.008591 0.089798
0.465339 0.020503 -0.043936
0.465339 0.086312 -0.008875
0.465339 -0.007362 0.001685
0.465339 -0.060973 -0.018113
0.465339 -0.053339 -0.013178
0.465339 0.014778 -0.066262
0.465339 0.050169 0.002778
0.465339 0.067506 0.069641
0.465339 0.014080 0.063840
0.465339 -0.082307 -0.038115
0.465339 -0.043983 -0.040956
0.465339 -0.013646 -0.072773
0.465339 0.056871 0.024375
0.465339 -0.006899 0.089715
0.465339 0.010709 0.039181
0.465339 -0.004812 -0.034996
0.465339 -0.089059 -0.030932
0.465339 0.064802 -0.001218
0.465339 -0.079740 0.013214
0.465339 -0.062118 0.053628
0.465339 0.021841 -0.004555
0.465339 -0.014384 0.031463
0.465339 0.015910 0.029215
0.465339 -0.050334 0.064098
0.465339 0.009291 0.058659
0.465339 -0.026349 -0.051407
0.465339 0.029671 0.093259
0.465339 0.046457 0.021866
0.465339 -0.031841 0.028843
0.465339 0.036608 -0.056580
0.465339 -0.044899 0.034983
0.465339 -0.062014 -0.075719
0.465339 0.010080 0.044660
0.465339 -0.014255 -0.019050
0.465339 -0.043019 -0.063476
0.465339 0.057338 -0.069753
0.465339 -0.066772 0.047310
0.465339 0.071200 -0.043657
0.465339 -0.062093 0.070870
0.465339 -0.086832 -0.024400
0.465339 0.003240 -0.099475
0.465339 -0.043936 -0.080952
0.465339 0.058255 0.027725
0.465339 -0.040613 0.000365
0.465339 0.065519 -0.026346
0.465339 -0.088875 0.037658
0.465339 -0.054253 -0.067948
0.465339 0.012168 0.088816
0.465339 -0.055266 -0.021555
0.465339 -0.000817 -0.033719
0.465339 0.085818 0.021483
0.465339 -0.049936 0.086293
0.465339 0.006135 -0.098172
0.465339 0.002470 -0.047589
0.465339 -0.041612 -0.062726
0.465339 0.092983 -0.008150
0.465339 0.035558 0.050282
0.465339 0.059285 0.013092
0.465339 0.011157 -0.096492
0.465339 0.079337 -0.018778
0.465339 -0.087807 0.042345
0.465339 0.026198 -0.050184
0.465339 -0.050280 -0.007127
0.465339 0.019562 0.055936
0.465339 -0.087103 0.033247
0.465339 -0.003726 -0.082524
0.465339 0.081930 -0.039063
0.465339 -0.044939 0.036549
0.465339 -0.041383 0.060493
0.465339 0.035086 -0.032924
0.465339 -0.032150 -0.060999
0.465339 0.084152 0.009949
0.465339 -0.055941 -0.071272
0.465339 -0.067997 0.025216
0.465339 0.039671 -0.057619
0.465339 0.029970 0.057904
0.465339 -0.070700 0.065537
0.465339 -0.005550 -0.036222
0.465339 0.053398 -0.019886
0.465339 0.046706 -0.019338
0.465339 0.011225 0.076710
0.465339 0.097029 -0.001306
0.465339 0.071721 -0.019186
0.465339 0.056003 -0.026916
0.465339 -0.032426 0.068378
0.465339 0.094288 -0.026438
0.465339 0.003423 0.053666
0.465339 -0.008489 -0.034161
0.465339 0.055735 -0.058384
0.465339 -0.041699 0.005475
0.465339 0.070527 0.014256
0.465339 -0.004156 0.016108
0.465339 -0.019041 0.081604
0.465339 -0.000533 0.002224
0.465339 -0.008174 -0.068064
0.465339 -0.026070 0.055872
0.465339 -0.017639 -0.002718
0.465339 -0.058626 0.019941
0.465339 -0.057876 0.032856
0.465339 -0.063899 0.021753
0.465339 -0.055520 -0.051676
0.465339 -0.072058 0.028413
0.465339 -0.074023 0.066625
0.465339 0.025862 0.081980
0.465339 0.042292 0.030236
0.465339 0.041103 -0.019250
0.465339 0.075067 -0.009194
0.465339 -0.029789 -0.001077
0.465339 0.083928 0.043486
0.465339 0.007571 -0.065172
0.465339 0.033391 -0.024559
0.465339 -0.028833 -0.032058
0.465339 0.025459 0.022315
0.465339 0.024182 0.037348
0.465339 -0.071856 0.048997
0.465339 0.090022 -0.043234
0.465339 -0.063211 0.018618
0.465339 0.053432 -0.077231
0.465339 0.060972 0.030697
0.465339 0.022473 -0.037699
0.465339 -0.059311 0.079781
0.465339 0.072594 0.000293
0.465339 -0.052246 -0.026452
0.465339 -0.038596 -0.059852
0.465339 0.005027 0.059499
0.465339 -0.011761 0.003263
0.465339 -0.016704 0.055875
0.465339 -0.067973 -0.039472
0.465339 -0.040054 -0.009517
0.465339 -0.051853 -0.000575
0.465339 0.045488 0.007877
0.465339 0.064194 0.061952
0.465339 -0.052586 0.050212
0.465339 -0.023275 -0.017395
0.465339 0.052337 0.083132
0.465339 0.087901 0.043813
0.465339 -0.012188 -0.049750
0.465339 -0.076716 -0.004287
0.465339 -0.070143 0.023180
0.465339 0.078151 0.004878
0.465339 -0.025795 0.094508
0.465339 0.056697 0.068582
0.465339 0.030650 -0.078501
0.465339 0.077483 -0.025792
0.465339 -0.053285 0.039720
0.465339 0.053510 0.077139
0.465339 0.084535 -0.023840
0.465339 -0.027881 -0.065090
0.465339 -0.031357 0.060821
0.465339 0.011763 -0.016475
0.465339 -0.011883 0.015562
0.465339 0.075172 0.060800
0.465339 0.039454 -0.042585
0.465339 -0.070606 0.005655
0.465339 -0.058196 0.038649
0.465339 0.049006 -0.070412
0.465339 -0.003687 -0.010464
0.465339 0.059771 -0.052160
0.465339 -0.076653 -0.029836
0.465339 0.038073 0.081670
0.465339 0.095410 0.023033
0.465339 0.066063 -0.063755
0.465339 -0.068913 0.036777
0.465339 -0.048664 0.066062
0.465339 0.033121 0.067198
0.465339 0.051433 0.051933
0.465339 -0.018782 0.057364
0.465339 -0.013781 0.014384
0.465339 -0.000251 -0.061459
0.465339 0.034679 0.043293
0.465339 -0.063160 -0.003725
0.465339 0.056898 -0.053910
0.465339 0.037595 -0.058400
0.465339 0.038001 0.018217
0.465339 0.052239 -0.004403
0.465339 -0.029442 -0.078172
0.465339 0.034037 -0.016305
0.465339 0.046595 0.037156
0.465339 -0.010005 0.047338
0.465339 -0.015307 -0.079968
0.465339 -0.023368 -0.083198
0.465339 0.040622 0.077869
0.465339 -0.087010 0.010056
0.465339 -0.054018 0.062580
0.465339 -0.015426 0.004280
0.465339 -0.027007 -0.081785
0.465339 -0.045625 -0.029759
0.465339 -0.072491 -0.049008
0.465339 0.009629 -0.031746
0.465339 -0.002336 -0.072963
0.465339 -0.072113 -0.064261
0.465339 -0.029489 -0.036698
0.465339 0.039620 -0.021982
0.465339 0.072283 -0.030359
0.465339 -0.004581 -0.019800
0.465339 -0.081071 -0.005459
0.465339 0.062607 0.066933
0.465339 0.033216 0.007336
0.465339 -0.030185 0.090025
0.465339 0.038386 -0.075696
0.465339 -0.048525 0.022529
0.465339 0.051967 0.011751
0.465339 0.060596 0.042115
0.465339 0.084654 -0.000783
0.465339 0.051871 -0.040183
0.465339 0.024643 0.050355
0.465339 -0.000039 -0.018038
0.465339 0.027654 0.043335
0.465339 0.023849 0.057960
0.465339 -0.047051 0.000913
0.465339 0.039468 -0.066431
0.465339 0.053706 -0.082883
0.465339 -0.032962 0.008017
0.465339 -0.070118 -0.024946
0.465339 -0.072720 0.043374
0.465339 -0.027181 0.048246
0.465339 0.026616 0.017446
0.465339 0.036627 -0.055019
0.465339 -0.065657 0.029010
0.465339 0.054428 0.056198
0.465339 -0.044512 0.028669
0.465339 -0.054498 -0.083156
0.465339 -0.034393 -0.034123
0.465339 0.000856 0.024961
0.465339 -0.043363 -0.003694
0.465339 0.031980 0.087106
0.465339 0.020111 -0.062257
0.465339 -0.068299 0.052360
0.465339 -0.073008 0.050230
0.465339 -0.076805 0.001519
0.465339 -0.025787 -0.031057
0.465339 0.012287 0.002315
0.465339 -0.059545 0.048245
0.465339 -0.055717 0.059218
0.465339 -0.008564 -0.095568
0.465339 0.021872 -0.047933
0.465339 -0.077043 0.040234
0.465339 -0.061524 0.005389
0.465339 -0.017799 0.026646
0.465339 0.082119 0.031743
0.465339 -0.001223 -0.050484
0.465339 0.079445 -0.022623
0.465339 0.040784 0.004558
0.465339 0.064880 -0.035938
0.465339 0.048789 -0.030290
0.465339 -0.023333 -0.038341
0.465339 0.000459 -0.066355
0.465339 -0.012836 -0.059210
0.465339 -0.014372 -0.011389
0.465339 -0.082901 0.036908
0.465339 0.014926 -0.030101
0.465339 -0.060852 0.076703
0.465339 0.081938 0.003337
0.465339 0.075087 -0.058079
0.465339 0.071960 0.020391
0.465339 -0.009707 0.024525
0.465339 0.034543 0.064981
0.465339 -0.007793 0.042240
0.465339 0.034997 -0.087639
0.465339 0.060395 -0.040747
0.465339 0.004040 -0.041441
0.465339 -0.041517 0.028119
0.465339 0.084763 -0.042091
0.465339 0.032778 0.028195
0.465339 -0.042347 0.050340
0.465339 0.028276 0.058529
0.465339 -0.046188 0.088368
0.465339 0.074632 -0.012388
0.465339 0.015380 -0.050712
0.465339 0.003949 0.044327
0.465339 -0.064777 0.072085
0.465339 -0.049953 -0.029663
0.465339 0.029330 0.028042
0.465339 -0.041557 -0.010239
0.465339 0.047380 0.047497
0.465339 -0.042003 0.065005
0.465339 0.023497 0.093677
0.465339 -0.094523 0.011982
0.465339 0.022181 0.045217
0.465339 0.009438 0.088042
0.465339 0.029368 -0.095216
0.465339 -0.070696 -0.058306
0.465339 -0.016998 0.008567
0.465339 -0.089908 0.028720
0.465339 0.029477 -0.054391
0.465339 -0.035849 -0.030769
0.465339 -0.077570 -0.018977
0.465339 -0.034453 -0.036030
0.465339 -0.018678 -0.047304
0.465339 0.006861 -0.034309
0.465339 0.017634 0.008298
0.465339 -0.046479 0.051649
0.465339 -0.074984 0.065125
0.465339 0.043986 -0.030232
0.465339 -0.069708 0.051580
0.465339 -0.029153 -0.035233
0.465339 -0.048826 -0.019420
0.465339 -0.025200 -0.088441
0.465339 0.089806 0.007052
0.465339 -0.057209 0.022165
0.465339 0.074668 -0.046025
0.465339 -0.035832 -0.068674
0.465339 0.055558 0.052183
0.465339 -0.036021 -0.049178
0.465339 -0.070639 -0.031206
0.465339 -0.049940 -0.036259
0.465339 -0.042235 0.063430
0.465339 0.080069 -0.055986
0.465339 0.024601 0.032522
0.465339 -0.054344 0.065976
0.465339 0.097830 0.004925
0.465339 0.088415 -0.025369
0.465339 0.033898 -0.082226
0.465339 -0.050085 -0.032845
0.465339 -0.071776 0.034332
0.465339 0.035264 -0.081536
0.465339 -0.018478 0.067946
0.465339 -0.015134 -0.087216
0.465339 -0.040724 0.044708
0.465339 -0.044229 0.087832
0.465339 -0.045412 -0.075883
0.465339 -0.083710 0.003925
0.465339 -0.020396 -0.025239
0.465339 -0.016651 0.002185
0.465339 -0.004684 0.083780
0.465339 0.027739 -0.002390
0.465339 -0.022127 -0.008166
0.465339 -0.025519 0.051041
0.465339 0.065651 -0.030609
0.465339 0.037028 -0.090613
0.465339 0.065732 -0.021244
0.465339 0.065382 0.060682
0.465339 0.067343 0.021869
0.465339 0.069935 -0.028314
0.465339 -0.001881 0.069656
0.465339 -0.080986 -0.057872
0.465339 0.066235 0.007594
0.465339 -0.056109 -0.080479
0.465339 0.020626 -0.064290
0.465339 -0.009149 0.033718
0.465339 0.037126 -0.064432
0.465339 -0.047191 -0.053072
0.465339 -0.079696 -0.002894
0.465339 -0.034158 -0.083539
0.465339 -0.062273 0.047567
0.465339 0.081490 0.054331
0.465339 0.029882 -0.005118
0.465339 -0.025312 -0.010765
0.465339 -0.029229 -0.012873
0.465339 0.003603 -0.061087
0.465339 0.007177 -0.081480
0.465339 -0.003308 0.097392
0.465339 -0.011907 -0.092801
0.465339 0.058958 0.069108
0.465339 -0.000951 -0.085492
0.465339 -0.049552 -0.041306
0.465339 0.008652 -0.089561
0.465339 0.091565 0.036078
0.465339 -0.007954 -0.038576
0.465339 -0.030051 0.084326
0.465339 0.041985 -0.066468
0.465339 0.063630 -0.045936
0.465339 -0.047270 0.024433
0.465339 -0.002158 0.058353
0.465339 0.030668 0.071521
0.465339 -0.062062 -0.014269
0.465339 0.072308 0.008896
0.465339 -0.034713 0.041099
0.465339 -0.022463 0.035313
0.465339 -0.070053 -0.017124
0.465339 -0.052112 -0.068922
0.465339 0.034022 0.006020
0.465339 0.082123 0.041207
0.465339 0.048908 -0.002499
0.465339 -0.007680 -0.008341
0.465339 0.003519 0.070740
0.465339 -0.084956 0.007971
0.465339 0.054200 0.039825
0.465339 -0.066750 -0.002540
0.465339 -0.010982 -0.047349
0.465339 0.045085 0.010857
0.465339 0.085960 0.017809
0.465339 -0.001569 0.090684
0.465339 -0.081967 -0.026447
0.465339 -0.037423 -0.087131
0.465339 -0.004397 -0.033439
0.465339 -0.041521 0.070983
0.465339 0.007202 -0.042937
0.465339 0.056899 0.042068
0.465339 -0.065531 -0.074350
0.465339 0.036738 -0.022946
0.465339 -0.002065 0.036881
0.465339 -0.030112 -0.021999
0.465339 -0.035738 0.027481
0.465339 0.022824 -0.061971
0.465339 0.006096 0.046715
0.465339 -0.085558 0.009637
0.465339 0.002222 -0.040936
0.465339 -0.005173 0.097369
0.465339 -0.007614 0.018445
0.465339 -0.010874 0.078018
0.465339 -0.018413 -0.029830
0.465339 0.018331 -0.007382
0.465339 0.022542 0.061850
0.465339 0.044231 -0.086618
0.465339 -0.085323 -0.045969
0.465339 0.061073 -0.048996
0.465339 0.039274 -0.041130
0.465339 -0.030633 -0.091164
0.465339 0.052769 -0.048888
0.465339 -0.054058 -0.046380
0.465339 0.068902 0.003165
0.465339 0.002147 0.089210
0.465339 -0.073571 -0.043126
0.465339 0.043238 -0.025300
0.465339 0.015469 0.000537
0.465339 0.039136 -0.017089
0.465339 0.009206 0.009326
0.465339 0.082202 -0.040522
0.465339 -0.042655 -0.044012
0.465339 0.010754 0.047719
0.465339 -0.031058 0.011060
0.465339 0.010773 0.088911
0.465339 0.010789 0.035610
0.465339 0.027223 -0.015255
0.465339 0.023524 -0.070865
0.465339 -0.002170 0.047809
0.465339 0.040156 0.011825
0.465339 0.045827 0.029136
0.465339 0.029976 -0.003250
0.465339 -0.064530 0.024188
0.465339 0.031882 -0.063327
0.465339 -0.094487 0.005124
0.465339 -0.061970 0.038592
0.465339 -0.034685 -0.016422
0.465339 -0.059985 -0.019991
0.465339 0.020961 -0.074625
0.465339 0.059072 -0.080327
0.465339 -0.014687 0.018011
0.465339 -0.012492 0.033206
0.465339 -0.010566 0.022618
0.465339 0.091342 0.012144
0.465339 0.092585 -0.000020
0.465339 0.009657 -0.022171
0.465339 -0.044874 -0.072926
0.465339 0.051859 0.017542
0.465339 0.016811 -0.002414
0.465339 0.071786 -0.016828
0.465339 -0.053314 0.008045
0.465339 0.074154 -0.063061
0.465339 -0.016047 0.019155
0.465339 -0.064014 0.014199
0.465339 -0.012290 0.074881
0.465339 -0.050323 -0.047797
0.465339 -0.042535 0.053328
0.465339 0.004494 -0.048960
0.465339 0.087080 0.034404
0.465339 0.031609 0.004708
0.465339 0.059080 0.065682
0.465339 -0.016970 0.044774
0.465339 0.011105 0.009318
0.465339 -0.044674 -0.088748
0.465339 -0.004168 0.067966
0.465339 0.066487 0.045780
0.465339 0.072919 0.039237
0.465339 -0.095298 0.010545
0.465339 0.043116 0.023335
0.465339 0.045233 -0.053271
0.465339 0.032064 -0.080808
0.465339 -0.063877 -0.050742
0.465339 -0.009151 0.082686
0.465339 0.069990 0.063896
0.465339 0.054411 -0.049962
0.465339 0.075402 0.002577
0.465339 0.042119 0.032825
0.465339 -0.041822 0.038100
0.465339 0.047325 0.043831
0.465339 0.021263 0.069686
0.465339 0.024994 -0.019472
0.465339 0.071962 0.011969
0.465339 0.055625 -0.034266
0.465339 0.049674 0.081101
0.465339 0.090542 0.010075
0.465339 0.000442 0.071789
0.465339 -0.045293 -0.011901
0.465339 -0.079807 0.044328
0.465339 0.023554 0.073676
0.465339 0.009736 -0.011390
0.465339 -0.082420 -0.046899
0.465339 -0.059446 -0.074726
0.465339 0.020677 -0.019806
0.465339 0.095547 -0.008626
0.465339 0.002868 0.099569
0.465339 -0.000022 -0.009515
0.465339 0.065605 0.010376
0.465339 -0.021635 -0.014677
0.465339 0.026671 -0.061313
0.465339 -0.001384 0.060072
0.465339 0.028345 0.084559
0.465339 -0.025453 -0.009206
0.465339 0.096749 0.000307
0.465339 0.062387 0.035128
0.465339 -0.019791 -0.020358
0.465339 0.015295 -0.059829
0.465339 0.006736 -0.096534
0.465339 0.012321 -0.058342
0.465339 0.008286 -0.044984
0.465339 0.032757 -0.049176
0.465339 0.002200 0.077897
0.465339 0.045334 -0.056065
0.465339 0.001588 0.065785
0.465339 0.025983 -0.095703
0.465339 -0.002288 0.085967
0.465339 0.073829 -0.016728
0.465339 0.055764 -0.071614
0.465339 -0.030968 -0.070586
0.465339 0.007703 0.048224
0.465339 -0.044366 0.021817
0.465339 0.062101 -0.059735
0.465339 -0.039651 -0.084781
0.465339 -0.005158 -0.022032
0.465339 0.031106 -0.037216
0.465339 0.022770 0.002836
0.465339 -0.019032 0.034842
0.465339 0.006289 -0.074509
0.465339 0.015161 -0.080245
0.465339 0.001985 0.009086
0.465339 -0.002407 -0.089644
0.465339 0.005491 -0.070982
0.465339 -0.055325 0.057589
0.465339 0.050802 -0.021188
0.465339 -0.037759 -0.002399
0.465339 -0.052420 0.078023
0.465339 0.011310 -0.062999
0.465339 -0.013802 -0.038045
0.465339 0.085381 -0.012046
0.465339 -0.041873 -0.003600
0.465339 0.071200 0.058781
0.465339 0.036859 -0.073440
0.465339 0.079008 -0.002656
0.465339 0.004424 -0.076151
0.465339 -0.003473 -0.022064
0.465339 0.084524 0.017113
0.465339 0.003920 -0.071073
0.465339 -0.087993 -0.012455
0.465339 -0.027282 0.000679
0.465339 -0.057339 0.053653
0.465339 0.053689 0.019831
0.465339 0.089109 -0.028103
0.465339 -0.026265 -0.044795
0.465339 -0.045971 -0.016049
0.465339 0.051805 -0.019976
0.465339 -0.065956 -0.034048
0.465339 0.023131 0.041036
0.465339 -0.087395 -0.031251
0.465339 -0.039291 -0.027036
0.465339 0.052130 -0.067790
0.465339 -0.065312 -0.051949
0.465339 0.068901 -0.052028
0.465339 0.057041 -0.002444
0.465339 0.091878 0.028338
0.465339 0.054478 -0.055087
0.465339 0.007692 0.088572
0.465339 -0.009909 0.089835
0.465339 -0.047947 0.029967
0.465339 -0.029678 0.050023
0.465339 0.001797 -0.067767
0.465339 0.013808 0.049424
0.465339 0.034341 -0.039320
0.465339 -0.011751 0.091860
0.465339 -0.013189 0.012763
0.465339 -0.060076 0.057602
0.465339 0.032555 0.064319
0.465339 -0.015076 -0.006658
0.465339 -0.058464 0.062762
0.465339 -0.043448 0.073394
0.465339 -0.066376 -0.007604
0.465339 -0.057322 -0.064898
0.465339 0.094431 0.008446
0.465339 0.062504 -0.066634
0.465339 0.011853 -0.022231
0.465339 -0.087402 0.028314
0.465339 0.045782 -0.081130
0.465339 -0.049916 -0.063846
0.465339 -0.017393 0.059084
0.465339 0.002183 -0.097626
0.465339 -0.029749 0.009786
0.465339 -0.085626 -0.003646
0.465339 0.047640 -0.067244
0.465339 0.029202 0.055116
0.465339 -0.021559 0.054579
0.465339 0.023937 0.035962
0.465339 0.057507 -0.056761
0.465339 0.022720 -0.045501
0.465339 -0.097545 -0.002566
0.465339 -0.053625 0.074018
0.465339 0.009959 -0.038929
0.465339 0.020909 0.096421
0.465339 -0.080084 0.008569
0.465339 -0.038697 -0.010400
0.465339 -0.031977 0.017737
0.465339 0.006839 -0.038635
0.465339 -0.079090 -0.037804
0.465339 -0.030520 -0.056095
0.465339 0.066143 0.051617
0.465339 0.021153 -0.024536
0.465339 -0.046838 -0.040093
0.465339 -0.064415 -0.030432
0.465339 -0.018002 -0.076913
0.465339 -0.023144 0.045460
0.465339 -0.019329 -0.092642
0.465339 -0.035744 -0.079268
0.465339 -0.022820 0.072901
0.465339 0.006577 0.036836
0.465339 -0.050381 -0.082328
0.465339 0.026256 -0.031856
0.465339 -0.063067 -0.063477
0.465339 0.026792 0.079632
0.465339 0.029632 0.091682
0.465339 0.063728 0.001648
0.465339 0.061976 -0.023663
0.465339 -0.039773 0.053509
0.465339 -0.040480 0.042743
0.465339 -0.030742 -0.031112
0.465339 0.008202 -0.020737
0.465339 0.045270 0.031580
0.465339 -0.077757 -0.061662
0.465339 -0.057188 0.055081
0.465339 -0.047587 -0.073133
0.465339 0.093242 0.025410
0.465339 0.036141 0.088116
0.465339 -0.003987 -0.053852
0.465339 0.060216 0.005384
0.465339 -0.057351 -0.078937
0.465339 0.002352 -0.002090
0.465339 0.068321 0.061146
0.465339 0.088516 -0.014709
0.465339 -0.013059 0.051081
0.465339 0.065802 -0.019436
0.465339 0.045939 -0.058534
0.465339 -0.015502 0.049300
0.465339 -0.072203 -0.033767
0.465339 -0.063771 0.010685
0.465339 -0.066096 0.012367
0.465339 -0.064933 -0.049566
0.465339 -0.055587 -0.008073
0.465339 -0.046778 -0.061678
0.465339 0.070646 -0.034787
0.465339 -0.065722 -0.023385
0.465339 -0.074559 0.029686
0.465339 -0.083199 0.034336
0.465339 0.056114 0.074147
0.465339 -0.076508 0.046153
0.465339 -0.073686 0.016817
0.465339 -0.087349 -0.007364
0.465339 -0.054075 -0.040460
0.465339 0.091216 -0.003860
0.465339 -0.071687 0.023150
0.465339 -0.014092 0.087777
0.465339 0.059102 -0.056583
0.465339 0.000800 -0.050027
0.465339 0.077674 0.008393
0.465339 -0.000583 0.017630
0.465339 0.042027 -0.060340
0.465339 0.022209 -0.000096
0.465339 -0.055471 -0.065166
0.465339 0.031414 0.034890
0.465339 -0.049304 0.019849
0.465339 -0.052238 -0.021669
0.465339 0.089874 -0.018004
0.465339 -0.000878 -0.078010
0.465339 0.008298 -0.096501
0.465339 0.057673 0.000911
0.465339 -0.019143 0.091156
0.465339 0.051202 0.063540
0.465339 -0.062255 -0.026415
0.465339 -0.060476 0.046805
0.465339 0.023826 0.068895
0.465339 -0.028695 0.073009
0.465339 -0.008909 0.017411
0.465339 0.049916 -0.048733
0.465339 0.040860 0.061904
0.465339 0.051145 -0.070722
0.465339 0.086087 -0.029298
0.465339 -0.029220 0.081245
0.465339 0.070388 -0.068460
0.465339 0.067352 -0.001492
0.465339 0.013691 0.020025
0.465339 0.000746 -0.099355
0.465339 -0.009980 0.007086
0.465339 -0.073206 -0.029690
0.465339 -0.017401 0.074384
0.465339 0.025564 0.011014
0.465339 -0.008786 0.073136
0.465339 0.051288 -0.076544
0.465339 0.022857 0.014491
0.465339 0.024038 -0.018188
0.465339 -0.045666 0.064294
0.465339 0.028179 0.024088
0.465339 -0.043789 0.031855
0.465339 0.034485 -0.034647
0.465339 0.030889 -0.010545
0.465339 0.056970 0.070141
0.465339 -0.018389 -0.008123
0.465339 -0.068186 0.022324
0.465339 -0.028922 0.013072
0.465339 -0.028144 0.016352
0.465339 -0.063421 -0.054901
0.465339 0.080849 -0.008309
0.465339 -0.037837 -0.011479
0.465339 -0.041012 0.020594
0.465339 -0.072306 0.010918
0.465339 -0.007661 -0.010343
0.465339 -0.025611 -0.000531
0.465339 -0.053425 0.018602
0.465339 -0.083596 0.016747
0.465339 -0.022930 -0.073898
0.465339 0.042285 -0.034346
0.465339 -0.034852 0.064204
0.465339 0.006013 0.008551
0.465339 0.058190 -0.055322
0.465339 0.001267 -0.003406
0.465339 -0.088499 -0.004164
0.465339 0.049000 -0.024036
0.465339 0.034897 0.077200
0.465339 -0.034068 -0.009141
0.465339 0.048494 -0.057713
0.465339 -0.031075 0.049241
0.465339 0.061664 -0.063617
0.465339 -0.000998 -0.027633
0.465339 0.015843 -0.024548
0.465339 0.070666 0.054968
0.465339 -0.067274 -0.065183
0.465339 -0.045619 -0.068646
0.465339 0.040525 -0.025321
0.465339 0.061620 -0.044907
0.465339 0.045017 -0.016378
0.465339 -0.005175 0.037823
0.465339 -0.067507 -0.030939
0.465339 -0.049686 0.033194
0.465339 0.068760 -0.010860
0.465339 0.003666 0.091359
0.465339 -0.097163 -0.022038
0.465339 -0.016949 0.011312
0.465339 0.004097 0.008177
0.465339 -0.025434 -0.072321
0.465339 0.099030 -0.006134
0.465339 -0.087329 0.022714
0.465339 0.030199 -0.018840
0.465339 0.059139 -0.048871
0.465339 0.055360 -0.001338
0.465339 -0.067087 0.072201
0.465339 0.015648 -0.089156
0.465339 -0.066653 -0.022159
0.465339 0.001919 0.087590
0.465339 0.010448 0.072192
0.465339 0.012059 0.067235
0.465339 0.076675 -0.024620
0.465339 -0.007827 0.009034
0.465339 0.014725 -0.076149
0.465339 -0.087165 -0.038507
0.465339 0.011100 -0.072135
0.465339 -0.025105 0.004678
0.465339 0.064924 0.050441
0.465339 0.033175 0.002784
0.465339 0.017335 0.058080
0.465339 0.081807 0.013161
0.465339 0.015131 0.050398
0.465339 0.034641 -0.011756
0.465339 -0.009725 0.055024
0.465339 -0.090231 0.042386
0.465339 0.038566 0.007605
0.465339 -0.019366 -0.014328
0.465339 -0.032950 -0.034040
0.465339 0.021550 -0.022778
0.465339 0.052520 0.078290
0.465339 0.057335 0.076391
0.465339 -0.014886 -0.089554
0.465339 -0.016282 -0.089021
0.465339 -0.045256 -0.040077
0.465339 0.001045 0.068720
0.465339 -0.079187 -0.035192
0.465339 -0.062279 -0.066077
0.465339 -0.036150 -0.022986
0.465339 0.046091 0.002227
0.465339 -0.034025 -0.011393
0.465339 0.006386 0.080575
0.465339 -0.048396 -0.062805
0.465339 -0.034596 0.065730
0.465339 -0.059848 -0.014529
0.465339 -0.050499 0.056305
0.465339 -0.002969 -0.091064
0.465339 -0.065658 -0.041119
0.465339 -0.042865 -0.037214
0.465339 -0.072176 0.005535
0.465339 0.003539 0.087426
0.465339 0.078979 -0.010004
0.465339 -0.000618 0.037725
0.465339 -0.033929 -0.087816
0.465339 0.061264 -0.009862
0.465339 -0.045558 -0.044325
0.465339 -0.042532 -0.068390
0.465339 -0.087589 -0.005789
0.465339 -0.032651 0.011741
0.465339 -0.041917 -0.047790
0.465339 0.024593 0.053979
0.465339 -0.084802 -0.015629
0.465339 -0.081798 -0.000022
0.465339 0.051535 0.061946
0.465339 0.084132 0.025228
0.465339 -0.025300 -0.065481
0.465339 -0.086924 0.008488
0.465339 0.028914 -0.006224
0.465339 -0.080296 0.016264
0.465339 -0.021510 -0.063913
0.465339 0.018064 0.026868
0.465339 0.031562 -0.077420
0.465339 -0.042172 -0.052621
0.465339 0.056030 0.021154
0.465339 0.012427 0.033973
0.465339 -0.039175 -0.082780
0.465339 -0.000352 0.012080
0.465339 -0.088353 0.021592
0.465339 0.045670 -0.060995
0.465339 0.038464 -0.007672
0.465339 0.080529 -0.029271
0.465339 -0.069945 -0.051335
0.465339 0.036023 0.027373
0.465339 -0.004182 0.007608
0.465339 -0.005844 0.087459
0.465339 0.059883 -0.029258
0.465339 -0.044292 -0.074272
0.465339 0.021836 -0.053171
0.465339 -0.079183 0.060831
0.465339 0.046195 0.065054
0.465339 -0.070934 -0.020809
0.465339 -0.027712 -0.053828
0.465339 -0.012399 -0.083314
0.465339 -0.048103 0.025667
0.465339 0.087664 0.036729
0.465339 -0.080835 -0.014582
0.465339 0.050060 0.004884
0.465339 -0.056137 0.067732
0.465339 0.038503 -0.044258
0.465339 -0.045996 -0.071937
0.465339 -0.086712 -0.010637
0.465339 -0.054544 0.081335
0.465339 0.033372 0.021466
0.465339 -0.092901 0.022159
0.465339 -0.049616 -0.022492
0.465339 -0.020730 0.023102
0.465339 0.017370 -0.056510
0.465339 -0.056518 0.012720
0.465339 0.027480 0.081556
0.465339 -0.047255 -0.081173
0.465339 0.034006 -0.073661
0.465339 0.083227 -0.053625
0.465339 0.036149 -0.019291
0.465339 0.062553 0.006998
0.465339 0.057322 -0.081209
0.465339 0.045455 -0.022588
0.465339 0.048275 0.073693
0.465339 0.027211 -0.082576
0.465339 0.038901 -0.036775
0.465339 0.069234 0.000293
0.465339 0.088676 -0.010105
0.465339 0.041224 0.040394
0.465339 -0.010731 -0.053102
0.465339 -0.043124 0.024355
0.465339 -0.012677 -0.086954
0.465339 0.057891 0.081133
0.465339 -0.010192 0.003549
0.465339 0.080562 0.030486
0.465339 0.056601 -0.068154
0.465339 0.005559 -0.013536
0.465339 0.009969 -0.097191
0.465339 0.016281 -0.017532
0.465339 0.002270 -0.060112
0.465339 0.018746 0.088434
0.465339 -0.070927 0.029638
0.465339 -0.062517 -0.018714
0.465339 0.007656 -0.086416
0.465339 0.064844 0.031842
0.465339 -0.063432 -0.008253
0.465339 0.007507 -0.060016
0.465339 -0.095193 -0.026376
0.465339 0.013105 -0.078648
0.465339 -0.048780 0.067729
0.465339 -0.077900 0.030050
0.465339 -0.093601 0.026080
0.465339 -0.009455 -0.001642
0.465339 0.024303 0.001998
0.465339 0.094134 -0.021926
0.465339 0.013835 0.033582
0.465339 0.040751 -0.020889
0.465339 0.050319 -0.044034
0.465339 0.094582 0.028716
0.465339 -0.013294 0.097139
0.465339 0.043702 0.060104
0.465339 0.081637 0.047065
0.465339 0.065232 -0.008128
0.465339 -0.089192 0.002629
0.465339 -0.014220 0.055573
0.465339 -0.049221 -0.078801
0.465339 -0.067929 -0.023059
0.465339 -0.027955 -0.095179
0.465339 0.089136 0.030077
0.465339 0.014012 -0.063868
0.465339 0.074393 0.013558
0.465339 0.038934 0.023429
0.465339 0.077620 -0.002194
0.465339 0.041692 -0.049118
0.465339 -0.055342 0.027387
0.465339 0.002633 0.021600
0.465339 -0.003494 -0.027954
0.465339 -0.093952 0.013383
0.465339 0.064507 0.052131
0.465339 0.014361 0.048013
0.465339 -0.015142 -0.073212
0.465339 -0.020434 -0.018755
0.465339 -0.032459 -0.066242
0.465339 -0.000601 -0.096452
0.465339 -0.042473 0.029297
0.465339 -0.033418 0.052635
0.465339 -0.001628 0.022308
0.465339 0.016104 0.043050
0.465339 -0.050681 -0.021263
0.465339 0.055919 -0.070072
0.465339 0.054587 -0.059487
0.465339 -0.046492 0.036047
0.465339 -0.077917 -0.057162
0.465339 -0.038873 0.042732
0.465339 0.004980 -0.019063
0.465339 0.061514 0.014586
0.465339 0.007846 0.024360
0.465339 0.082740 -0.023824
0.465339 -0.078406 0.011842
0.465339 0.037344 0.012493
0.465339 -0.059108 0.006855
0.465339 -0.037418 0.029976
0.465339 -0.053160 0.082580
0.465339 -0.038538 0.056654
0.465339 0.073586 0.010604
0.465339 -0.038920 0.054854
0.465339 0.063199 0.045952
0.465339 -0.066767 -0.043084
0.465339 -0.040416 0.010994
0.465339 0.047708 -0.073914
0.465339 0.033866 0.041555
0.465339 0.038479 -0.091288
0.465339 0.054298 0.031876
0.465339 0.009151 0.005375
0.465339 0.034055 0.013269
0.465339 0.003867 -0.033724
0.465339 0.057064 0.035980
0.465339 -0.048288 -0.005123
0.465339 0.050621 -0.051287
0.465339 0.030509 -0.017220
0.465339 0.098761 -0.000120
0.465339 0.030406 0.062089
0.465339 0.041178 -0.035350
0.465339 -0.072198 0.030160
0.465339 -0.017906 0.003332
0.465339 0.043940 0.043625
0.465339 0.039293 -0.089715
0.465339 0.075625 0.043469
0.465339 -0.030944 0.002232
0.465339 0.051673 0.038263
0.465339 -0.060117 0.063319
0.465339 -0.077211 0.004650
0.465339 0.041863 -0.079504
0.465339 -0.044012 0.050834
0.465339 -0.006302 0.000676
0.465339 -0.009454 0.009960
0.465339 0.032777 -0.002327
0.465339 -0.071060 0.036971
0.465339 -0.062015 -0.067557
0.465339 -0.041190 0.026060
0.465339 0.076613 0.061667
0.465339 0.014909 -0.085004
0.465339 -0.002598 -0.094517
0.465339 -0.028354 0.047479
0.465339 -0.009876 0.076009
0.465339 0.025729 0.000706
0.465339 -0.056742 0.037470
0.465339 -0.016123 0.093556
0.465339 -0.028084 -0.024297
0.465339 -0.005603 0.021518
0.465339 0.009061 -0.060036
0.465339 0.092705 0.006401
0.465339 -0.049860 -0.075337
0.465339 -0.001564 -0.036360
0.465339 -0.055797 0.004959
0.465339 -0.021303 -0.084862
0.465339 -0.017613 0.072945
0.465339 0.083696 -0.009186
0.465339 0.063351 0.005764
0.465339 -0.011830 -0.009233
0.465339 0.045707 -0.003216
0.465339 0.011485 0.094391
0.465339 0.027152 0.031855
0.465339 0.073285 0.026988
0.465339 -0.007961 -0.001239
0.465339 0.062063 -0.001682
0.465339 -0.054141 0.049958
0.465339 0.091512 -0.039304
0.465339 -0.013820 0.098394
0.465339 -0.057561 -0.040645
0.465339 -0.061842 -0.004895
0.465339 -0.038005 0.019518
0.465339 -0.037549 0.000560
0.465339 0.065188 -0.069940
0.465339 0.002151 0.049527
0.465339 0.017336 0.054486
0.465339 -0.092455 -0.007280
0.465339 -0.002347 -0.023201
0.465339 -0.014070 -0.080970
0.465339 0.030040 -0.023897
0.465339 0.073852 -0.051278
0.465339 0.094677 0.015425
0.465339 -0.004330 0.075525
0.465339 -0.055328 -0.066888
0.465339 -0.007912 -0.073907
0.465339 -0.038827 0.088692
0.465339 -0.078622 -0.022881
0.465339 0.062832 0.000485
0.465339 -0.074949 -0.049310
0.465339 0.071778 -0.001603
0.465339 -0.048440 -0.011259
0.465339 -0.036286 -0.042125
0.465339 0.023101 0.032083
0.465339 -0.011830 -0.035121
0.465339 -0.020210 0.012798
0.465339 -0.070351 -0.069550
0.465339 -0.051351 -0.085274
0.465339 0.088488 0.028352
0.465339 0.072966 0.067075
0.465339 0.026647 -0.087998
0.465339 0.033431 -0.066706
0.465339 -0.031608 -0.024053
0.465339 0.072725 -0.020189
0.465339 0.020979 0.003066
0.465339 -0.012828 -0.027408
0.465339 0.047246 -0.012283
0.465339 -0.061325 0.041005
0.465339 0.014409 0.094859
0.465339 0.043112 -0.063042
0.465339 -0.079307 -0.056629
0.465339 -0.069591 -0.032382
0.465339 -0.037649 0.071029
0.465339 -0.008680 -0.043381
0.465339 -0.013516 -0.069152
0.465339 -0.001102 -0.008468
0.465339 -0.034570 0.088841
0.465339 -0.065257 0.061488
0.465339 0.062281 -0.072889
0.465339 0.067974 -0.022707
0.465339 0.060745 -0.034119
0.465339 -0.002045 0.080036
0.465339 0.000549 0.057862
0.465339 -0.010444 0.067288
0.465339 -0.051506 0.059098
0.465339 -0.008293 0.029034
0.465339 0.068928 -0.067903
0.465339 0.017779 -0.001369
0.465339 0.054044 0.065172
0.465339 -0.087708 -0.035808
0.465339 -0.000545 -0.054674
0.465339 -0.092215 -0.031635
0.465339 0.010933 0.074307
0.465339 -0.062496 0.022606
0.465339 0.014351 0.016932
0.465339 -0.067097 0.064434
0.465339 0.037798 0.004981
0.465339 -0.002675 -0.074725
0.465339 0.062701 -0.040330
0.465339 0.034570 0.047356
0.465339 0.052954 0.042436
0.465339 -0.066200 0.041883
0.465339 0.004865 -0.027998
0.465339 -0.060423 -0.026557
0.465339 -0.003772 0.011946
0.465339 -0.088622 0.010063
0.465339 0.031539 -0.025203
0.465339 -0.013923 -0.088241
0.465339 0.016365 -0.076172
0.465339 0.069708 0.065420
0.465339 0.018262 -0.096759
0.465339 -0.055144 -0.011479
0.465339 -0.039976 0.068665
0.465339 -0.098842 -0.008281
0.465339 -0.070473 0.017192
0.465339 -0.026446 0.035673
0.465339 -0.039865 -0.015027
0.465339 -0.096062 -0.024363
0.465339 0.011371 -0.036492
0.465339 -0.039953 -0.004517
0.465339 -0.018258 -0.095905
0.465339 -0.020752 0.075697
0.465339 -0.026337 0.029755
0.465339 0.068836 -0.015634
0.465339 -0.026534 0.001956
0.465339 -0.068084 0.031655
0.465339 -0.011229 0.008008
0.465339 0.038657 -0.010113
0.465339 0.032180 -0.042662
0.465339 0.082306 -0.025314
0.465339 -0.086146 0.044776
0.465339 -0.098938 -0.006912
0.465339 -0.027190 -0.015809
0.465339 0.051602 -0.046394
0.465339 -0.011316 -0.000775
0.465339 0.057383 -0.008707
0.465339 0.057384 -0.037623
0.465339 0.034520 -0.042851
0.465339 0.070236 0.043718
0.465339 0.034117 -0.091936
0.465339 0.075979 -0.061066
0.465339 -0.052353 -0.010893
0.465339 0.052709 -0.069831
0.465339 -0.037829 -0.051939
0.465339 0.069639 0.018981
0.465339 0.046380 0.013839
0.465339 0.041139 -0.041307
0.465339 -0.030310 0.022724
0.465339 -0.060364 -0.042194
0.465339 -0.025436 -0.032724
0.465339 0.049690 -0.018819
0.465339 -0.037042 -0.005689
0.465339 0.006777 0.003872
0.465339 0.011342 0.062289
0.465339 -0.050730 -0.027565
0.465339 -0.000915 0.072494
0.465339 -0.070054 0.008645
0.465339 0.089876 -0.021238
0.465339 0.017072 -0.092137
0.465339 -0.079572 0.001333
0.465339 -0.062162 -0.022271
0.465339 -0.008684 0.002378
0.465339 -0.006236 0.046625
0.465339 -0.087058 -0.015463
0.465339 -0.064023 -0.037620
0.465339 -0.001477 -0.044512
0.465339 0.037358 0.075294
0.465339 0.071986 0.047823
0.465339 -0.024546 -0.092555
0.465339 -0.027431 0.074088
0.465339 0.078748 -0.041565
0.465339 0.022480 0.006495
0.465339 -0.048442 0.061783
0.465339 0.074814 0.029488
0.465339 -0.048042 0.074640
0.465339 0.050201 0.052793
0.465339 -0.006467 0.095437
0.465339 -0.020041 -0.053105
0.465339 -0.021619 -0.073237
0.465339 -0.027451 0.093833
0.465339 -0.016512 -0.063745
0.465339 -0.051794 -0.009608
0.465339 -0.035817 0.045780
0.465339 0.013551 -0.049892
0.465339 0.084160 -0.030858
0.465339 -0.051798 0.048449
0.465339 -0.024408 -0.011776
0.465339 0.000252 0.049760
0.465339 0.024099 -0.094881
0.465339 -0.008480 -0.097026
0.465339 -0.048010 0.077691
0.465339 0.000665 0.085245
0.465339 -0.053005 0.052261
0.465339 0.005135 -0.079984
0.465339 -0.014401 -0.039530
0.465339 0.087056 -0.037861
0.465339 -0.061851 -0.041389
0.465339 0.066095 0.054799
0.465339 -0.018689 0.000394
0.465339 -0.054389 -0.031348
0.465339 0.099311 0.001868
0.465339 0.014709 -0.021792
0.465339 -0.041722 0.074640
0.465339 0.009732 0.094870
0.465339 -0.089306 -0.032538
0.465339 0.062714 0.052492
0.465339 -0.021305 -0.048141
0.465339 0.048752 0.087223
0.465339 -0.058445 0.080796
0.465339 0.028606 -0.050149
0.465339 -0.039589 0.019723
0.465339 0.004518 0.034201
0.465339 -0.069756 0.059179
0.465339 -0.026195 0.081337
0.465339 -0.065339 0.011117
0.465339 0.072935 -0.068057
0.465339 0.019924 0.083455
0.465339 0.027831 0.046040
0.465339 0.042988 -0.054838
0.465339 0.007412 -0.035733
0.465339 -0.073839 0.057594
0.465339 -0.037961 0.032246
0.465339 -0.031810 -0.069210
0.465339 -0.005159 -0.001173
0.465339 0.008379 -0.054228
0.465339 0.020537 -0.000711
0.465339 0.043581 -0.016799
0.465339 -0.030455 0.072271
0.465339 0.050501 -0.017316
0.465339 -0.044535 0.071992
0.465339 0.066869 0.044141
0.465339 -0.040695 0.048020
0.465339 -0.076244 0.047735
0.465339 0.061624 -0.075185
0.465339 0.002655 0.085084
0.465339 -0.050922 0.023563
0.465339 -0.045540 0.062577
0.465339 -0.029332 -0.070870
0.465339 0.003922 0.000951
0.465339 -0.048002 -0.048378
0.465339 -0.060796 0.044317
0.465339 0.075665 0.007827
0.465339 0.055854 -0.041442
0.465339 0.087864 0.004292
0.465339 -0.008250 -0.019242
0.465339 0.046583 -0.000235
0.465339 -0.021522 -0.078800
0.465339 -0.082422 0.042422
0.465339 0.026224 -0.059795
0.465339 0.021364 0.011326
0.465339 0.050237 0.039091
0.465339 0.027494 0.072263
0.465339 -0.036860 0.007324
0.465339 -0.025971 -0.093654
0.465339 0.040130 -0.080841
0.465339 0.044699 -0.043784
0.465339 0.021474 0.025391
0.465339 0.012577 -0.035824
0.465339 0.056295 -0.023299
0.465339 -0.085706 0.050335
0.465339 -0.020269 -0.087034
0.465339 0.039643 0.024909
0.465339 -0.050417 -0.019682
0.465339 0.012801 0.048142
0.465339 -0.042064 0.077117
0.465339 0.014285 0.075736
0.465339 -0.026563 -0.028562
0.465339 -0.049210 -0.073528
0.465339 -0.039281 -0.025050
0.465339 0.017165 -0.093827
0.465339 -0.085242 -0.004966
0.465339 0.044270 -0.083592
0.465339 -0.064228 0.034695
0.465339 0.063580 -0.004393
0.465339 0.024653 -0.082397
0.465339 0.034852 -0.067184
0.465339 -0.028040 0.076106
0.465339 0.030561 0.086144
0.465339 -0.083544 -0.048062
0.465339 0.024613 -0.021654
0.465339 0.057695 0.019830
0.465339 0.038906 0.017007
0.465339 -0.084069 0.018312
0.465339 -0.023741 -0.032176
0.465339 -0.017842 -0.082581
0.465339 -0.027269 -0.074658
0.465339 -0.040880 0.088320
0.465339 0.033106 -0.037432
0.465339 0.094913 0.018334
0.465339 0.042045 -0.072243
0.465339 -0.061775 -0.043140
0.465339 -0.046624 -0.001779
0.465339 0.013494 -0.030909
0.465339 -0.013594 -0.013997
0.465339 0.054609 -0.076068
0.465339 -0.031585 0.050826
0.465339 -0.052597 0.030439
0.465339 -0.090110 0.026406
0.465339 -0.062793 -0.044293
0.465339 0.002036 0.054230
0.465339 0.073667 0.048242
0.465339 0.015255 -0.063235
0.465339 -0.022903 -0.085891
0.465339 0.032094 0.046982
0.465339 0.064390 -0.040799
0.465339 -0.040150 0.033464
0.465339 -0.003838 0.019530
0.465339 0.070733 0.017672
0.465339 -0.081079 0.017866
0.465339 -0.047398 -0.014199
0.465339 -0.072550 0.018972
0.465339 0.005140 -0.038427
0.465339 -0.038292 0.006032
0.465339 0.059170 -0.014606
0.465339 -0.020375 0.095610
0.465339 -0.041983 -0.060303
0.465339 0.074327 0.063878
0.465339 0.063324 -0.058721
0.465339 -0.059656 0.069582
0.465339 0.004776 -0.066868
0.465339 0.055119 0.014696
0.465339 0.088417 -0.038765
0.465339 0.087340 -0.017477
0.465339 -0.079499 0.007089
0.465339 0.031838 -0.006554
0.465339 -0.052521 0.045473
0.465339 -0.052757 0.059989
0.465339 -0.019835 -0.083713
0.465339 -0.034509 0.036129
0.465339 -0.033674 0.059058
0.465339 0.085560 -0.051436
0.465339 -0.094149 0.032496
0.465339 -0.095057 -0.016283
0.465339 -0.048066 -0.079958
0.465339 0.063504 -0.075618
0.465339 -0.072583 0.060112
0.465339 -0.007753 -0.072005
0.465339 -0.018394 -0.020838
0.465339 0.017731 -0.040538
0.465339 -0.075575 0.060190
0.465339 0.000181 0.052716
0.465339 0.037104 -0.017802
0.465339 0.002480 -0.028088
0.465339 0.009009 -0.082860
0.465339 -0.006955 -0.067410
0.465339 0.052283 -0.074965
0.465339 -0.045238 -0.025540
0.465339 -0.083666 0.040598
0.465339 0.004261 0.075512
0.465339 0.078168 0.044275
0.465339 0.041585 -0.038875
0.465339 0.077685 -0.044348
0.465339 0.003869 0.095706
0.465339 -0.000507 0.039713
0.465339 0.064585 0.006893
0.465339 0.049532 -0.063572
0.465339 0.045038 -0.027645
0.465339 -0.021108 0.087926
0.465339 0.065637 -0.051700
0.465339 0.003104 -0.036663
0.465339 0.042948 0.049882
0.465339 -0.032773 -0.041292
0.465339 -0.004338 0.046432
0.465339 -0.024216 0.076262
0.465339 0.013624 0.006843
0.465339 0.011606 0.055152
0.465339 0.029971 0.043989
0.465339 -0.034305 0.023314
0.465339 -0.005513 -0.029885
0.465339 0.022650 0.094984
0.465339 -0.017622 -0.060343
0.465339 0.054638 0.047184
0.465339 0.013903 0.021536
0.465339 -0.088663 -0.040664
0.465339 -0.062330 -0.023594
0.465339 -0.024296 -0.089578
0.465339 0.010967 -0.044018
0.465339 -0.020550 0.035550
0.465339 0.018673 0.080356
0.465339 0.064671 -0.029339
0.465339 -0.010357 -0.011888
0.465339 0.021632 -0.049439
0.465339 -0.077672 0.034841
0.465339 0.007642 0.020840
0.465339 0.030822 0.048126
0.465339 0.075719 0.064831
0.465339 0.033622 -0.069286
0.465339 0.067147 0.016567
0.465339 0.034981 0.074588
0.465339 0.017987 -0.049204
0.465339 0.031704 0.003191
0.465339 0.087667 0.030687
0.465339 -0.084135 -0.025330
0.465339 0.002936 0.074788
0.465339 0.024428 0.085259
0.465339 0.026151 -0.094244
0.465339 0.098063 -0.002496
0.465339 -0.020889 -0.037519
0.465339 0.030201 -0.042134
0.465339 -0.095060 0.002773
0.465339 -0.004573 -0.098456
0.465339 -0.025969 0.008676
0.465339 0.039507 0.039443
0.465339 -0.086546 -0.033352
0.465339 0.008055 0.033384
0.465339 0.084396 -0.003397
0.465339 -0.027587 -0.025921
0.465339 -0.054509 -0.079537
0.465339 0.050425 0.011363
0.465339 0.018495 0.025486
0.465339 -0.014512 -0.016937
0.465339 -0.071607 -0.008005
0.465339 0.062253 -0.042383
0.465339 -0.087906 -0.016924
0.465339 -0.039446 -0.049808
0.465339 -0.098609 -0.001293
