-0.466955 -0.056074 -0.081637
-0.466955 -0.031498 -0.051629
-0.466955 0.080366 -0.030156
-0.466955 0.073026 0.068068
-0.466955 -0.081219 -0.039630
-0.466955 0.013754 -0.037515
-0.466955 -0.039820 -0.016392
-0.466955 -0.035076 -0.056855
-0.466955 -0.068790 -0.048539
-0.466955 0.087198 -0.031863
-0.466955 0.013218 -0.090954
-0.466955 0.019636 -0.091329
-0.466955 -0.082466 -0.017034
-0.466955 -0.048759 0.014686
-0.466955 0.064968 0.015486
-0.466955 0.008933 0.071255
-0.466955 0.050352 -0.062497
-0.466955 0.039095 -0.042389
-0.466955 -0.007336 0.043555
-0.466955 -0.091477 0.032916
-0.466955 -0.004556 0.054073
-0.466955 -0.043293 0.022716
-0.466955 0.056730 -0.044371
-0.466955 -0.018496 -0.050933
-0.466955 0.031108 -0.002414
-0.466955 0.011327 0.042189
-0.466955 -0.037434 -0.079746
-0.466955 -0.055708 -0.077850
-0.466955 -0.036419 -0.047831
-0.466955 0.021446 0.077432
-0.466955 -0.047008 0.046760
-0.466955 -0.062775 -0.047512
-0.466955 -0.031885 -0.058043
-0.466955 -0.028425 -0.007435
-0.466955 0.014616 0.000067
-0.466955 0.027442 -0.037824
-0.466955 0.084293 -0.012690
-0.466955 -0.075696 -0.040095
-0.466955 -0.013600 0.082361
-0.466955 -0.023768 -0.082185
-0.466955 0.031624 0.085415
-0.466955 0.061608 -0.067865
-0.466955 -0.022159 -0.027006
-0.466955 0.042103 -0.008914
-0.466955 0.021506 -0.048394
-0.466955 0.044644 -0.036523
-0.466955 0.011819 -0.069029
-0.466955 0.099469 -0.000542
-0.466955 -0.022815 0.049620
-0.466955 -0.004320 0.061385
-0.466955 -0.072766 -0.065573
-0.466955 -0.099417 0.006054
-0.466955 0.019740 -0.056644
-0.466955 -0.004045 -0.067230
-0.466955 -0.029210 -0.093801
-0.466955 0.068728 -0.005658
-0.466955 -0.044870 -0.083154
-0.466955 0.015910 0.003805
-0.466955 0.038004 0.049779
-0.466955 0.077204 0.009904
-0.466955 0.032474 -0.056401
-0.466955 0.032113 -0.092183
-0.466955 0.092155 0.038555
-0.466955 -0.062909 0.010166
-0.466955 0.078594 0.015244
-0.466955 0.035920 -0.052360
-0.466955 -0.088201 -0.031064
-0.466955 -0.036190 0.077813
-0.466955 -0.045017 -0.081259
-0.466955 0.052780 -0.069666
-0.466955 0.042737 -0.079187
-0.466955 -0.014297 0.061018
-0.466955 0.041552 0.061269
-0.466955 0.019018 0.006250
-0.466955 -0.024224 -0.067714
-0.466955 -0.017659 0.017377
-0.466955 -0.031149 -0.015496
-0.466955 0.016788 -0.068362
-0.466955 -0.002628 0.007942
-0.466955 0.016678 -0.012272
-0.466955 -0.026440 -0.004198
-0.466955 0.086520 0.034393
-0.466955 0.027475 0.071220
-0.466955 -0.055550 -0.031676
-0.466955 0.029994 0.036220
-0.466955 -0.033255 -0.025980
-0.466955 -0.004994 -0.047361
-0.466955 0.035645 0.085266
-0.466955 -0.025291 0.086846
-0.466955 -0.057108 -0.032811
-0.466955 0.017481 -0.029321
-0.466955 -0.067330 0.032542
-0.466955 0.031596 0.075552
-0.466955 0.080144 -0.006071
-0.466955 0.034454 0.077578
-0.466955 0.022350 -0.076915
-0.466955 -0.032854 0.077808
-0.466955 0.073999 0.050896
-0.466955 -0.096249 -0.024406
-0.466955 -0.039475 0.056773
-0.466955 -0.030095 -0.050898
-0.466955 -0.039029 -0.043051
-0.466955 -0.052681 -0.051836
-0.466955 0.020474 0.036643
-0.466955 -0.044229 -0.006099
-0.466955 0.004078 -0.056041
-0.466955 -0.038720 0.085485
-0.466955 0.063383 -0.008695
-0.466955 -0.023435 0.041961
-0.466955 -0.037454 0.047088
-0.466955 0.014335 -0.027668
-0.466955 -0.073643 0.022184
-0.466955 -0.062876 0.028035
-0.466955 0.058376 0.042261
-0.466955 -0.016229 0.043360
-0.466955 0.014961 -0.068700
-0.466955 0.003001 0.089336
-0.466955 0.061333 -0.036357
-0.466955 -0.050206 -0.024429
-0.466955 -0.054159 -0.077042
-0.466955 0.062862 -0.052092
-0.466955 0.034887 -0.081208
-0.466955 -0.061401 -0.059013
-0.466955 0.058214 -0.073819
-0.466955 0.074525 -0.059622
-0.466955 0.008173 -0.096603
-0.466955 -0.047296 0.055378
-0.466955 0.003012 0.076069
-0.466955 -0.053075 -0.053556
-0.466955 -0.053725 0.012065
-0.466955 0.027366 0.093011
-0.466955 -0.012200 0.076943
-0.466955 -0.090910 0.023958
-0.466955 0.053383 0.065756
-0.466955 -0.064085 0.028831
-0.466955 0.036867 0.078517
-0.466955 -0.000101 -0.019260
-0.466955 -0.031132 0.026986
-0.466955 0.006295 -0.025292
-0.466955 0.045493 0.003662
-0.466955 -0.017628 0.056637
-0.466955 -0.042840 0.070672
-0.466955 -0.024639 0.028226
-0.466955 -0.050428 -0.061311
-0.466955 0.014423 0.015567
-0.466955 0.009114 0.087794
-0.466955 -0.082837 -0.047269
-0.466955 -0.076872 -0.026176
-0.466955 0.041782 -0.068732
-0.466955 0.063098 0.017750
-0.466955 -0.006564 0.028365
-0.466955 -0.045761 -0.009389
-0.466955 0.017227 -0.027911
-0.466955 -0.057908 0.012711
-0.466955 0.053544 -0.004913
-0.466955 0.005877 0.006342
-0.466955 0.051826 0.020591
-0.466955 0.068819 0.027949
-0.466955 0.003832 0.092611
-0.466955 0.067722 -0.064805
-0.466955 -0.091238 -0.002043
-0.466955 0.089795 0.019255
-0.466955 0.067020 0.043521
-0.466955 0.083084 -0.036138
-0.466955 0.032436 0.094457
-0.466955 -0.094419 -0.025984
-0.466955 -0.031331 -0.085884
-0.466955 -0.006485 -0.086521
-0.466955 0.022614 0.083743
-0.466955 0.028910 0.006298
-0.466955 0.000188 0.080341
-0.466955 -0.016314 0.093835
-0.466955 0.078737 -0.021178
-0.466955 0.037276 -0.082018
-0.466955 -0.089043 -0.027896
-0.466955 -0.028135 -0.056774
-0.466955 0.049923 0.074876
-0.466955 -0.025575 -0.061369
-0.466955 -0.058172 0.064461
-0.466955 0.019866 0.067584
-0.466955 0.017441 -0.072426
-0.466955 -0.061055 -0.016760
-0.466955 -0.072855 0.036831
-0.466955 -0.075872 0.011597
-0.466955 0.005565 -0.094067
-0.466955 0.084028 -0.044935
-0.466955 -0.039493 0.025857
-0.466955 0.070802 0.068503
-0.466955 -0.048638 0.079933
-0.466955 0.072965 -0.062649
-0.466955 -0.087642 0.032086
-0.466955 0.063561 -0.002103
-0.466955 0.041888 -0.067090
-0.466955 -0.079177 0.022605
-0.466955 0.005199 -0.031814
-0.466955 -0.076177 -0.005129
-0.466955 -0.053834 -0.010799
-0.466955 -0.080999 -0.017347
-0.466955 -0.084850 -0.005199
-0.466955 -0.064633 0.018833
-0.466955 0.078769 0.002094
-0.466955 -0.005516 -0.042983
-0.466955 0.023821 -0.069853
-0.466955 0.093391 -0.012420
-0.466955 -0.044722 0.082630
-0.466955 -0.081313 -0.035862
-0.466955 0.043103 0.060718
-0.466955 -0.066691 0.011839
-0.466955 0.002892 -0.065797
-0.466955 -0.013584 0.031477
-0.466955 -0.072263 -0.032555
-0.466955 0.061586 -0.037843
-0.466955 0.007781 -0.072191
-0.466955 -0.033548 0.017931
-0.466955 -0.027106 0.073166
-0.466955 -0.008174 -0.090743
-0.466955 -0.025813 0.091172
-0.466955 0.005210 0.084143
-0.466955 -0.062814 0.016796
-0.466955 -0.024052 0.080984
-0.466955 0.054008 0.047860
-0.466955 0.071648 0.014625
-0.466955 -0.027186 -0.042662
-0.466955 0.019195 0.007915
-0.466955 -0.093347 -0.028838
-0.466955 0.073537 0.047613
-0.466955 -0.074836 0.028421
-0.466955 -0.094207 0.030260
-0.466955 -0.036438 0.023883
-0.466955 -0.067136 -0.057717
-0.466955 0.044408 -0.080411
-0.466955 0.000426 -0.050078
-0.466955 -0.074990 0.065882
-0.466955 -0.015226 0.016978
-0.466955 0.058714 0.052876
-0.466955 0.028314 0.059652
-0.466955 -0.000375 0.002998
-0.466955 -0.083248 0.010439
-0.466955 0.032485 0.025492
-0.466955 -0.065823 0.021188
-0.466955 0.009823 -0.059658
-0.466955 0.055666 0.081602
-0.466955 0.095126 -0.005246
-0.466955 -0.052169 0.039347
-0.466955 0.072133 0.028266
-0.466955 -0.008973 0.018193
-0.466955 -0.036514 0.016216
-0.466955 0.014231 -0.071481
-0.466955 -0.088606 0.041089
-0.466955 -0.046445 -0.069861
-0.466955 -0.047664 -0.003884
-0.466955 -0.008794 0.055232
-0.466955 0.061216 0.028348
-0.466955 -0.044012 0.088138
-0.466955 0.086899 -0.017028
-0.466955 0.055175 0.009633
-0.466955 0.042147 0.038353
-0.466955 -0.068679 -0.065594
-0.466955 -0.015980 0.002729
-0.466955 0.027565 0.065323
-0.466955 -0.078429 0.045924
-0.466955 -0.028194 -0.089021
-0.466955 0.050859 -0.072251
-0.466955 -0.029185 -0.036080
-0.466955 0.029569 0.010232
-0.466955 -0.056536 0.037406
-0.466955 0.009995 0.077568
-0.466955 -0.011778 -0.041115
-0.466955 -0.033647 0.050565
-0.466955 0.069195 -0.060034
-0.466955 -0.013491 0.050412
-0.466955 -0.012533 -0.042609
-0.466955 -0.073784 -0.008307
-0.466955 -0.009146 -0.003241
-0.466955 0.023935 0.005303
-0.466955 -0.018048 0.023965
-0.466955 -0.080477 -0.005989
-0.466955 -0.067550 0.008462
-0.466955 0.014015 -0.081410
-0.466955 0.013278 -0.026877
-0.466955 -0.063542 -0.037916
-0.466955 0.023055 0.038126
-0.466955 -0.037544 0.022772
-0.466955 -0.006913 -0.058071
-0.466955 -0.046294 0.006205
-0.466955 0.058435 0.001103
-0.466955 -0.011613 0.019987
-0.466955 0.055672 0.060153
-0.466955 0.035122 -0.003357
-0.466955 0.017207 -0.057774
-0.466955 0.072552 0.062485
-0.466955 -0.045633 0.004897
-0.466955 0.038874 -0.067436
-0.466955 -0.099395 -0.002207
-0.466955 -0.018499 -0.062215
-0.466955 -0.047332 -0.011846
-0.466955 0.039135 0.083232
-0.466955 0.057477 -0.071385
-0.466955 -0.033335 0.002418
-0.466955 0.014954 -0.078476
-0.466955 -0.073262 0.008861
-0.466955 0.025517 -0.049251
-0.466955 -0.012104 -0.058845
-0.466955 0.051877 -0.062120
-0.466955 -0.021383 0.091799
-0.466955 -0.002431 -0.095473
-0.466955 -0.022978 -0.068550
-0.466955 -0.076578 0.057692
-0.466955 0.019193 -0.011783
-0.466955 0.025146 0.015561
-0.466955 0.026774 0.024756
-0.466955 -0.077236 0.017700
-0.466955 0.072202 0.010416
-0.466955 0.017005 0.065859
-0.466955 -0.020533 -0.076191
-0.466955 -0.075699 -0.047511
-0.466955 0.008985 -0.069299
-0.466955 0.002317 -0.015646
-0.466955 0.004615 0.058086
-0.466955 0.040509 0.024367
-0.466955 -0.044201 -0.003558
-0.466955 -0.041039 0.002084
-0.466955 0.087824 -0.012303
-0.466955 0.008863 -0.038031
-0.466955 -0.059903 -0.025072
-0.466955 -0.022538 0.009654
-0.466955 -0.011388 0.039446
-0.466955 -0.058206 0.034391
-0.466955 0.007263 -0.098559
-0.466955 -0.002381 -0.018005
-0.466955 -0.073751 0.059677
-0.466955 0.079949 0.008584
-0.466955 0.009165 -0.044698
-0.466955 -0.059361 0.025058
-0.466955 0.022832 -0.073526
-0.466955 0.063162 -0.067068
-0.466955 -0.021581 -0.091334
-0.466955 0.014778 -0.002613
-0.466955 -0.040709 0.000717
-0.466955 0.009413 -0.027948
-0.466955 0.041591 -0.073380
-0.466955 -0.016689 -0.071655
-0.466955 -0.006320 -0.007537
-0.466955 -0.050493 0.045546
-0.466955 -0.083184 -0.030539
-0.466955 0.083153 -0.032475
-0.466955 0.000267 -0.080250
-0.466955 -0.066005 0.046039
-0.466955 -0.010579 0.030808
-0.466955 -0.011536 0.032712
-0.466955 -0.009560 0.032097
-0.466955 0.050424 -0.017003
-0.466955 -0.078348 0.005610
-0.466955 0.096789 0.000914
-0.466955 -0.007587 -0.075882
-0.466955 -0.037566 0.053654
-0.466955 0.027801 0.081752
-0.466955 0.057104 -0.066791
-0.466955 0.077553 0.049524
-0.466955 -0.024546 0.059854
-0.466955 -0.078822 -0.021588
-0.466955 0.035363 0.078863
-0.466955 -0.000387 0.049702
-0.466955 0.021785 0.082163
-0.466955 -0.048162 -0.072246
-0.466955 0.066217 0.024342
-0.466955 0.023193 0.035752
-0.466955 0.058770 0.068386
-0.466955 -0.039145 0.010560
-0.466955 0.033470 0.063212
-0.466955 0.029272 -0.053088
-0.466955 0.082170 0.008519
-0.466955 0.021395 -0.062995
-0.466955 0.093595 0.003538
-0.466955 0.062980 0.027649
-0.466955 0.069816 -0.049656
-0.466955 -0.094847 -0.030438
-0.466955 -0.039483 -0.066658
-0.466955 -0.052232 -0.031563
-0.466955 0.059662 0.079256
-0.466955 -0.068536 0.056250
-0.466955 0.037806 0.063819
-0.466955 -0.034706 -0.065820
-0.466955 0.054284 -0.067755
-0.466955 -0.058776 -0.025977
-0.466955 -0.058595 0.007183
-0.466955 0.023854 0.014834
-0.466955 0.070530 0.070814
-0.466955 0.012428 -0.006364
-0.466955 0.005860 -0.001793
-0.466955 -0.039470 -0.012128
-0.466955 -0.079664 -0.030971
-0.466955 -0.054235 0.042263
-0.466955 -0.029851 0.047758
-0.466955 0.024657 0.079253
-0.466955 0.008133 -0.085829
-0.466955 0.018489 0.001958
-0.466955 0.018648 0.082613
-0.466955 -0.001964 -0.044240
-0.466955 0.021265 0.070473
-0.466955 -0.027131 -0.000735
-0.466955 -0.032632 0.022495
-0.466955 0.069291 -0.067674
-0.466955 0.004742 -0.046746
-0.466955 -0.038414 0.064365
-0.466955 0.047392 -0.061977
-0.466955 -0.056958 0.033333
-0.466955 -0.063654 -0.039623
-0.466955 -0.040106 0.012790
-0.466955 0.060345 0.003159
-0.466955 -0.025651 0.077155
-0.466955 -0.004237 0.049615
-0.466955 0.021857 -0.025687
-0.466955 0.002891 -0.011120
-0.466955 0.048205 0.027350
-0.466955 -0.008990 -0.021818
-0.466955 0.027356 -0.015875
-0.466955 0.034284 0.006062
-0.466955 0.005783 -0.064074
-0.466955 0.060839 0.075634
-0.466955 0.037120 -0.021097
-0.466955 -0.038102 0.080379
-0.466955 -0.013531 -0.081758
-0.466955 0.039374 -0.010526
-0.466955 -0.062327 -0.040315
-0.466955 0.002297 0.010110
-0.466955 -0.027982 -0.005651
-0.466955 0.084672 -0.011138
-0.466955 -0.030348 0.054945
-0.466955 0.066537 0.030413
-0.466955 -0.008357 -0.069273
-0.466955 0.034117 0.081743
-0.466955 -0.014043 0.098879
-0.466955 0.026282 -0.081309
-0.466955 -0.035299 0.001874
-0.466955 -0.013800 0.026887
-0.466955 0.047359 0.037305
-0.466955 -0.029267 0.038883
-0.466955 -0.090053 0.030125
-0.466955 -0.019779 -0.057782
-0.466955 -0.010950 0.065697
-0.466955 0.013931 0.098942
-0.466955 0.043379 -0.069153
-0.466955 0.065390 -0.046326
-0.466955 0.050944 0.055000
-0.466955 -0.000401 0.043057
-0.466955 -0.016544 0.052769
-0.466955 -0.024492 0.067703
-0.466955 -0.055512 0.006731
-0.466955 0.040949 0.062708
-0.466955 -0.022725 0.031260
-0.466955 -0.002774 -0.064566
-0.466955 0.082865 0.029779
-0.466955 -0.015143 -0.070038
-0.466955 -0.056388 0.074121
-0.466955 0.024401 -0.078035
-0.466955 0.065664 -0.054942
-0.466955 -0.045954 -0.063329
-0.466955 -0.051970 0.021536
-0.466955 -0.005435 0.031593
-0.466955 0.042281 0.024550
-0.466955 -0.056837 -0.024580
-0.466955 0.061609 -0.022640
-0.466955 0.009372 -0.083244
-0.466955 -0.072197 0.023962
-0.466955 -0.092374 -0.014958
-0.466955 -0.027888 0.034141
-0.466955 0.039897 0.030382
-0.466955 -0.077264 -0.007213
-0.466955 -0.021520 -0.044315
-0.466955 -0.007757 -0.023417
-0.466955 0.031072 0.010114
-0.466955 0.027341 0.042574
-0.466955 -0.037169 -0.073363
-0.466955 0.067536 -0.069138
-0.466955 -0.021594 0.090368
-0.466955 0.011198 0.058794
-0.466955 -0.040056 0.006825
-0.466955 0.031998 0.043822
-0.466955 -0.033446 0.047504
-0.466955 -0.090949 -0.003713
-0.466955 -0.008717 0.028487
-0.466955 0.066539 0.025884
-0.466955 -0.055276 -0.072218
-0.466955 -0.000202 0.098865
-0.466955 0.039621 0.058912
-0.466955 -0.093891 0.033650
-0.466955 -0.053172 -0.033460
-0.466955 0.013066 0.032566
-0.466955 -0.077811 -0.024351
-0.466955 0.048561 0.044760
-0.466955 0.033905 -0.032369
-0.466955 0.056405 0.006290
-0.466955 -0.023798 -0.060453
-0.466955 -0.032497 -0.093535
-0.466955 -0.052976 -0.040920
-0.466955 0.009008 0.074832
-0.466955 0.047650 -0.065522
-0.466955 -0.016608 -0.043514
-0.466955 -0.056811 -0.001017
-0.466955 0.013090 -0.082617
-0.466955 0.012443 0.060137
-0.466955 0.080157 0.038009
-0.466955 0.016751 -0.060347
-0.466955 0.006252 0.038438
-0.466955 0.093876 -0.029920
-0.466955 -0.081043 -0.002233
-0.466955 -0.009999 0.067208
-0.466955 -0.088326 0.026324
-0.466955 0.019151 -0.005253
-0.466955 0.048336 0.048781
-0.466955 -0.022558 -0.045183
-0.466955 0.063619 0.000040
-0.466955 0.001511 -0.032429
-0.466955 -0.061276 0.068851
-0.466955 0.078212 0.045484
-0.466955 -0.061046 0.022579
-0.466955 0.027340 0.029393
-0.466955 0.076692 0.005816
-0.466955 -0.068379 -0.033991
-0.466955 -0.021562 -0.042698
-0.466955 -0.051643 0.032805
-0.466955 0.082013 0.052704
-0.466955 -0.034268 -0.072120
-0.466955 -0.029892 0.009215
-0.466955 0.066673 0.020515
-0.466955 -0.057104 0.007258
-0.466955 -0.057287 0.078117
-0.466955 -0.013532 0.038301
-0.466955 0.023786 0.046658
-0.466955 0.016610 0.086405
-0.466955 0.056292 -0.081744
-0.466955 0.070298 0.015376
-0.466955 -0.041947 -0.040766
-0.466955 0.097333 -0.003079
-0.466955 0.003526 -0.020640
-0.466955 -0.031387 -0.022047
-0.466955 -0.033924 -0.040091
-0.466955 -0.072126 -0.044022
-0.466955 0.030953 -0.080213
-0.466955 -0.024179 0.075976
-0.466955 -0.040816 -0.077022
-0.466955 0.024179 -0.058297
-0.466955 -0.042070 0.078145
-0.466955 0.006016 -0.003744
-0.466955 0.060338 0.024793
-0.466955 0.086752 -0.024012
-0.466955 0.027878 -0.032938
-0.466955 -0.056718 -0.047269
-0.466955 -0.071652 0.051713
-0.466955 -0.048008 0.044713
-0.466955 -0.021714 0.041744
-0.466955 -0.018302 0.044864
-0.466955 -0.073378 0.016865
-0.466955 0.065931 0.061108
-0.466955 0.063399 -0.036600
-0.466955 -0.069978 0.023126
-0.466955 0.045980 0.028904
-0.466955 0.011713 -0.096959
-0.466955 -0.030359 -0.058278
-0.466955 0.047277 0.067786
-0.466955 -0.014987 -0.024916
-0.466955 0.072808 -0.064735
-0.466955 0.006586 -0.083963
-0.466955 0.012644 0.003865
-0.466955 -0.008055 -0.084376
-0.466955 -0.039249 0.061904
-0.466955 -0.029356 -0.034236
-0.466955 -0.054234 -0.044436
-0.466955 0.083821 -0.046565
-0.466955 0.002865 0.077939
-0.466955 -0.054337 0.045888
-0.466955 0.013801 -0.085711
-0.466955 0.035132 0.075753
-0.466955 -0.032564 0.068714
-0.466955 0.073151 0.035177
-0.466955 0.015446 0.014558
-0.466955 0.062021 -0.054298
-0.466955 -0.044515 0.053888
-0.466955 0.004052 -0.025228
-0.466955 0.062593 0.003425
-0.466955 -0.017584 0.041710
-0.466955 -0.084742 -0.000827
-0.466955 0.040366 -0.065046
-0.466955 -0.024259 -0.013042
-0.466955 -0.045354 0.003182
-0.466955 0.052003 -0.084816
-0.466955 -0.031132 0.062414
-0.466955 0.028890 0.007834
-0.466955 0.000488 -0.082076
-0.466955 -0.041512 -0.007297
-0.466955 0.049054 0.055726
-0.466955 0.072785 -0.024147
-0.466955 -0.025927 0.051747
-0.466955 0.091497 -0.011547
-0.466955 -0.038275 0.029314
-0.466955 0.022372 0.069498
-0.466955 -0.054016 0.047975
-0.466955 -0.043373 -0.004772
-0.466955 0.032014 -0.028491
-0.466955 0.006836 0.056285
-0.466955 0.004587 0.039336
-0.466955 0.079637 0.017310
-0.466955 -0.062261 0.077782
-0.466955 0.096130 0.009906
-0.466955 0.056101 -0.063485
-0.466955 0.033288 -0.079342
-0.466955 -0.018050 0.047875
-0.466955 0.007277 -0.073876
-0.466955 0.076157 0.043451
-0.466955 0.048658 -0.045102
-0.466955 -0.023049 -0.083597
-0.466955 -0.078823 0.051089
-0.466955 0.030773 0.042744
-0.466955 0.008702 -0.048800
-0.466955 -0.010100 -0.045841
-0.466955 0.009397 0.002141
-0.466955 -0.065593 -0.033475
-0.466955 0.070900 0.059106
-0.466955 0.088042 -0.040664
-0.466955 -0.036052 -0.055814
-0.466955 -0.013149 -0.016462
-0.466955 -0.000374 -0.051576
-0.466955 0.019547 -0.006869
-0.466955 0.026806 -0.012544
-0.466955 0.032819 -0.084280
-0.466955 0.050085 -0.033867
-0.466955 0.057006 0.033670
-0.466955 -0.094771 0.015330
-0.466955 -0.047876 0.070026
-0.466955 -0.085639 0.010675
-0.466955 0.041926 -0.076585
-0.466955 0.054312 -0.026583
-0.466955 -0.026903 0.096109
-0.466955 0.062795 -0.014683
-0.466955 -0.002628 -0.035649
-0.466955 0.068400 -0.042706
-0.466955 -0.066604 -0.059687
-0.466955 0.007324 -0.070613
-0.466955 -0.019593 0.021617
-0.466955 0.061637 0.073347
-0.466955 -0.084333 -0.020212
-0.466955 0.057442 -0.000570
-0.466955 -0.076660 -0.053103
-0.466955 0.091543 0.021303
-0.466955 -0.043253 -0.082506
-0.466955 -0.009521 -0.034934
-0.466955 -0.079580 -0.014412
-0.466955 0.017158 -0.067035
-0.466955 -0.060926 -0.022157
-0.466955 -0.018161 0.090681
-0.466955 -0.027389 -0.065514
-0.466955 -0.035964 0.032144
-0.466955 -0.007548 0.063149
-0.466955 -0.050762 0.028870
-0.466955 0.032865 0.068031
-0.466955 0.001728 0.004728
-0.466955 -0.028800 -0.065209
-0.466955 -0.062775 -0.017937
-0.466955 -0.051136 0.074342
-0.466955 -0.038664 -0.027508
-0.466955 0.055799 -0.053113
-0.466955 -0.047138 0.061620
-0.466955 -0.070121 0.058839
-0.466955 0.085873 0.031272
-0.466955 0.049859 0.003053
-0.466955 0.042471 -0.065716
-0.466955 -0.003875 0.014284
-0.466955 -0.014475 -0.080218
-0.466955 -0.008109 0.057776
-0.466955 -0.019514 0.018402
-0.466955 -0.058203 0.070163
-0.466955 0.057204 0.012292
-0.466955 -0.024836 -0.093029
-0.466955 0.052840 0.071720
-0.466955 -0.069839 -0.068756
-0.466955 0.047881 -0.082021
-0.466955 0.088233 -0.004071
-0.466955 0.000796 -0.010524
-0.466955 -0.098160 0.012930
-0.466955 -0.004786 -0.013233
-0.466955 -0.008404 -0.077220
-0.466955 -0.064442 -0.036159
-0.466955 -0.058983 0.011480
-0.466955 0.005283 0.095517
-0.466955 -0.015094 0.031714
-0.466955 -0.053035 0.023731
-0.466955 -0.010107 0.074283
-0.466955 0.023914 0.001497
-0.466955 -0.078818 -0.000714
-0.466955 -0.010821 0.027410
-0.466955 0.032121 0.081474
-0.466955 -0.093995 0.009889
-0.466955 0.066891 -0.017050
-0.466955 -0.020995 0.086595
-0.466955 0.003441 -0.049770
-0.466955 -0.048483 -0.050167
-0.466955 -0.021671 -0.028395
-0.466955 -0.043431 -0.053431
-0.466955 0.059255 0.007076
-0.466955 -0.064299 -0.013604
-0.466955 0.018402 0.026120
-0.466955 -0.055311 0.009333
-0.466955 -0.049296 0.082849
-0.466955 -0.064498 -0.027099
-0.466955 0.021709 0.080392
-0.466955 0.071135 -0.067593
-0.466955 0.045757 0.018982
-0.466955 -0.062173 0.021827
-0.466955 0.050990 -0.007263
-0.466955 -0.045726 0.025866
-0.466955 -0.054187 0.083113
-0.466955 0.086463 -0.022617
-0.466955 -0.092857 -0.016847
-0.466955 -0.063134 -0.073745
-0.466955 0.022437 0.020134
-0.466955 0.042593 0.019714
-0.466955 0.066442 -0.024403
-0.466955 0.047294 -0.060074
-0.466955 0.050170 -0.001402
-0.466955 0.004954 -0.010455
-0.466955 0.024836 -0.008308
-0.466955 0.027341 -0.085325
-0.466955 -0.069197 0.018624
-0.466955 0.063594 -0.065560
-0.466955 0.041866 -0.002404
-0.466955 0.059905 0.053691
-0.466955 -0.044447 0.037830
-0.466955 -0.007991 0.047653
-0.466955 0.087554 0.002904
-0.466955 -0.028850 -0.009354
-0.466955 0.058366 0.072545
-0.466955 0.081478 -0.052842
-0.466955 0.093181 0.017272
-0.466955 -0.035095 -0.041011
-0.466955 -0.044972 0.058034
-0.466955 -0.056968 -0.052326
-0.466955 0.026257 -0.039169
-0.466955 -0.092922 -0.002571
-0.466955 0.013888 0.097253
-0.466955 0.041561 0.076345
-0.466955 -0.030387 -0.072688
-0.466955 -0.004184 0.090501
-0.466955 -0.007638 0.087778
-0.466955 0.016926 0.055238
-0.466955 -0.032182 0.064790
-0.466955 0.075749 0.030757
-0.466955 0.001998 -0.026824
-0.466955 0.013969 0.095657
-0.466955 -0.016340 -0.029385
-0.466955 0.054980 0.022753
-0.466955 -0.005111 -0.033148
-0.466955 -0.030850 0.063878
-0.466955 -0.053928 0.013815
-0.466955 0.026586 -0.002623
-0.466955 0.007318 -0.066731
-0.466955 -0.000999 0.029749
-0.466955 0.050078 -0.067868
-0.466955 -0.050201 -0.086017
-0.466955 0.096534 -0.007024
-0.466955 0.036272 0.018059
-0.466955 0.048060 0.025615
-0.466955 0.085069 -0.002905
-0.466955 0.038266 -0.023847
-0.466955 0.070574 0.061011
-0.466955 -0.002698 -0.040833
-0.466955 0.059957 0.026386
-0.466955 0.007055 -0.055093
-0.466955 0.023513 -0.087399
-0.466955 0.002238 0.053888
-0.466955 0.018856 -0.003528
-0.466955 0.001114 -0.070412
-0.466955 0.072083 0.024295
-0.466955 0.000854 0.055803
-0.466955 0.078097 0.029613
-0.466955 0.033955 -0.055941
-0.466955 -0.014889 0.038297
-0.466955 -0.000040 -0.065188
-0.466955 0.089780 -0.004111
-0.466955 0.018608 -0.084338
-0.466955 0.027592 0.090081
-0.466955 0.043082 -0.001507
-0.466955 -0.042548 -0.029603
-0.466955 -0.030373 -0.044113
-0.466955 -0.034809 0.006140
-0.466955 -0.013466 -0.045893
-0.466955 0.053558 0.024994
-0.466955 0.031147 0.058839
-0.466955 -0.094197 0.000924
-0.466955 0.047334 0.018041
-0.466955 0.028275 -0.025551
-0.466955 -0.068552 0.070752
-0.466955 -0.030231 -0.012101
-0.466955 -0.097380 0.010131
-0.466955 0.087743 0.040970
-0.466955 -0.069840 0.021376
-0.466955 0.081367 0.025635
-0.466955 -0.032676 0.029350
-0.466955 0.041000 -0.025126
-0.466955 -0.085757 -0.014533
-0.466955 0.064776 0.063782
-0.466955 -0.015822 0.013013
-0.466955 -0.023367 0.055449
-0.466955 -0.044805 -0.069793
-0.466955 -0.001334 0.078621
-0.466955 0.004376 0.051794
-0.466955 0.085490 0.026314
-0.466955 -0.010867 0.016212
-0.466955 -0.012119 0.005059
-0.466955 0.088293 0.036140
-0.466955 0.029834 -0.041205
-0.466955 -0.023097 0.033577
-0.466955 0.064691 -0.007593
-0.466955 0.028278 0.085479
-0.466955 0.091177 0.007625
-0.466955 -0.009468 0.026689
-0.466955 -0.012054 -0.092406
-0.466955 0.075413 0.017603
-0.466955 0.019833 -0.052657
-0.466955 -0.023981 -0.048581
-0.466955 0.092461 -0.030348
-0.466955 -0.068722 0.039467
-0.466955 0.009516 -0.099085
-0.466955 -0.033127 -0.066274
-0.466955 -0.061411 -0.037096
-0.466955 -0.051513 -0.067817
-0.466955 0.062180 0.068487
-0.466955 0.019723 0.025196
-0.466955 0.044615 -0.070391
-0.466955 0.010405 -0.069096
-0.466955 -0.046672 -0.001365
-0.466955 -0.032496 0.079320
-0.466955 0.053767 -0.078294
-0.466955 0.024949 -0.052811
-0.466955 -0.044366 -0.086605
-0.466955 -0.031320 -0.068678
-0.466955 -0.007652 0.065955
-0.466955 -0.084677 -0.049401
-0.466955 -0.045109 0.085725
-0.466955 -0.027209 -0.074741
-0.466955 0.077942 0.004622
-0.466955 -0.002708 0.089488
-0.466955 0.032677 0.031820
-0.466955 0.091786 0.014475
-0.466955 0.004088 -0.061808
-0.466955 0.075691 0.021385
-0.466955 -0.072760 0.049807
-0.466955 0.043152 0.078994
-0.466955 0.031526 -0.004929
-0.466955 0.011577 0.074910
-0.466955 -0.050836 -0.047636
-0.466955 0.063842 0.016620
-0.466955 0.063268 0.006522
-0.466955 -0.001199 0.053809
-0.466955 0.066008 -0.070090
-0.466955 -0.015467 -0.015692
-0.466955 0.008727 -0.060644
-0.466955 -0.053381 0.032424
-0.466955 0.037784 0.065661
-0.466955 0.000707 0.054351
-0.466955 0.033949 0.078993
-0.466955 -0.019607 0.006849
-0.466955 -0.070819 -0.017619
-0.466955 -0.048538 -0.069984
-0.466955 0.051470 0.037747
-0.466955 0.075842 0.051467
-0.466955 0.067295 -0.058750
-0.466955 -0.019092 -0.006362
-0.466955 -0.024655 0.012306
-0.466955 0.004785 -0.081971
-0.466955 0.022409 -0.005496
-0.466955 -0.024929 -0.021962
-0.466955 -0.052092 0.035176
-0.466955 0.058357 0.066996
-0.466955 0.000453 0.081724
-0.466955 -0.008520 0.002578
-0.466955 -0.012304 0.013139
-0.466955 -0.011094 -0.082507
-0.466955 0.034867 -0.017579
-0.466955 -0.017025 -0.050262
-0.466955 0.064239 0.003480
-0.466955 0.046731 -0.056575
-0.466955 -0.024942 -0.072056
-0.466955 0.049266 0.084745
-0.466955 -0.052492 0.009830
-0.466955 0.001888 0.040241
-0.466955 -0.030974 -0.056493
-0.466955 -0.055019 0.060988
-0.466955 0.035286 0.067115
-0.466955 -0.095333 0.006610
-0.466955 -0.040589 -0.074756
-0.466955 0.071509 -0.063390
-0.466955 0.069806 0.019692
-0.466955 -0.037650 -0.045234
-0.466955 0.060124 -0.047827
-0.466955 0.015736 0.043489
-0.466955 0.068800 -0.047114
-0.466955 0.025090 -0.059445
-0.466955 -0.028659 -0.074240
-0.466955 0.005508 -0.034493
-0.466955 0.092698 -0.017749
-0.466955 0.065897 -0.071682
-0.466955 -0.074255 -0.066412
-0.466955 0.046410 -0.076661
-0.466955 -0.006926 -0.030370
-0.466955 -0.034126 0.009503
-0.466955 0.089536 0.020747
-0.466955 -0.047005 0.057140
-0.466955 -0.068469 -0.023199
-0.466955 -0.043026 -0.014372
-0.466955 -0.042030 0.044967
-0.466955 -0.014643 0.071757
-0.466955 0.011753 0.038862
-0.466955 0.037759 -0.057527
-0.466955 0.051673 -0.034870
-0.466955 -0.062239 0.064284
-0.466955 0.031755 0.087163
-0.466955 -0.008925 0.081573
-0.466955 -0.030032 0.071510
-0.466955 0.005690 -0.057433
-0.466955 0.096394 -0.011784
-0.466955 -0.086152 -0.023579
-0.466955 -0.081309 0.034917
-0.466955 -0.023978 -0.095652
-0.466955 -0.027945 -0.060029
-0.466955 0.048231 -0.055732
-0.466955 -0.058420 0.023715
-0.466955 -0.053014 -0.076087
-0.466955 0.016880 0.016237
-0.466955 0.030595 0.045076
-0.466955 -0.041380 0.060259
-0.466955 -0.038409 -0.031879
-0.466955 -0.061023 0.003198
-0.466955 0.037004 0.076068
-0.466955 -0.015698 0.095148
-0.466955 0.077013 -0.056992
-0.466955 0.040087 -0.060578
-0.466955 0.041579 0.029373
-0.466955 0.043962 -0.048220
-0.466955 -0.002671 -0.087205
-0.466955 0.014139 -0.039028
-0.466955 0.060770 -0.060546
-0.466955 0.035647 0.091547
-0.466955 -0.000578 0.056146
-0.466955 0.020315 0.082584
-0.466955 0.042583 -0.030804
-0.466955 0.051296 0.016479
-0.466955 0.035200 0.062025
-0.466955 0.078756 -0.014103
-0.466955 -0.032078 0.094586
-0.466955 -0.067234 -0.069287
-0.466955 -0.042324 0.046459
-0.466955 -0.019348 -0.024294
-0.466955 -0.031147 -0.090865
-0.466955 0.001845 -0.023615
-0.466955 -0.078306 0.061943
-0.466955 -0.077138 -0.055653
-0.466955 0.033891 -0.016322
-0.466955 0.065872 -0.037193
-0.466955 -0.038686 0.049054
-0.466955 -0.082251 0.024877
-0.466955 0.065818 0.052378
-0.466955 0.007528 0.014919
-0.466955 -0.045639 -0.088016
-0.466955 -0.018194 0.038040
-0.466955 0.025120 -0.010000
-0.466955 0.078441 -0.018005
-0.466955 -0.063646 0.026778
-0.466955 -0.007381 -0.021643
-0.466955 0.019497 0.058547
-0.466955 0.009115 -0.017540
-0.466955 -0.058913 -0.076165
-0.466955 0.084841 -0.014163
-0.466955 0.057311 -0.028486
-0.466955 -0.050813 -0.009708
-0.466955 0.079843 -0.012191
-0.466955 -0.039694 -0.054903
-0.466955 0.070274 0.035020
-0.466955 0.022556 -0.085701
-0.466955 -0.029823 -0.040446
-0.466955 -0.088736 0.023798
-0.466955 0.041576 0.087636
-0.466955 0.037352 -0.050230
-0.466955 -0.054415 0.077998
-0.466955 -0.027740 0.088484
-0.466955 0.062336 0.005284
-0.466955 0.007988 0.082552
-0.466955 0.066856 0.041684
-0.466955 -0.004674 0.064377
-0.466955 -0.094813 -0.016028
-0.466955 0.056250 0.052220
-0.466955 -0.037148 -0.027471
-0.466955 0.044588 0.037859
-0.466955 -0.038230 0.058826
-0.466955 0.015984 -0.015015
-0.466955 0.085463 0.035688
-0.466955 -0.069847 -0.016126
-0.466955 -0.047803 -0.007191
-0.466955 0.038980 0.070177
-0.466955 0.077666 0.037667
-0.466955 -0.002814 -0.092905
-0.466955 0.064420 -0.003361
-0.466955 0.009289 0.027297
-0.466955 -0.075161 0.025490
-0.466955 -0.056799 -0.017755
-0.466955 0.056611 0.068209
-0.466955 -0.070266 0.003171
-0.466955 -0.016950 -0.051641
-0.466955 0.058829 0.059867
-0.466955 0.055934 -0.072517
-0.466955 -0.053384 -0.017016
-0.466955 0.046845 0.063637
-0.466955 0.023336 0.052796
-0.466955 0.014811 -0.082615
-0.466955 -0.065912 0.031282
-0.466955 -0.035402 -0.058292
-0.466955 0.038084 0.030746
-0.466955 -0.058425 -0.024640
-0.466955 -0.001055 -0.029360
-0.466955 -0.048933 -0.016484
-0.466955 -0.065254 -0.073257
-0.466955 -0.085448 -0.021385
-0.466955 -0.023328 0.072827
-0.466955 -0.051596 -0.033368
-0.466955 -0.082532 -0.015384
-0.466955 -0.002570 0.018265
-0.466955 0.023374 -0.000979
-0.466955 -0.042892 -0.048848
-0.466955 -0.037519 0.026193
-0.466955 -0.030381 0.041789
-0.466955 -0.007875 0.085587
-0.466955 0.038889 0.091582
-0.466955 0.026260 -0.046453
-0.466955 0.005872 0.004768
-0.466955 -0.070769 0.060432
-0.466955 0.022632 0.074486
-0.466955 0.074676 0.062000
-0.466955 -0.083336 -0.003141
-0.466955 0.078488 0.061562
-0.466955 0.090905 -0.017779
-0.466955 0.039331 -0.005889
-0.466955 0.042278 0.016596
-0.466955 0.015148 0.030391
-0.466955 -0.037810 -0.057218
-0.466955 -0.023241 0.016191
-0.466955 -0.084434 0.008916
-0.466955 0.089068 -0.039207
-0.466955 0.024502 -0.091507
-0.466955 0.043798 0.067449
-0.466955 -0.047364 0.015465
-0.466955 0.024793 -0.021439
-0.466955 0.060753 -0.075715
-0.466955 -0.021276 -0.065545
-0.466955 0.019998 0.086193
-0.466955 0.023584 -0.050055
-0.466955 0.080973 -0.049907
-0.466955 -0.084978 -0.038244
-0.466955 -0.044754 -0.037024
-0.466955 0.006872 0.020960
-0.466955 0.059580 0.008866
-0.466955 0.000080 0.070996
-0.466955 0.082494 0.020824
-0.466955 -0.092874 0.017504
-0.466955 -0.023828 0.092789
-0.466955 0.014052 -0.046941
-0.466955 0.069111 0.065714
-0.466955 -0.005556 -0.021592
-0.466955 -0.007537 -0.074202
-0.466955 0.002570 0.052387
-0.466955 0.092123 -0.013644
-0.466955 -0.005797 0.023864
-0.466955 -0.045398 -0.053078
-0.466955 0.048228 -0.071340
-0.466955 -0.058719 0.079498
-0.466955 -0.081915 0.038194
-0.466955 0.032490 0.013303
-0.466955 0.089580 0.039083
-0.466955 -0.077463 0.025292
-0.466955 0.002890 0.068038
-0.466955 0.028547 0.091757
-0.466955 -0.028443 0.095569
-0.466955 -0.094520 0.005048
-0.466955 0.027692 -0.020604
-0.466955 0.039074 -0.059431
-0.466955 -0.017761 0.058074
-0.466955 -0.028241 -0.026851
-0.466955 0.093965 -0.033466
-0.466955 -0.010974 -0.032750
-0.466955 0.018804 -0.054008
-0.466955 -0.066640 0.051459
-0.466955 -0.055662 0.035096
-0.466955 -0.034016 0.004556
-0.466955 -0.073391 0.004520
-0.466955 -0.001043 0.006397
-0.466955 0.023981 0.008438
-0.466955 0.048154 -0.048034
-0.466955 -0.010952 0.087404
-0.466955 0.072366 0.060795
-0.466955 0.008686 -0.020090
-0.466955 -0.077079 0.016187
-0.466955 -0.069963 0.009669
-0.466955 -0.086741 0.029856
-0.466955 0.023843 0.080629
-0.466955 0.091173 0.022732
-0.466955 -0.008641 -0.079895
-0.466955 0.013394 0.038255
-0.466955 0.029817 -0.029945
-0.466955 -0.029287 0.049555
-0.466955 -0.051535 -0.039903
-0.466955 0.082658 0.000055
-0.466955 -0.067805 0.021500
-0.466955 0.067543 0.033301
-0.466955 -0.013698 0.070463
-0.466955 -0.001570 -0.024105
-0.466955 0.082294 -0.004330
-0.466955 -0.030302 -0.019007
-0.466955 0.008461 -0.062270
-0.466955 -0.084489 0.029578
-0.466955 -0.062261 0.054622
-0.466955 0.029461 -0.039851
-0.466955 0.060772 -0.012777
-0.466955 0.055990 -0.014996
-0.466955 0.040326 0.079783
-0.466955 0.016305 -0.069737
-0.466955 -0.077297 -0.001278
-0.466955 -0.039079 -0.001522
-0.466955 0.016222 0.047297
-0.466955 -0.008340 -0.082491
-0.466955 -0.083133 -0.019471
-0.466955 0.063849 -0.010913
-0.466955 -0.084941 0.022507
-0.466955 0.077969 0.034561
-0.466955 -0.010644 0.070580
-0.466955 -0.047637 -0.053341
-0.466955 -0.049222 0.037181
-0.466955 0.054353 0.017289
-0.466955 -0.007897 0.004662
-0.466955 -0.089636 -0.030420
-0.466955 -0.085353 0.020923
-0.466955 -0.020594 -0.006355
-0.466955 -0.047534 0.084103
-0.466955 -0.074547 -0.018897
-0.466955 -0.026014 -0.056529
-0.466955 0.022085 0.039907
-0.466955 -0.023035 0.091043
-0.466955 -0.031124 -0.041390
-0.466955 -0.035350 -0.087479
-0.466955 0.054005 0.067363
-0.466955 -0.053371 0.026537
-0.466955 0.036469 -0.054826
-0.466955 0.067881 0.010811
-0.466955 0.069718 -0.055939
-0.466955 0.034902 -0.053948
-0.466955 0.048659 0.069314
-0.466955 -0.027916 0.074628
-0.466955 -0.061906 -0.055117
-0.466955 0.031123 0.028867
-0.466955 -0.040645 0.082920
-0.466955 0.008498 0.040983
-0.466955 0.022893 -0.092149
-0.466955 -0.005721 -0.035653
-0.466955 0.046782 -0.019825
-0.466955 -0.096808 -0.014202
-0.466955 0.050904 -0.014540
-0.466955 -0.000739 0.094900
-0.466955 -0.016635 0.090679
-0.466955 -0.077495 -0.004631
-0.466955 0.097660 0.008972
-0.466955 -0.016025 0.037186
-0.466955 0.060441 0.044413
-0.466955 0.012862 -0.039905
-0.466955 -0.011555 0.067900
-0.466955 -0.022686 0.087343
-0.466955 -0.073292 0.058105
-0.466955 0.009980 -0.010819
-0.466955 0.056790 -0.026905
-0.466955 -0.026480 0.083968
-0.466955 0.023564 0.041021
-0.466955 0.028769 -0.047386
-0.466955 -0.087013 0.046101
-0.466955 0.082283 0.040724
-0.466955 0.010546 0.047647
-0.466955 -0.084130 0.036761
-0.466955 0.039737 0.089237
-0.466955 0.047721 0.061653
-0.466955 0.014709 0.023836
-0.466955 0.028020 0.062207
-0.466955 -0.053530 0.076652
-0.466955 0.027713 0.078630
-0.466955 -0.001206 0.008077
-0.466955 0.002280 -0.001053
-0.466955 0.024094 -0.065053
-0.466955 0.016969 0.076587
-0.466955 -0.007323 0.023703
-0.466955 0.000904 0.021124
-0.466955 -0.043705 0.042938
-0.466955 0.088139 -0.028766
-0.466955 0.048554 0.080660
-0.466955 -0.021320 0.032817
-0.466955 -0.018012 0.032677
-0.466955 -0.013432 -0.030990
-0.466955 -0.095515 -0.006520
-0.466955 0.003604 0.059223
-0.466955 -0.083507 0.051309
-0.466955 -0.045826 0.022342
-0.466955 0.062808 0.032330
-0.466955 -0.023590 0.027284
-0.466955 0.064874 -0.036124
-0.466955 0.025382 0.017495
-0.466955 0.058356 -0.047514
-0.466955 -0.026264 0.078942
-0.466955 0.016667 -0.034628
-0.466955 -0.032016 -0.040331
-0.466955 -0.013743 -0.091667
-0.466955 -0.042256 0.013758
-0.466955 0.098207 0.000599
-0.466955 -0.000264 0.089384
-0.466955 -0.082549 0.055353
-0.466955 0.015944 -0.021206
-0.466955 0.025800 0.023657
-0.466955 -0.014685 0.067405
-0.466955 -0.078706 -0.020229
-0.466955 0.014773 0.044606
-0.466955 -0.041787 0.008353
-0.466955 0.062397 0.044606
-0.466955 -0.010245 -0.044161
-0.466955 -0.068299 0.061296
-0.466955 -0.053323 0.017382
-0.466955 -0.064021 -0.053836
-0.466955 0.048289 -0.043662
-0.466955 -0.079911 0.002464
-0.466955 -0.070077 -0.053976
-0.466955 0.067164 0.006190
-0.466955 0.075405 -0.051076
-0.466955 0.066666 0.053719
-0.466955 -0.056213 0.044991
-0.466955 -0.011436 0.097253
-0.466955 -0.015718 -0.052721
-0.466955 -0.029079 0.003669
-0.466955 -0.033269 0.006780
-0.466955 -0.064767 0.062224
-0.466955 0.067415 -0.021381
-0.466955 0.064519 -0.037714
-0.466955 0.064110 -0.005979
-0.466955 0.029621 0.026758
-0.466955 0.000875 -0.008612
-0.466955 -0.016270 0.005724
-0.466955 0.057912 -0.030476
-0.466955 0.064139 0.061274
-0.466955 -0.039156 0.045615
-0.466955 -0.062582 0.049585
-0.466955 -0.021426 -0.056681
-0.466955 -0.060145 0.046064
-0.466955 0.001796 0.093303
-0.466955 0.052988 -0.012805
-0.466955 -0.092404 0.023265
-0.466955 0.016522 -0.039407
-0.466955 -0.034432 0.085480
-0.466955 0.000190 -0.067453
-0.466955 -0.041346 -0.015066
-0.466955 -0.002344 0.092995
-0.466955 0.030447 -0.061620
-0.466955 0.045141 -0.040993
-0.466955 0.064277 0.031388
-0.466955 0.033916 0.036158
-0.466955 0.054268 0.045137
-0.466955 0.009400 0.046292
-0.466955 -0.016685 -0.022758
-0.466955 0.067237 0.046597
-0.466955 -0.014166 -0.051655
-0.466955 -0.078380 -0.016440
-0.466955 0.021803 -0.053505
-0.466955 0.060426 -0.065025
-0.466955 -0.028967 0.007874
-0.466955 -0.020183 0.050105
-0.466955 0.004830 0.054554
-0.466955 0.031846 -0.062634
-0.466955 0.082576 0.012364
-0.466955 -0.067654 0.031190
-0.466955 -0.036454 -0.057215
-0.466955 -0.046350 -0.078886
-0.466955 0.082241 -0.047312
-0.466955 0.081165 -0.046013
-0.466955 0.056418 -0.008752
-0.466955 -0.045271 0.009443
-0.466955 -0.049800 0.023106
-0.466955 -0.073724 -0.032788
-0.466955 0.043087 0.053720
-0.466955 -0.072018 0.004921
-0.466955 -0.006667 0.096773
-0.466955 -0.009430 0.069665
-0.466955 0.089366 0.026459
-0.466955 -0.056379 0.000819
-0.466955 -0.006930 -0.056677
-0.466955 0.069931 0.042719
-0.466955 0.070566 -0.060837
-0.466955 -0.023273 0.038946
-0.466955 0.009491 -0.051097
-0.466955 -0.002560 -0.081210
-0.466955 -0.079083 0.030742
-0.466955 -0.064106 0.060518
-0.466955 -0.027173 0.086896
-0.466955 -0.028032 0.059940
-0.466955 -0.033635 -0.048498
-0.466955 -0.052901 -0.022218
-0.466955 0.014455 -0.063304
-0.466955 -0.021769 -0.062803
-0.466955 0.063610 0.072477
-0.466955 -0.039675 -0.062475
-0.466955 0.001516 0.013956
-0.466955 -0.057060 -0.049209
-0.466955 -0.018236 -0.046050
-0.466955 -0.010775 -0.094224
-0.466955 -0.077404 0.038006
-0.466955 0.027843 -0.082108
-0.466955 0.072384 0.037022
-0.466955 -0.049714 0.011719
-0.466955 0.054054 -0.072441
-0.466955 0.032327 0.019120
-0.466955 -0.068036 -0.059303
-0.466955 0.096052 0.011635
-0.466955 -0.033415 0.065410
-0.466955 -0.062942 0.038599
-0.466955 -0.005080 0.048130
-0.466955 0.023577 -0.029723
-0.466955 -0.020534 0.068653
-0.466955 0.062097 0.012393
-0.466955 0.018716 0.071179
-0.466955 -0.007678 0.006787
-0.466955 0.012429 0.061738
-0.466955 -0.025966 0.069759
-0.466955 0.051675 -0.066869
-0.466955 0.000766 0.092150
-0.466955 -0.046525 0.034226
-0.466955 0.017521 0.004303
-0.466955 0.052174 0.050257
-0.466955 -0.009880 0.075710
-0.466955 0.016306 0.008240
-0.466955 -0.030375 0.016259
-0.466955 0.012315 -0.034895
-0.466955 -0.094139 0.016659
-0.466955 0.016974 -0.025187
-0.466955 -0.022753 0.018087
-0.466955 0.043709 0.027220
-0.466955 0.064255 -0.055740
-0.466955 0.007625 -0.057199
-0.466955 -0.010869 0.078532
-0.466955 0.062641 0.013677
-0.466955 0.008656 -0.095313
-0.466955 0.049891 0.015534
-0.466955 -0.051299 -0.002161
-0.466955 -0.058588 -0.057249
-0.466955 0.079286 0.019044
-0.466955 0.014760 -0.055507
-0.466955 0.085424 0.024518
-0.466955 0.024415 0.054219
-0.466955 0.063400 0.051360
-0.466955 -0.052856 -0.077453
-0.466955 -0.059289 0.052015
-0.466955 -0.013524 -0.079086
-0.466955 0.068066 0.001628
-0.466955 0.094554 -0.010745
-0.466955 -0.040178 -0.047879
-0.466955 -0.031524 -0.065502
-0.466955 0.002009 0.064999
-0.466955 -0.000879 -0.060896
-0.466955 0.093500 -0.003826
-0.466955 0.082798 0.047810
-0.466955 0.005936 0.041757
-0.466955 0.019394 -0.026364
-0.466955 -0.078436 0.009237
-0.466955 -0.053084 -0.043318
-0.466955 -0.021026 0.097698
-0.466955 -0.033789 0.053785
-0.466955 -0.000393 0.038733
-0.466955 -0.077530 0.028974
-0.466955 -0.081543 0.047220
-0.466955 0.090735 -0.014383
-0.466955 0.067574 0.016186
-0.466955 -0.046368 0.058640
-0.466955 -0.014044 -0.065709
-0.466955 -0.055219 -0.015356
-0.466955 0.052080 0.078130
-0.466955 -0.048256 -0.017867
-0.466955 0.094558 0.012634
-0.466955 -0.012927 0.044148
-0.466955 -0.022329 0.085876
-0.466955 0.057533 -0.050380
-0.466955 -0.010095 0.041273
-0.466955 -0.005996 0.026218
-0.466955 -0.004217 -0.052639
-0.466955 -0.030770 -0.004142
-0.466955 0.035441 -0.030906
-0.466955 -0.016998 -0.065498
-0.466955 -0.005142 -0.082353
-0.466955 -0.084373 -0.022448
-0.466955 0.089986 0.009383
-0.466955 0.010913 -0.082953
-0.466955 0.089821 -0.019797
-0.466955 0.016995 0.041840
-0.466955 0.024657 -0.057018
-0.466955 0.042060 0.002990
-0.466955 -0.050854 -0.058454
-0.466955 -0.060001 0.076927
-0.466955 0.078197 -0.035068
-0.466955 0.044782 0.056866
-0.466955 0.077892 0.016568
-0.466955 0.090336 -0.041969
-0.466955 0.063473 -0.047865
-0.466955 0.035531 -0.025331
-0.466955 0.020993 0.084942
-0.466955 0.059573 0.063920
-0.466955 0.003186 -0.046067
-0.466955 -0.078150 0.057621
-0.466955 0.013200 -0.092429
-0.466955 -0.070649 -0.005985
-0.466955 0.049986 0.018492
-0.466955 -0.049246 -0.060034
-0.466955 -0.022589 -0.013664
-0.466955 0.069627 0.017973
-0.466955 -0.039988 -0.053167
-0.466955 0.031773 -0.052881
-0.466955 -0.008597 -0.094667
-0.466955 -0.045980 -0.054594
-0.466955 0.057958 -0.043382
-0.466955 0.010181 -0.019148
-0.466955 0.063550 -0.016038
-0.466955 -0.040927 0.046974
-0.466955 0.074663 -0.005961
-0.466955 0.089516 0.030793
-0.466955 0.031817 -0.040019
-0.466955 0.002642 0.038111
-0.466955 -0.075546 -0.041723
-0.466955 -0.044712 0.020825
-0.466955 -0.075724 -0.044798
-0.466955 0.032460 0.033474
-0.466955 0.063530 0.009061
-0.466955 -0.032268 0.089575
-0.466955 -0.051205 -0.077564
-0.466955 0.007806 0.010360
-0.466955 -0.062949 -0.001736
-0.466955 0.088517 0.025019
-0.466955 0.083869 -0.028406
-0.466955 0.043309 0.050881
-0.466955 -0.009184 -0.000224
-0.466955 0.013707 0.075224
-0.466955 -0.030989 0.085375
-0.466955 0.072469 0.007353
-0.466955 -0.003816 -0.016704
-0.466955 -0.095186 -0.022356
-0.466955 -0.016309 -0.068627
-0.466955 0.016769 -0.093256
-0.466955 -0.071279 -0.002821
-0.466955 0.042923 0.071521
-0.466955 -0.006795 0.000990
-0.466955 0.010425 -0.022100
-0.466955 0.040497 -0.050313
-0.466955 -0.069381 -0.003227
-0.466955 0.019055 0.043019
-0.466955 0.030010 0.048610
-0.466955 -0.000919 -0.083257
-0.466955 -0.004341 -0.056892
-0.466955 -0.049459 0.059500
-0.466955 -0.088586 0.036777
-0.466955 -0.077995 0.047282
-0.466955 -0.026774 -0.022105
-0.466955 -0.089143 0.025110
-0.466955 0.083276 -0.019864
-0.466955 -0.022410 -0.096739
-0.466955 -0.049046 0.004797
-0.466955 -0.041236 0.036843
-0.466955 0.006129 0.071436
-0.466955 -0.035445 0.027049
-0.466955 0.062170 -0.002638
-0.466955 0.008980 0.079320
-0.466955 -0.024540 0.032876
-0.466955 -0.002812 0.096140
-0.466955 -0.022649 0.057552
-0.466955 0.029929 0.011885
-0.466955 0.071056 0.025550
-0.466955 0.084058 -0.037509
-0.466955 0.023816 0.071495
-0.466955 -0.005837 0.072100
-0.466955 0.031454 -0.078636
-0.466955 0.030017 0.073992
-0.466955 0.009126 -0.090408
-0.466955 -0.025123 -0.011894
-0.466955 -0.020545 -0.094152
-0.466955 0.005673 -0.049931
-0.466955 0.004066 -0.090651
-0.466955 0.092855 0.021997
-0.466955 0.021102 0.020511
-0.466955 -0.093522 -0.021552
-0.466955 -0.015115 -0.094645
-0.466955 0.057789 -0.079265
-0.466955 0.094940 -0.006787
-0.466955 0.088086 0.028293
-0.466955 0.096040 0.013211
-0.466955 -0.067474 -0.049585
-0.466955 0.008396 0.031427
-0.466955 0.094065 0.004864
-0.466955 -0.029915 0.045736
-0.466955 -0.006696 -0.046780
-0.466955 -0.013702 0.036576
-0.466955 -0.005018 -0.038647
-0.466955 -0.028182 -0.063765
-0.466955 0.039844 -0.055174
-0.466955 0.055897 0.046518
-0.466955 0.050975 0.003988
-0.466955 0.017468 -0.097851
-0.466955 0.015079 -0.080013
-0.466955 0.016549 -0.000418
-0.466955 0.012948 -0.089323
-0.466955 -0.080023 0.012708
-0.466955 0.055999 -0.038125
-0.466955 0.060690 0.077537
-0.466955 -0.026267 0.088195
-0.466955 0.044370 -0.014040
-0.466955 0.024144 0.012858
-0.466955 -0.047866 -0.013371
-0.466955 -0.068115 0.006457
-0.466955 -0.003079 0.081121
-0.466955 -0.030507 -0.036361
-0.466955 -0.050462 -0.034996
-0.466955 0.021641 -0.074556
-0.466955 -0.070776 0.050346
-0.466955 -0.072275 0.006651
-0.466955 0.010660 0.051249
-0.466955 0.042231 0.021389
-0.466955 -0.002296 -0.032402
-0.466955 -0.002777 0.054421
-0.466955 -0.013210 0.011624
-0.466955 -0.071970 0.017268
-0.466955 0.066074 0.022945
-0.466955 0.052111 -0.057901
-0.466955 -0.086945 -0.018723
-0.466955 -0.040966 -0.090355
-0.466955 0.031265 0.067967
-0.466955 0.022576 -0.058262
-0.466955 0.033386 -0.028747
-0.466955 -0.016665 0.032195
-0.466955 0.026343 0.034457
-0.466955 0.045444 -0.064653
-0.466955 0.093819 0.008959
-0.466955 -0.024124 -0.087680
-0.466955 0.083221 -0.031061
-0.466955 0.044440 0.073690
-0.466955 0.043247 0.033779
-0.466955 0.061701 0.037383
-0.466955 0.033078 -0.073764
-0.466955 0.029668 -0.093717
-0.466955 0.021198 -0.069545
-0.466955 0.002798 -0.076315
-0.466955 0.000671 -0.038533
-0.466955 0.027016 -0.071336
-0.466955 0.013359 0.088728
-0.466955 -0.086111 0.009088
-0.466955 -0.014022 -0.011725
-0.466955 0.032419 0.061899
-0.466955 -0.068653 -0.053216
-0.466955 -0.016652 -0.001402
-0.466955 0.054578 -0.050906
-0.466955 0.094159 -0.025508
-0.466955 -0.013776 0.095209
-0.466955 0.005698 0.079621
-0.466955 0.013110 0.024211
-0.466955 -0.033741 0.014779
-0.466955 -0.006186 -0.059221
-0.466955 -0.003234 -0.006993
-0.466955 -0.067766 -0.006108
-0.466955 -0.017001 0.081892
-0.466955 -0.015398 -0.078827
-0.466955 0.068115 -0.007071
-0.466955 0.089356 -0.043189
-0.466955 -0.018311 0.095433
-0.466955 -0.088734 0.005906
-0.466955 0.082288 -0.021184
-0.466955 0.033682 -0.063829
-0.466955 -0.023305 0.036372
-0.466955 0.020611 -0.039356
-0.466955 0.022719 0.007732
-0.466955 -0.033541 0.073595
-0.466955 0.087757 -0.006746
-0.466955 0.028097 -0.093662
-0.466955 0.036303 -0.058621
-0.466955 -0.024209 -0.047072
-0.466955 0.061729 0.060672
-0.466955 0.003427 0.063881
-0.466955 0.029138 -0.057333
-0.466955 0.020976 0.025991
-0.466955 -0.077994 -0.002942
-0.466955 0.053078 0.049002
-0.466955 -0.022172 -0.015554
-0.466955 0.067310 -0.073595
-0.466955 0.057821 -0.062563
-0.466955 -0.089756 0.021003
-0.466955 0.086113 -0.038299
-0.466955 -0.088661 0.000643
-0.466955 -0.069857 0.032768
-0.466955 0.001868 0.071005
-0.466955 -0.028368 -0.045504
-0.466955 0.022198 -0.080493
-0.466955 -0.025714 -0.054970
-0.466955 -0.031228 -0.023758
-0.466955 0.069150 0.047842
-0.466955 -0.082553 0.035466
-0.466955 -0.059407 -0.011850
-0.466955 0.013249 -0.062128
-0.466955 -0.012981 -0.027702
-0.466955 0.023878 0.016613
-0.466955 0.091377 -0.039453
-0.466955 -0.006422 -0.008958
-0.466955 -0.037395 0.019567
-0.466955 0.089369 -0.029396
-0.466955 -0.050277 0.079584
-0.466955 0.036036 -0.069191
-0.466955 0.000595 -0.022233
-0.466955 -0.063455 -0.055108
-0.466955 -0.035285 0.063184
-0.466955 0.038650 -0.012174
-0.466955 -0.092837 -0.011715
-0.466955 -0.012606 -0.000572
-0.466955 0.044430 0.070592
-0.466955 0.069578 0.008334
-0.466955 -0.010761 0.076985
-0.466955 -0.004468 0.074076
-0.466955 -0.056037 -0.079551
-0.466955 0.030357 -0.021930
-0.466955 0.030169 0.070488
-0.466955 0.030148 -0.073392
-0.466955 0.083089 -0.014037
-0.466955 0.069260 -0.011651
-0.466955 0.041275 0.049281
-0.466955 -0.001128 0.068149
-0.466955 -0.060283 0.042113
-0.466955 -0.012952 0.034837
-0.466955 0.082675 -0.007644
-0.466955 0.003951 -0.078745
-0.466955 -0.082674 -0.051700
-0.466955 -0.066992 0.027794
-0.466955 -0.005627 -0.093932
-0.466955 -0.029650 -0.066254
-0.466955 0.041639 0.036547
-0.466955 -0.065056 -0.041937
-0.466955 -0.072776 -0.067769
-0.466955 0.023988 0.063251
-0.466955 0.074920 -0.038331
-0.466955 -0.026476 -0.084243
-0.466955 0.073831 -0.014178
-0.466955 -0.007022 0.037535
-0.466955 -0.042731 -0.019452
-0.466955 0.015839 -0.016751
-0.466955 -0.017427 -0.097592
-0.466955 -0.009323 0.001162
-0.466955 0.014386 -0.051462
-0.466955 0.083524 0.007607
