-0.422430 -0.088335 0.046500
0.179513 -0.098536 0.015529
-0.440766 0.058534 -0.080831
-0.391558 -0.063870 0.076869
-0.271735 0.003680 -0.099595
-0.115152 -0.093892 -0.033440
-0.424361 0.062432 -0.077836
0.283778 -0.096193 -0.026176
0.303055 -0.044027 -0.089378
0.365656 0.072913 0.068580
0.135965 0.089131 -0.045034
0.419779 0.066510 0.074747
0.418064 0.074608 -0.066296
0.356204 0.098708 -0.015556
0.017129 -0.022888 -0.096980
-0.191813 0.073328 -0.067749
-0.337738 -0.098726 0.014328
-0.268271 -0.099333 -0.008644
0.198494 0.041972 0.090855
0.278925 -0.017128 0.098534
-0.001710 -0.016452 -0.098278
-0.079129 -0.019474 0.098105
-0.164333 0.023661 0.097222
-0.107368 -0.015422 0.098804
0.393386 0.092458 0.038183
-0.446186 0.044918 -0.089044
0.058646 -0.081350 0.057931
-0.397094 0.018439 0.098363
0.023919 0.048318 -0.087304
0.127376 -0.011305 0.099386
-0.357624 0.018133 0.098412
0.385667 -0.090425 -0.041980
-0.430798 0.086353 -0.050134
-0.084463 -0.058083 -0.080979
0.344669 -0.082427 -0.055984
-0.148738 0.037066 0.092978
0.070317 -0.087854 -0.047081
-0.275398 0.057054 0.082200
-0.053125 0.084816 -0.052732
-0.160827 -0.023677 0.097166
0.075430 0.087965 0.047684
-0.283227 -0.092671 0.037152
-0.417868 -0.077740 -0.062341
0.094202 0.023994 0.097147
-0.095935 0.008646 -0.099297
-0.012029 0.098687 -0.015690
-0.225712 -0.024991 0.096854
-0.195438 0.036154 0.093320
-0.107660 -0.024520 -0.096615
0.318573 -0.037097 -0.092501
0.464098 0.059003 0.080859
-0.430339 -0.078714 -0.061085
-0.333977 -0.098020 0.018791
-0.325336 -0.045750 -0.088500
-0.059522 -0.073015 -0.067838
-0.232979 0.008917 0.099634
0.282729 -0.095324 0.029530
0.010820 -0.037075 -0.092511
0.188554 0.001114 0.100039
0.452778 -0.042618 0.090459
-0.180406 0.017825 -0.098098
0.084605 -0.096349 0.026003
-0.001091 -0.041616 0.090909
-0.257208 -0.086178 -0.050035
-0.320067 0.027678 -0.095779
0.299695 -0.038352 -0.091958
-0.456315 0.009143 -0.099250
0.144914 -0.099385 -0.008098
-0.008543 0.050558 -0.085980
-0.454464 -0.084051 0.053956
-0.336458 0.011960 0.099346
0.462184 -0.099033 -0.011823
-0.073319 0.078451 0.062088
-0.228042 -0.045307 0.089089
-0.183100 0.048947 0.087295
-0.229676 0.053498 -0.084241
-0.005384 -0.098655 -0.014417
0.462090 0.079528 -0.060337
0.463761 0.099853 -0.004657
0.076941 -0.081828 -0.056864
0.021069 -0.077802 -0.062261
0.440511 -0.024240 -0.096677
-0.289798 0.028119 -0.095651
0.274242 0.095557 -0.029168
0.051790 -0.059628 -0.079830
0.440085 -0.071788 -0.069108
-0.060253 -0.077892 0.062508
-0.395435 0.063990 -0.076606
-0.073268 0.052522 0.085181
0.229552 0.099847 0.005205
0.318434 -0.053330 0.084565
0.221212 0.099057 -0.013352
0.330168 -0.068955 -0.071941
-0.003592 -0.031731 0.094828
-0.388555 0.036789 0.093091
-0.435786 -0.047157 0.088146
0.099575 -0.031404 0.094946
0.111810 0.093166 0.036467
0.100842 0.070757 0.070735
0.107123 0.099911 0.003188
0.441305 -0.073049 0.068163
-0.381502 0.037269 0.092891
-0.397260 0.000715 -0.099688
0.001924 0.088630 0.046378
-0.419565 0.009739 0.099556
0.063896 -0.099363 0.008697
0.202469 -0.099217 -0.009873
0.048194 0.099533 -0.009002
0.270048 0.099094 0.013481
-0.315161 0.095621 0.029312
0.271336 0.095050 0.031234
0.167830 0.048706 -0.087075
0.420379 -0.074219 -0.066473
0.398810 -0.099732 0.001457
-0.044352 -0.090462 -0.041894
0.465267 -0.043342 -0.089728
-0.422082 -0.095993 0.027227
0.365973 -0.099081 0.011678
-0.131787 -0.065636 -0.074949
-0.142564 0.099607 0.008576
0.160055 0.098541 -0.016612
0.256344 0.054588 0.083876
-0.012312 0.017143 -0.098206
-0.465292 0.097069 -0.023756
0.109035 0.068403 0.073078
-0.173291 0.031852 0.094869
-0.204013 0.006464 0.099866
0.328828 -0.090301 -0.042267
0.175924 0.079697 0.060482
-0.190044 -0.085739 -0.050777
-0.420041 -0.028257 0.095906
0.082649 0.057115 -0.081795
0.243627 -0.078716 -0.061083
0.155623 -0.086157 0.050432
0.209117 0.094079 0.033929
-0.035767 0.017888 -0.098088
-0.246272 -0.071545 -0.069352
-0.240200 -0.092841 0.036721
0.257276 -0.053060 0.084725
-0.005449 0.074102 0.067234
0.203256 0.088869 -0.045548
-0.460848 -0.089782 0.043660
-0.231327 0.093131 0.036563
-0.459109 0.061525 -0.078540
0.219113 0.078783 -0.061297
-0.014281 0.099932 -0.002140
0.073668 0.098781 -0.015095
0.457341 0.088729 -0.045823
0.066315 -0.071181 -0.069715
0.432998 0.085612 -0.051385
0.347489 0.082048 0.057248
-0.394692 0.035933 -0.093037
0.146546 0.099941 0.002239
0.441822 -0.097808 -0.019407
-0.426204 -0.004457 0.099926
0.315782 -0.058216 0.081251
-0.453283 0.055564 0.083212
0.297250 -0.080798 -0.058380
0.380915 0.096155 -0.027111
0.366346 0.081030 0.058744
-0.122170 -0.085770 -0.050724
0.416021 -0.037018 0.092898
0.378040 -0.099478 0.007478
-0.383256 0.023986 0.097149
-0.156351 0.085225 0.052402
0.292823 -0.035600 0.093435
0.340048 -0.091813 0.039136
0.357138 0.075783 0.065327
0.235979 -0.025448 -0.096359
-0.370454 0.090242 -0.042853
0.310290 -0.031796 0.094805
-0.336108 -0.049756 0.086679
0.349238 -0.076961 -0.063345
-0.343117 0.091200 0.041091
-0.154612 0.097644 -0.021185
-0.046074 0.097391 -0.022314
0.133628 -0.020692 0.097833
0.419575 0.023946 -0.096795
-0.043925 -0.023499 -0.096843
0.217799 -0.055203 -0.082936
0.364325 -0.087078 0.048876
-0.281016 0.042721 0.090525
0.262796 0.098789 0.015409
-0.274459 0.075545 0.065597
-0.089584 0.046176 -0.088403
0.331519 0.017211 -0.098195
0.122069 -0.099394 -0.008005
0.370569 0.093835 -0.034244
-0.050551 -0.077912 -0.062119
-0.106152 -0.087334 0.048442
-0.096307 0.088183 0.047256
0.006596 -0.098405 -0.015995
0.348180 0.098359 -0.017757
-0.111453 -0.095256 0.029764
0.068973 -0.094449 -0.031892
-0.124271 -0.007070 0.099786
-0.107475 -0.098153 0.017947
-0.312167 0.033394 0.094313
0.434490 -0.090178 0.042883
0.072159 -0.099550 -0.006354
-0.442390 0.089772 -0.043776
0.430589 -0.018905 -0.097870
0.147846 -0.036281 -0.092827
0.093917 -0.057698 -0.081240
0.249569 0.031651 -0.094578
-0.064668 0.050811 0.086193
-0.361172 -0.008834 -0.099257
0.432403 0.094598 -0.032125
0.012978 -0.097960 -0.018726
0.413934 -0.083184 -0.054869
0.237271 0.039235 -0.091677
0.290297 -0.090363 -0.042124
0.134311 -0.055586 -0.082676
0.449015 0.099837 0.005533
-0.173835 0.018861 -0.097932
-0.115727 -0.010925 -0.099059
0.211069 0.036061 0.093353
0.278766 -0.057841 0.081506
-0.085877 0.057233 0.082078
-0.461424 0.002645 0.099990
-0.081930 0.099935 -0.002045
0.164258 -0.050335 0.086337
0.121160 -0.067486 -0.073318
0.089476 0.041665 0.090988
0.177099 0.064090 -0.076518
-0.403782 -0.005242 -0.099539
0.449707 0.099507 -0.009278
0.292569 0.088012 0.047592
0.102885 -0.032166 -0.094309
0.325831 0.046198 -0.088391
-0.030012 -0.088258 0.046652
-0.422284 -0.065515 0.075419
-0.405160 0.026588 0.096458
-0.465806 -0.079589 -0.059957
-0.288439 -0.090772 0.041541
0.392336 -0.026760 -0.095978
0.340896 0.095897 -0.027999
-0.422281 -0.040498 -0.091030
0.143642 -0.038571 0.092226
0.276851 0.079795 0.060356
-0.018806 -0.099010 -0.012065
0.371773 0.031516 0.094989
0.043356 0.050096 -0.086253
0.143983 -0.091793 -0.038818
0.215136 0.002414 0.099998
-0.366587 -0.019903 0.098009
0.242476 0.099762 -0.006574
0.099021 0.016060 -0.098377
0.363821 -0.036073 -0.092902
0.321136 -0.083077 0.055389
-0.440180 -0.087959 -0.046875
-0.089057 -0.099699 0.002496
-0.183562 -0.082650 0.056017
0.088155 0.093002 0.036921
-0.236703 0.099910 -0.002853
0.410265 0.099948 -0.001639
-0.257759 0.030917 -0.094838
-0.314735 -0.005306 -0.099537
0.077313 -0.052371 0.085132
-0.261568 -0.062274 0.078140
0.346107 0.060974 -0.078967
0.457736 0.054483 -0.083584
-0.138517 -0.099474 0.007525
-0.151831 -0.099677 0.003192
0.074681 -0.097696 -0.019906
0.154369 0.086010 -0.050713
-0.341844 -0.078647 -0.061171
-0.189161 -0.096716 0.024654
-0.041845 -0.071983 0.069276
0.013846 0.001944 -0.099650
-0.433709 0.095219 -0.030334
-0.118708 0.016884 0.098609
-0.148745 -0.077265 -0.062953
0.194967 -0.068468 0.072791
0.254755 -0.042233 0.090642
-0.265531 -0.072777 -0.068109
0.162759 -0.083902 0.054176
0.368370 -0.099751 -0.000479
-0.123972 -0.099622 0.004946
-0.432123 -0.077919 0.062473
-0.212472 -0.025234 0.096784
-0.274615 0.083890 -0.054174
0.212668 0.008110 -0.099347
0.462050 0.061691 -0.078411
0.284633 0.021344 0.097740
0.450842 0.040816 -0.090993
-0.414498 0.030777 0.095241
0.288210 -0.063218 0.077408
0.146361 -0.018632 -0.097931
0.225670 -0.023844 0.097129
0.065442 -0.022045 -0.097168
-0.053958 -0.065328 0.075583
-0.434607 0.088968 0.045716
-0.018469 0.052918 -0.084584
-0.281595 0.097092 -0.023656
-0.388206 0.074546 -0.066367
0.453247 0.020022 0.098035
-0.140156 -0.039473 -0.091473
-0.054889 -0.028825 -0.095378
0.243033 -0.028560 -0.095455
-0.081495 0.024706 0.096988
0.192728 -0.074619 0.066382
-0.291158 0.035291 -0.093268
0.009320 0.026110 0.096597
-0.039892 0.097598 -0.021389
0.265943 -0.053412 0.084516
-0.091833 -0.001329 0.100025
-0.166644 -0.020601 -0.097491
-0.375748 -0.052474 -0.084709
0.141734 -0.024357 0.097014
-0.212435 0.042827 -0.090109
-0.464843 0.096097 0.027674
-0.402442 -0.066688 -0.074021
-0.298405 -0.033551 0.094173
-0.366861 -0.077603 -0.062518
-0.100854 -0.001951 0.100005
0.369452 0.088722 0.046198
-0.355392 0.005978 -0.099523
-0.043966 -0.011231 -0.099030
-0.388770 0.073494 0.067923
-0.320537 0.093481 -0.035228
-0.166814 0.030633 0.095283
-0.098030 0.093414 -0.035414
-0.257194 -0.099433 0.007953
-0.067095 -0.014537 0.098944
-0.183255 0.037052 -0.092622
0.439474 -0.094631 0.031747
-0.466154 -0.090533 -0.041730
0.088448 -0.028529 -0.095464
-0.342068 0.051970 0.085507
-0.039686 -0.080976 -0.058118
0.293316 -0.076369 0.064397
-0.214725 -0.096030 -0.026739
-0.058874 0.079333 -0.060589
-0.418861 0.082852 -0.055701
-0.205054 0.051977 -0.085141
0.433230 -0.022811 0.097359
-0.271881 0.099940 0.002254
-0.243128 -0.060332 0.079647
-0.001928 -0.097727 -0.019768
-0.373029 -0.099440 0.007883
0.127829 -0.058933 0.080732
0.346897 -0.096241 -0.026013
-0.067236 -0.087321 -0.048102
0.434913 0.073504 -0.067549
-0.149841 -0.056320 -0.082177
-0.177675 -0.060455 0.079551
0.139334 -0.055426 0.083147
0.215027 -0.099616 -0.004784
-0.204009 0.050903 0.086139
-0.205379 -0.098299 -0.016662
0.395393 0.065163 -0.075572
-0.144552 -0.099650 -0.003685
-0.452820 -0.073044 -0.067806
-0.115388 0.090288 -0.042763
0.363942 -0.097623 0.020595
-0.197705 -0.063935 -0.076449
0.077443 -0.095286 0.029663
-0.192145 -0.099707 -0.001876
0.059774 -0.020308 0.097919
-0.263162 0.032091 0.094782
0.112813 -0.099140 0.011055
-0.224495 0.014741 -0.098586
-0.216629 -0.037307 0.092773
0.204818 0.052992 -0.084541
0.291370 -0.094928 -0.030532
-0.108739 -0.005951 0.099879
-0.408927 0.096888 -0.024567
0.239430 0.028363 0.095943
-0.162405 0.098812 0.015264
-0.325021 0.094719 0.032153
-0.284524 0.064176 0.076805
-0.371990 0.002620 0.099991
-0.397861 -0.009165 0.099588
0.073768 -0.085717 0.051176
-0.364013 -0.084526 0.053190
-0.247803 0.070084 -0.071046
0.244571 0.069073 0.072420
-0.079102 -0.012629 -0.098884
0.284422 0.095964 -0.027769
0.357349 -0.035704 0.093398
-0.033914 0.097303 -0.022711
-0.345759 -0.089436 0.044338
-0.121257 -0.097345 0.021838
-0.345622 0.075738 -0.065015
-0.374662 0.080090 -0.059612
-0.271627 -0.095786 -0.027579
0.352168 -0.055293 0.083238
-0.258352 0.099870 -0.004121
0.408119 -0.099575 -0.006078
0.285262 -0.077206 0.063392
0.406206 0.058462 -0.080880
-0.155720 0.079128 0.061216
-0.310077 0.052211 0.085365
0.025096 0.094243 -0.033112
0.267969 -0.093129 -0.035558
0.311240 0.078021 0.062643
0.266870 -0.040964 -0.090828
0.069591 -0.084494 -0.052882
-0.260512 0.098612 -0.016160
0.046090 -0.098614 0.015038
-0.238379 -0.010446 0.099467
0.305185 0.094688 0.032238
0.422910 0.099824 0.005937
0.212874 -0.023039 -0.096946
0.369484 0.048893 0.087327
-0.037257 -0.056297 0.082556
-0.414319 0.090311 0.043080
0.457935 -0.073115 0.068088
0.465047 -0.036259 -0.092835
0.056995 -0.087781 -0.047225
-0.010767 -0.096179 0.026586
-0.459452 0.069525 0.071968
0.455149 0.094977 0.031436
-0.324158 -0.037035 -0.092528
-0.404064 -0.091119 0.040739
-0.055124 -0.099615 0.005186
-0.092911 0.098660 0.016223
0.263037 0.087287 -0.048553
0.402369 -0.067305 -0.073478
-0.207107 -0.064891 0.075969
-0.195103 -0.030577 -0.094869
0.284191 0.089667 0.044344
0.047864 -0.063505 -0.076823
-0.264645 -0.083756 0.054390
-0.069740 0.026334 0.096532
-0.420002 -0.082470 0.056282
-0.451034 0.069875 -0.071254
-0.203395 -0.007017 0.099791
-0.418671 -0.098506 -0.015360
-0.080160 0.002349 0.100000
0.462911 -0.088034 0.047090
0.457221 -0.092599 -0.036956
-0.083662 -0.077053 -0.063227
0.107555 0.091063 0.041407
-0.276326 0.020313 -0.097607
0.042698 -0.096289 0.026209
-0.161037 -0.043371 -0.089713
0.414157 -0.064107 0.076660
-0.164992 -0.099390 0.008406
0.372110 0.072220 0.069272
0.384896 -0.043680 0.089918
0.096654 -0.025949 -0.096213
-0.275047 -0.014636 0.098929
-0.095219 0.060165 0.079958
-0.409581 -0.054388 -0.083490
-0.394692 0.096320 0.026906
-0.237045 -0.098182 0.017768
0.069657 0.091067 -0.041037
-0.076222 0.006396 -0.099509
0.087685 -0.064028 0.076730
-0.285680 0.067882 -0.073175
-0.378422 0.000773 0.100049
-0.350287 -0.043456 0.090032
0.287855 0.052171 0.085389
0.256409 0.039385 -0.091612
0.046039 -0.099703 -0.002005
0.437297 -0.083563 0.054674
0.297915 0.001531 0.100026
0.305905 0.086010 0.051075
-0.310575 0.017319 -0.098178
0.013387 -0.000602 0.100047
-0.233644 -0.060659 -0.079030
0.282561 0.077480 0.063340
-0.258528 0.090897 -0.041428
0.396620 0.044255 0.089744
-0.080734 0.065965 -0.074865
-0.383862 0.070970 -0.070160
0.410394 -0.099183 0.010603
-0.072263 0.057726 0.081743
-0.239103 0.088065 -0.047125
-0.065999 0.093857 0.034548
0.103214 0.082678 0.056319
0.044553 0.079048 -0.060956
0.158780 0.037731 0.092691
0.187395 0.044790 -0.089109
0.208247 0.012915 -0.098875
-0.297663 0.062602 0.078067
-0.181854 -0.058227 -0.080881
0.423946 -0.038664 -0.091823
-0.017696 0.075161 -0.065670
0.189815 0.094425 -0.032605
-0.351825 0.076337 -0.064336
0.459848 -0.043595 0.089962
0.033006 -0.016248 0.098673
0.458068 -0.062578 -0.077542
0.011917 0.059267 0.080654
0.143767 -0.098259 -0.016919
0.053331 -0.083678 0.054505
-0.052361 0.012781 0.099259
-0.147560 0.028753 -0.095466
-0.015486 0.086751 -0.049459
-0.244553 -0.037241 0.092802
-0.318410 -0.062768 -0.077394
0.123806 0.079386 -0.060520
0.286516 0.093727 -0.034546
0.062164 -0.098372 0.016565
0.380123 -0.039626 0.091770
-0.101125 0.072049 0.069444
0.362510 0.024631 0.097005
-0.226220 0.026632 0.096445
0.421386 -0.089332 0.044543
0.167661 -0.099239 -0.009648
0.231166 -0.090806 -0.041099
0.227760 -0.031232 -0.094645
-0.048730 -0.090545 0.042065
-0.114930 0.099870 0.004477
0.072182 -0.017575 -0.098100
0.062725 0.081487 -0.057710
-0.234474 -0.071640 -0.069256
0.415259 0.097881 0.020487
0.090640 -0.080494 0.059153
-0.168046 -0.026823 -0.095959
0.375870 -0.060248 -0.079349
-0.452080 -0.093850 0.033918
-0.069444 0.038054 -0.092188
0.325306 0.099855 -0.004593
0.295305 0.096489 0.026323
0.237580 0.087887 -0.047474
-0.321930 -0.075427 -0.065103
0.255825 -0.078393 -0.061499
-0.273368 -0.057885 -0.081113
0.056248 0.003526 0.099963
0.137639 -0.099705 0.002310
0.172159 -0.088656 -0.045508
-0.405046 -0.032503 0.094550
-0.051992 -0.045994 0.088739
0.139651 -0.078478 0.061752
0.189489 0.098350 -0.017818
0.197957 -0.075931 -0.064531
-0.329988 -0.005603 -0.099527
0.279045 0.061891 -0.078255
0.184509 -0.029580 0.095521
0.228012 -0.099639 0.004421
-0.092996 -0.094811 -0.030887
-0.157751 -0.004990 0.099909
0.217331 0.099619 -0.008088
-0.416440 0.078284 0.062303
0.272162 0.060973 -0.078967
0.037170 0.077580 0.063211
0.153881 -0.096967 -0.023169
0.075850 0.064791 0.076263
0.218961 0.022476 -0.097124
-0.449511 0.098721 -0.015473
-0.425608 0.089387 -0.044531
0.024461 0.026998 0.096339
-0.291956 -0.035453 -0.093125
0.270414 0.042678 -0.090185
-0.426243 0.029305 -0.095306
-0.035258 0.099919 -0.002558
-0.351576 0.065185 -0.075552
-0.204211 -0.061587 -0.078311
-0.224612 -0.068612 -0.072284
0.319800 0.068283 0.073184
0.117760 0.017921 0.098445
0.342359 0.066058 -0.074783
-0.323404 0.001655 -0.099659
0.256952 -0.088307 0.046554
-0.355910 -0.040927 0.091207
0.428470 0.098238 -0.018526
0.252318 0.058386 -0.080932
-0.106249 -0.087633 -0.047514
0.358606 0.094212 -0.033198
-0.357178 -0.047348 0.088049
0.413203 0.085237 0.052383
-0.112405 0.099054 -0.013370
0.250121 0.057863 0.081650
0.142121 0.048109 -0.087418
-0.037615 0.098881 -0.014465
-0.121167 0.042401 0.090670
0.286861 0.017166 -0.098202
0.110275 -0.016650 0.098610
0.259125 -0.034661 0.093773
-0.161212 0.089242 -0.044816
-0.452285 0.094739 0.032096
-0.459826 -0.085840 -0.050605
0.439380 -0.036313 -0.092816
0.354958 -0.044126 -0.089328
0.445051 -0.060294 -0.079314
-0.093406 -0.018942 0.098224
-0.247165 -0.099185 -0.010215
0.061157 -0.014684 0.098921
-0.207512 -0.093906 0.033762
-0.036003 0.062140 0.078425
0.372906 0.084518 0.053599
-0.405614 0.070491 0.071002
0.324968 -0.055412 -0.082794
-0.085359 -0.065356 0.075559
-0.457362 -0.029325 0.095595
0.185486 -0.065578 -0.075000
0.290577 -0.024498 -0.096620
0.276689 0.099230 0.012568
0.158945 0.067614 -0.073411
-0.079896 0.092861 -0.036890
-0.018758 -0.094080 0.033279
0.232303 -0.011602 0.099358
-0.292981 -0.099404 -0.007901
-0.316732 0.063484 -0.077020
0.185367 0.065108 0.075983
-0.154240 0.049867 0.086751
0.062055 0.050930 0.086123
0.371162 0.005598 0.099898
-0.075155 0.034851 0.093789
0.306488 -0.001704 -0.099650
-0.427742 -0.044077 -0.089353
0.436236 -0.009348 -0.099208
0.439262 -0.059677 -0.079792
0.029869 -0.091223 -0.040136
0.352675 -0.031365 -0.094597
0.218133 0.068656 -0.072473
-0.031642 0.098251 0.018805
-0.277820 -0.009135 -0.099228
0.270249 0.030907 -0.094841
0.219195 0.006397 -0.099509
-0.285946 -0.095713 0.028191
-0.186133 -0.036366 0.093159
0.276606 0.029493 0.095614
0.129697 0.050390 -0.086079
-0.376926 -0.030476 -0.094898
0.005105 0.038212 0.092483
0.345814 -0.053483 0.084468
-0.157640 0.097036 0.024265
0.090048 -0.069879 -0.071017
-0.429991 -0.037142 -0.092482
0.445787 -0.098803 0.013843
-0.053012 -0.097804 -0.019425
0.305165 -0.097879 -0.019089
-0.073548 0.049686 -0.086496
-0.187566 0.028785 0.095820
-0.432409 0.090270 -0.042797
0.130821 0.095353 -0.029870
0.387402 -0.093324 -0.035015
-0.326076 -0.051335 0.085745
-0.026139 0.010394 0.099494
-0.435644 0.020941 -0.097467
-0.022165 -0.045432 -0.088663
0.130299 -0.047258 0.088095
-0.438322 0.092425 -0.037898
0.309062 -0.079704 0.060171
-0.389909 -0.071930 0.069329
-0.356014 0.059140 -0.080390
-0.078135 0.080213 -0.059454
-0.045336 -0.064765 -0.075717
-0.398430 0.002210 0.100004
-0.275450 -0.058977 0.080698
-0.078081 0.099484 0.009886
0.157694 0.081448 -0.057766
-0.237393 -0.003687 -0.099588
0.285613 -0.038969 -0.091691
-0.345336 0.086154 0.050832
-0.210641 0.033375 -0.093958
0.458254 -0.082312 -0.056152
0.087793 -0.081463 -0.057402
0.154912 -0.091235 0.040470
-0.103566 0.015432 -0.098477
0.018462 -0.098044 0.018634
0.044907 -0.017533 -0.098107
0.446369 -0.000276 0.100058
0.301508 -0.099644 -0.003901
0.087475 -0.075739 0.065112
-0.030805 0.077645 0.063127
-0.181576 -0.044429 0.089536
-0.208780 0.099594 -0.008358
0.196391 -0.083540 0.054708
0.354887 0.001068 0.100040
-0.411450 -0.087021 -0.048609
-0.170685 0.094948 0.031516
-0.151618 0.097152 0.023750
0.112767 -0.078426 0.061819
0.078247 -0.003583 0.099954
0.160926 0.009120 0.099615
0.046368 0.029318 -0.095302
0.065506 -0.097064 0.023098
-0.092235 -0.052656 -0.084601
0.347037 -0.094373 -0.032102
0.413845 0.099785 0.006699
0.098076 0.065439 -0.075329
0.098024 0.075357 -0.065447
0.044225 0.094590 -0.032149
0.007313 -0.099308 0.009275
-0.246384 0.029832 -0.095153
-0.100973 -0.098860 -0.013121
-0.461873 0.023038 0.097361
0.238653 0.090512 -0.042319
0.138402 -0.088869 0.045453
0.198993 0.022352 -0.097151
0.261793 -0.066548 0.074508
0.200458 -0.089376 -0.044095
0.227720 -0.017860 0.098418
-0.270033 0.095788 -0.028373
-0.043660 0.099910 -0.002856
0.232931 -0.003246 0.099964
0.090276 0.095042 0.031254
0.285995 -0.099769 0.000097
-0.018006 -0.098050 0.018597
-0.027833 -0.081424 -0.057459
0.020932 -0.017304 0.098506
-0.423601 -0.017828 0.098423
0.363845 0.091124 0.041267
-0.137937 -0.075329 0.065577
0.461327 -0.069817 0.071442
-0.096007 0.091094 0.041337
-0.017709 0.099168 -0.012650
-0.004049 0.095527 -0.029271
0.170904 -0.097917 0.019281
0.384087 0.068111 -0.072973
0.088605 -0.089036 0.045123
-0.029037 -0.006581 0.099833
0.292583 0.081821 -0.057218
0.012025 -0.098978 -0.012379
-0.012569 0.058589 0.081157
-0.367653 0.079436 -0.060455
-0.018628 -0.044922 0.089285
-0.092542 0.034326 -0.093615
-0.293500 -0.047751 0.087844
-0.398546 0.099862 -0.004392
-0.226442 -0.089760 -0.043341
-0.107710 0.098322 -0.017993
0.322465 0.099347 -0.010973
-0.198829 0.087979 0.047657
0.264203 -0.051779 -0.085120
-0.065310 -0.090513 0.042139
-0.252455 0.095871 0.028450
0.345378 -0.086497 -0.049495
0.150419 -0.093455 -0.034652
0.208358 0.061514 -0.078548
0.149412 -0.009895 0.099519
0.405012 -0.087351 0.048413
0.070544 0.099627 0.008371
0.365272 -0.011750 -0.098981
-0.291063 -0.084286 0.053596
-0.036186 -0.019433 0.098115
0.214673 0.097222 -0.023074
-0.104838 0.038920 0.092176
-0.119137 0.092925 -0.036743
0.165046 0.016628 -0.098287
-0.065356 -0.030593 -0.094864
-0.419471 -0.057178 -0.081594
-0.305959 -0.099714 -0.001671
0.006966 -0.095604 0.028566
0.102228 -0.016032 0.098708
-0.102251 -0.044317 0.089594
0.434921 -0.086396 -0.049666
0.374599 -0.072589 0.068670
0.112092 0.032379 0.094679
-0.076307 0.098667 -0.015813
0.201309 -0.052603 -0.084633
0.437379 0.063683 -0.076866
0.326398 -0.002960 0.099973
-0.343491 -0.099298 0.009380
-0.390707 0.021404 0.097726
0.134750 0.098895 -0.014373
-0.169850 0.044461 0.089639
0.332215 0.007831 -0.099374
-0.090062 -0.097572 -0.020463
-0.194636 0.027111 -0.095944
-0.327734 0.092332 -0.038112
-0.221589 -0.091562 -0.039352
-0.000266 -0.039461 -0.091478
-0.238684 -0.079464 -0.060119
0.280649 0.094441 -0.032561
0.398632 -0.022451 0.097440
0.287011 0.005101 -0.099551
-0.305073 -0.093075 0.036071
-0.208909 -0.033166 -0.093949
-0.341982 0.020335 -0.097602
-0.279965 0.087259 0.048965
0.413354 -0.099640 0.004390
0.199020 -0.072894 0.068338
0.202515 0.075762 0.065350
-0.258911 0.096069 -0.027405
0.337809 0.081214 -0.058111
-0.179890 0.076989 0.063958
-0.005201 -0.046616 0.088422
0.292608 -0.017502 0.098475
-0.281938 0.095043 -0.030891
0.232350 0.083633 0.054914
-0.417933 -0.099439 -0.007533
-0.453668 0.075054 -0.065790
0.048658 0.000013 0.100067
-0.372642 0.050381 0.086447
0.238969 -0.091981 -0.038383
-0.342405 -0.099577 -0.006028
0.067097 0.046895 -0.088036
0.210161 -0.096911 0.023782
0.336353 -0.086267 0.050246
-0.023996 0.017091 -0.098214
-0.198716 -0.049660 -0.086373
0.233332 0.044689 -0.089160
-0.095934 0.099997 0.000438
0.000599 0.064390 -0.076253
-0.182128 -0.018143 -0.098010
0.024803 -0.001893 -0.099644
-0.098295 -0.095666 -0.027992
0.130545 0.082104 0.057164
-0.086899 0.003220 0.099972
-0.392026 -0.094921 0.030918
-0.353880 0.026701 -0.096063
-0.080644 0.098711 0.015899
0.150912 0.028374 0.095939
-0.253161 0.005512 0.099900
-0.445799 -0.088371 0.046429
-0.341648 -0.053139 -0.084315
-0.021200 0.029324 -0.095301
0.371845 0.012135 0.099330
0.049451 -0.021090 0.097744
0.020052 -0.044549 -0.089113
-0.041488 -0.098894 0.013268
-0.203378 -0.083173 -0.054885
0.414183 0.015690 0.098799
0.367579 0.061738 0.078737
0.294664 0.054215 -0.083766
-0.372265 0.033357 -0.093964
-0.448797 -0.024485 -0.096623
-0.456734 -0.099432 -0.007598
-0.283660 -0.082889 -0.055303
-0.224764 0.008552 -0.099306
0.342948 0.077567 0.063228
-0.318836 -0.046079 0.088696
0.257249 -0.097156 0.022685
-0.326671 0.042453 -0.090284
0.317286 0.063815 0.077123
0.022165 -0.042375 0.090580
-0.341749 -0.035754 -0.093017
0.383739 0.097529 -0.021697
-0.325210 0.064844 0.076216
0.438516 -0.092807 -0.036451
-0.210177 -0.023110 -0.096930
-0.444901 0.066921 0.074385
0.096718 -0.082686 0.055965
0.465157 -0.006347 0.099855
-0.168074 -0.033407 -0.093862
-0.220578 0.097276 -0.022831
0.376061 -0.065296 -0.075249
-0.209452 0.099446 0.010288
-0.173563 -0.088527 -0.045760
0.166754 -0.099756 -0.000327
0.428544 -0.035479 -0.093116
0.409771 0.099284 0.011995
-0.283066 0.083267 -0.055090
-0.333599 -0.095019 -0.030218
-0.227705 -0.085781 0.051069
-0.248866 0.033616 0.094234
-0.259903 0.001460 0.100028
-0.042187 0.099480 -0.009557
-0.347834 -0.099715 -0.001616
0.228566 -0.073264 -0.067557
-0.099924 0.099459 -0.009788
0.246445 0.062080 0.078471
0.316445 0.004505 0.099932
-0.315670 0.074661 -0.066237
0.380221 -0.015491 0.098793
0.012726 0.085727 -0.051192
0.018027 -0.016118 -0.098331
-0.356230 -0.080557 -0.058709
0.247637 -0.037644 0.092627
-0.445405 -0.097994 -0.018576
-0.288653 -0.074472 -0.066186
0.391600 0.097528 0.022067
0.413787 -0.069710 -0.071186
-0.450444 0.056244 -0.082387
-0.310697 -0.018459 0.098323
-0.161235 -0.062311 0.078112
0.419201 0.005702 0.099894
-0.425719 -0.055411 -0.082795
0.401473 -0.078467 -0.061404
0.430355 -0.073617 0.067519
-0.348068 0.080754 0.059120
0.036926 0.036868 -0.092700
0.227953 0.073380 -0.067689
0.227390 0.092470 -0.037793
-0.350081 -0.048721 0.087291
-0.193125 -0.035131 0.093604
-0.034253 -0.084377 0.053443
0.179443 -0.079842 -0.059632
0.110580 0.009128 0.099614
0.050556 -0.087872 0.047409
-0.288921 0.095157 0.030908
-0.293328 -0.098428 0.016212
-0.181397 -0.099025 0.012271
-0.415601 -0.099698 -0.002174
0.271237 0.053135 0.084819
0.413847 0.003518 -0.099600
0.042411 0.099381 0.010967
-0.063154 0.096636 0.025816
0.235109 0.074328 -0.066614
-0.097820 0.036032 0.093364
-0.283872 -0.093110 -0.035611
-0.283966 -0.017204 0.098522
-0.295117 0.030618 -0.094925
-0.002041 0.066618 0.074652
-0.363825 -0.043554 0.089982
0.324228 -0.078872 0.061244
0.383369 -0.099366 -0.008304
-0.160254 0.079294 -0.060639
0.437294 0.095391 0.030105
0.375088 -0.067217 0.073918
0.229514 -0.022342 -0.097102
-0.248227 0.088298 0.047032
-0.226231 0.070525 -0.070605
0.258768 0.005735 -0.099531
0.307634 -0.005961 0.099879
-0.258985 0.095523 0.029649
0.404656 -0.076106 0.064696
-0.005374 0.073401 -0.067666
-0.022129 -0.099170 0.010735
0.105147 -0.022570 0.097413
0.357326 0.094936 0.031551
-0.241585 -0.050414 -0.085927
-0.263084 -0.055621 0.083015
-0.051451 0.077699 -0.062695
-0.145763 -0.098191 0.017711
-0.065879 0.050446 -0.086046
-0.457743 -0.062332 0.078095
0.156818 0.028704 -0.095481
-0.181261 -0.074078 0.066995
0.303502 -0.096099 0.026863
-0.445157 0.078979 -0.061045
0.379673 0.099813 -0.005935
-0.338350 -0.095496 0.028940
-0.306069 0.073197 -0.067897
-0.057295 -0.098029 0.018731
0.360774 0.098020 -0.019504
0.155488 0.050768 -0.085855
-0.385722 0.088543 0.046550
-0.022501 -0.078305 -0.061613
0.375008 0.050901 -0.085777
0.406276 -0.073477 -0.067315
0.004136 -0.099769 0.000260
-0.161438 0.021945 -0.097242
-0.414924 -0.013931 -0.098677
-0.178009 -0.074502 -0.066152
-0.150236 -0.064873 0.075985
0.015280 0.056690 -0.082084
-0.188140 0.070364 0.071128
-0.098315 -0.079319 0.060669
0.312783 -0.077027 -0.063260
0.427728 -0.020702 0.097831
-0.454889 0.084230 -0.053674
-0.430692 0.078179 -0.062076
-0.377232 0.089687 -0.043942
0.390144 -0.056389 -0.082131
-0.216476 0.016088 0.098736
-0.131934 0.019011 0.098261
-0.042534 -0.099669 -0.003081
0.454322 0.098099 0.019512
0.039889 -0.096743 -0.024172
0.341408 0.038225 0.092477
0.191287 0.062111 0.078448
0.424129 0.048110 -0.087417
-0.119566 0.098813 -0.014893
-0.042358 -0.090682 0.041749
0.377313 0.097518 -0.021748
-0.442919 0.021423 -0.097359
-0.031634 -0.077784 0.062647
-0.169096 -0.070959 0.070300
-0.030203 0.095816 -0.028279
-0.102360 0.088671 -0.045937
0.096512 0.094519 0.032708
0.453536 0.077523 -0.062922
0.122237 -0.011641 -0.098992
-0.095800 0.015399 -0.098482
0.331897 -0.005937 -0.099517
0.045399 -0.071926 -0.068970
-0.079671 0.092116 0.038974
-0.372556 0.083582 -0.054627
0.371580 -0.096319 0.026107
-0.096569 0.085327 0.052230
-0.088219 -0.094510 0.032085
-0.202730 -0.034671 -0.093407
0.427687 -0.026125 -0.096162
0.165713 -0.071264 -0.069632
-0.169945 0.092859 0.037258
-0.163165 0.031525 -0.094623
-0.149270 -0.091968 0.038778
0.030535 0.034137 -0.093683
0.067914 0.087657 -0.047927
-0.286954 -0.099086 -0.011258
-0.363159 -0.020102 -0.097602
-0.418595 0.099740 0.007170
-0.131116 0.044813 0.089460
0.219357 -0.085196 0.052058
0.325919 0.067982 -0.073087
0.464787 0.055502 -0.082891
0.208978 -0.013085 -0.098811
-0.417644 -0.097267 -0.021828
0.069343 0.070656 -0.070473
0.222678 0.094122 -0.033447
-0.344089 -0.052818 0.084868
-0.215847 -0.065663 0.075288
-0.421962 0.035582 0.093526
-0.362199 -0.090679 0.041756
-0.089688 0.087295 0.048903
-0.255557 -0.032757 -0.094096
0.040182 0.026580 -0.096098
0.405624 -0.063120 -0.077122
0.225033 0.088955 -0.045378
-0.132379 0.098869 -0.014537
-0.038016 0.078799 -0.061277
-0.308357 -0.062349 0.078082
0.070997 -0.092011 -0.038315
-0.120915 -0.022033 0.097533
0.290252 -0.098012 0.018838
-0.084193 -0.032708 -0.094113
0.416018 0.096035 -0.027525
-0.444930 -0.079553 0.060366
-0.007633 -0.037755 -0.092216
0.182225 0.060291 0.079860
-0.111115 -0.095413 -0.028863
-0.194780 -0.068876 0.072383
0.190527 0.075631 -0.065136
0.298501 0.013157 0.099200
0.045545 0.011661 0.099375
-0.081657 0.095389 -0.029746
-0.240405 0.008615 0.099662
0.151382 0.035896 0.093413
-0.427990 -0.099310 -0.008887
-0.104905 -0.039720 -0.091366
0.088050 0.090337 0.043029
-0.426479 0.073471 -0.067587
0.387981 -0.063248 0.077385
-0.289701 0.040663 -0.091059
-0.054450 0.011507 -0.099026
0.401601 -0.095904 -0.027170
0.101015 0.080983 -0.058452
-0.405377 0.099916 -0.002652
0.057644 -0.088549 0.046079
0.416287 -0.080684 0.058908
-0.381635 0.032959 -0.094107
0.130556 0.065225 -0.075517
-0.452696 -0.002802 -0.099616
-0.137057 -0.030564 -0.094873
0.436297 -0.098299 -0.016665
0.022934 -0.070966 0.070293
-0.302343 -0.083805 -0.053955
-0.343150 -0.013685 0.099079
0.331143 0.095927 -0.027896
0.222264 -0.077340 -0.062857
0.213548 0.055703 -0.082755
0.243236 0.098735 -0.015388
0.344563 0.090729 -0.041817
0.170284 0.011366 -0.099040
-0.249265 0.016520 -0.098304
0.012387 -0.026871 -0.095946
-0.306980 0.034305 -0.093623
0.041031 0.062184 -0.078029
-0.269889 -0.055890 0.082832
-0.174882 0.059219 0.080691
0.062061 -0.064515 0.076301
0.319377 -0.011226 -0.099031
-0.417515 -0.093965 -0.033236
0.382517 0.099551 0.009168
0.334794 -0.095036 -0.030161
-0.263199 -0.068162 0.073085
0.158042 -0.098887 0.013316
-0.460371 -0.037591 -0.092288
0.022021 0.091499 -0.040038
-0.207591 0.099906 0.003324
-0.182351 -0.007954 -0.099340
0.138525 -0.099239 -0.009638
0.091081 0.097232 0.023389
0.345394 0.094850 -0.031427
-0.358765 0.063995 -0.076601
-0.220572 -0.099640 0.004384
-0.196138 -0.084237 -0.053317
0.228520 0.040375 -0.091184
0.347747 -0.099443 -0.007484
0.237692 -0.083508 -0.054393
-0.444439 0.096295 -0.026629
-0.369945 0.099883 0.004076
-0.314549 0.064280 0.076713
-0.351469 -0.040213 -0.091153
0.165189 -0.096880 -0.023559
0.431111 0.090030 0.043632
-0.337007 0.099956 0.001745
0.445437 -0.055213 -0.082929
-0.355042 0.099917 -0.002622
0.237005 -0.069149 0.072110
0.276315 -0.098790 0.013925
-0.376242 -0.098032 -0.018352
-0.181036 0.099865 -0.004276
0.188309 -0.091715 -0.038998
0.434699 0.099550 -0.008823
0.031976 -0.059088 -0.080248
0.081046 0.089036 -0.045219
0.306845 -0.020141 -0.097594
-0.194248 0.013647 -0.098759
0.043211 0.099138 -0.012843
0.028657 0.098607 -0.016194
-0.204125 0.074157 0.067171
0.369794 -0.058667 -0.080576
0.238735 0.094395 -0.032690
-0.328742 0.057483 0.081908
-0.169512 -0.099260 -0.009421
-0.126904 0.085085 0.052639
0.330761 0.082055 0.057236
-0.443745 0.099833 -0.005312
0.117023 0.036664 0.093136
-0.329783 0.051433 0.085825
-0.115305 -0.098500 0.015756
0.198182 0.068756 -0.072374
-0.100475 0.068608 -0.072522
-0.061416 -0.099583 0.006195
-0.134222 -0.034721 0.093752
-0.336167 0.098997 -0.013732
-0.390260 0.099953 0.001859
-0.143756 -0.087849 -0.047090
-0.403724 -0.049152 -0.086673
0.082144 0.099937 0.002368
0.356200 0.024762 0.096976
0.172582 0.094928 -0.031208
-0.196756 -0.073854 0.067250
-0.216917 0.099727 0.007311
0.293468 -0.060732 0.079337
-0.006090 0.008499 0.099673
-0.177785 -0.069462 0.071796
-0.118141 -0.099327 0.009080
0.375592 -0.089952 0.043327
0.401676 -0.019979 -0.097630
0.260445 0.072278 -0.068851
0.241516 -0.098759 -0.013760
-0.409828 0.081865 -0.057154
0.031747 0.082120 -0.056778
-0.355262 -0.044717 -0.089027
0.323075 -0.069446 -0.071450
0.266599 0.027514 0.096189
-0.438833 -0.095475 -0.028650
0.124130 -0.082048 -0.056540
-0.251498 -0.099570 -0.006145
-0.275446 0.096239 0.027186
0.318710 0.059125 0.080764
-0.129517 0.099784 -0.006346
0.014502 -0.096666 0.024876
0.422474 -0.095969 0.027311
-0.074508 0.099897 -0.003248
-0.279414 -0.076360 0.064407
0.464602 -0.050997 -0.085582
0.000350 0.094058 -0.033626
-0.397088 -0.097417 -0.021157
-0.263944 0.083814 0.054648
0.166398 0.075112 0.066087
0.129876 0.046090 0.088809
0.362566 -0.079754 -0.059744
0.429642 0.096954 0.024634
0.378735 0.099908 0.003269
-0.236843 0.098843 0.015066
-0.074135 -0.073662 -0.067105
-0.260477 -0.061360 -0.078487
-0.209819 -0.044745 0.089375
-0.102430 0.075026 -0.065822
-0.232056 0.075177 0.066014
-0.270195 -0.047050 -0.087838
0.419309 0.056676 -0.082094
0.016318 -0.034768 0.093735
-0.082994 -0.045845 0.088815
0.050862 -0.099532 -0.006549
-0.444114 -0.092866 -0.036289
-0.398193 -0.024277 0.097032
-0.429129 0.024810 0.096965
-0.231512 0.030882 -0.094848
0.043993 0.003500 0.099964
0.179311 0.025101 0.096890
0.281204 0.055269 0.083413
0.070920 0.084939 -0.052523
0.024620 -0.062298 0.078122
0.348731 -0.027169 0.096222
-0.080802 -0.092522 0.037497
0.119222 0.081880 0.057493
-0.111378 -0.043973 -0.089406
-0.241565 0.061562 -0.078511
-0.150585 0.054761 -0.083395
-0.361903 -0.057813 -0.081162
-0.022332 0.099958 0.001684
0.108001 -0.064245 0.076538
-0.273443 0.090385 -0.042572
0.121268 -0.055138 0.083343
0.225232 0.034185 -0.093666
0.211030 -0.049838 -0.086268
0.003600 0.099002 0.014064
-0.334822 0.083587 0.054982
-0.349488 0.059167 -0.080369
0.327566 -0.064065 0.076697
-0.265960 -0.075961 0.064859
-0.458313 0.046923 -0.088022
0.350544 0.024916 -0.096578
-0.130874 -0.040882 0.091226
0.021161 -0.081484 -0.057371
-0.121142 -0.070858 -0.070038
0.191183 -0.086786 0.049369
-0.068967 -0.021627 -0.097261
0.078888 0.041152 -0.090848
0.190823 -0.099693 -0.002335
-0.388523 -0.099265 -0.009363
-0.000585 0.050964 0.086103
0.437939 -0.017765 0.098433
0.161008 0.047337 -0.087811
0.268417 -0.093491 0.034915
0.016594 0.099999 0.000369
-0.269752 -0.062135 0.078248
0.094525 0.099552 -0.008797
-0.399219 0.042860 0.090455
0.022770 0.091083 0.041361
-0.317210 0.096076 -0.027384
-0.321919 -0.030993 0.095094
-0.058535 0.018464 -0.097997
0.115225 0.058632 0.081127
0.201554 0.015505 -0.098465
0.422708 -0.044626 -0.089073
-0.396906 0.061116 0.079219
0.410590 0.031163 0.095117
0.127453 -0.031316 -0.094615
-0.085599 0.029199 -0.095337
0.255832 -0.096355 -0.025620
-0.246222 -0.089799 0.043627
0.119452 0.098729 -0.015422
-0.176558 -0.021175 0.097725
-0.047672 -0.038876 -0.091731
0.029851 -0.058810 0.080827
-0.139345 -0.094246 0.032817
0.159420 -0.095560 -0.028355
0.283055 0.069702 0.071790
-0.084251 -0.005452 -0.099532
-0.204462 0.098712 -0.015528
0.192153 -0.008524 -0.099286
0.066726 -0.076334 -0.064074
-0.077999 -0.095017 0.030586
-0.085513 0.093463 -0.035279
-0.435907 0.048501 0.087559
0.274994 0.025786 -0.096329
0.382198 0.036084 -0.092982
-0.080019 -0.096867 0.023979
0.234177 0.033983 -0.093739
0.159725 -0.031887 -0.094409
-0.061179 -0.098492 -0.015449
0.427217 0.095467 0.029841
-0.209188 0.082765 0.056192
-0.174900 -0.078303 -0.061615
0.085057 -0.061279 -0.078549
0.428349 0.074683 0.066574
0.437600 -0.099587 0.006067
0.179253 0.096263 -0.026738
-0.285087 -0.003477 -0.099594
-0.045518 0.078872 -0.061182
-0.325293 0.087443 0.048653
0.143114 -0.095410 -0.028871
0.294280 -0.091913 0.038905
0.131577 -0.095529 -0.028463
-0.116699 0.098869 0.014905
0.046072 0.086540 0.050180
0.190268 -0.099615 0.005186
0.124989 0.010769 0.099459
0.000872 -0.099246 -0.009567
-0.165223 0.001415 -0.099666
0.271320 -0.089836 -0.043191
0.039631 0.090964 -0.041274
-0.364631 0.076280 -0.064400
0.185737 0.098692 0.016019
0.061683 -0.058738 -0.080520
0.401826 -0.061274 0.078916
-0.259940 -0.092074 0.038531
0.453360 0.090864 0.041867
-0.083699 -0.095874 -0.027276
-0.204564 0.013470 0.099150
-0.287018 0.049288 0.087094
-0.242769 -0.024800 -0.096547
-0.403872 -0.055253 -0.082902
-0.152394 0.044139 0.089803
0.437970 0.027454 0.096207
0.365013 -0.083956 0.054096
-0.153961 -0.036041 -0.092914
-0.051839 -0.081888 -0.056777
-0.443938 0.097871 -0.020168
0.038063 -0.081140 -0.057876
0.424898 -0.093789 -0.033725
-0.456372 -0.097422 0.021496
-0.048491 -0.006954 0.099797
0.447143 -0.096708 0.024690
-0.344061 -0.096350 -0.025637
-0.062027 -0.096613 0.025093
-0.121058 -0.064002 -0.076390
-0.124873 -0.074483 0.066536
-0.440673 -0.056775 -0.081868
0.132756 0.040935 0.091304
0.436581 -0.065282 -0.075261
0.255821 -0.098737 0.014262
0.338228 -0.025505 -0.096342
0.347328 0.083541 -0.054687
-0.080813 -0.027363 -0.095802
-0.010073 -0.059549 -0.079891
0.437076 0.092639 0.037765
-0.387902 0.051940 0.085525
0.314286 -0.019767 0.098040
-0.256858 0.059618 0.080381
-0.062710 -0.071059 0.070200
-0.308658 0.068745 -0.072384
-0.188635 0.036497 0.093196
-0.218467 0.015289 -0.098499
0.144770 -0.070732 0.070527
-0.113303 -0.055675 -0.082615
0.056871 -0.048267 -0.087197
-0.273873 -0.025390 -0.096376
-0.411340 0.093389 -0.035484
-0.416439 0.021230 -0.097402
-0.067903 -0.095981 0.027269
-0.448552 -0.084836 -0.052303
0.433966 0.085444 0.052032
0.379005 0.029265 -0.095318
0.014919 0.082403 0.056724
0.243160 0.035915 0.093406
0.215134 0.085026 0.052740
0.074923 0.088005 -0.047242
-0.388459 -0.098014 0.018827
0.442097 0.011973 -0.098982
-0.006814 0.037989 0.092579
-0.095355 -0.006831 0.099809
0.156296 0.054146 0.084176
-0.058006 0.052733 0.085056
0.040515 0.008997 -0.099264
-0.142578 0.001182 0.100036
-0.417315 0.100005 0.000158
0.070670 0.096499 0.026291
0.230777 0.098296 0.018523
0.126777 -0.095886 0.027597
-0.217415 -0.023369 -0.096872
0.025049 0.052540 0.085171
0.427964 -0.041121 0.091123
0.117148 0.048611 -0.087131
-0.318701 0.088842 0.045963
0.205167 0.098573 -0.016407
0.212031 -0.059099 -0.080240
-0.171738 -0.098820 0.013738
-0.016090 0.064373 0.076632
0.070928 -0.099130 0.011158
-0.345005 0.046075 0.088817
0.034125 -0.084332 0.053518
-0.249018 0.084889 0.052972
0.100480 0.054788 -0.083377
-0.092604 0.099155 -0.012735
0.453331 -0.021126 0.097736
-0.002818 0.088156 -0.046948
0.180741 0.098190 -0.018741
0.201976 0.095162 -0.030529
-0.295751 0.052405 -0.084888
0.001167 -0.026446 -0.096069
-0.311112 -0.087278 -0.048174
0.032861 -0.033896 -0.093686
-0.314403 0.082289 -0.056529
0.253269 0.099477 -0.009590
0.110150 -0.010446 -0.099104
0.434581 -0.062756 0.077766
0.367259 -0.052863 0.084841
0.024436 0.040996 -0.090915
-0.144384 0.006963 0.099819
0.262324 0.071389 0.070104
-0.240684 0.084688 0.053311
-0.341710 -0.032897 0.094408
-0.336004 0.092395 0.038330
-0.175347 0.064264 0.076728
-0.175496 -0.083726 0.054434
0.223121 0.083424 -0.054860
-0.344397 -0.092491 -0.037207
-0.116083 0.041452 -0.090718
-0.120092 0.008428 0.099680
-0.203349 0.077106 -0.063460
0.087842 -0.074800 -0.065814
0.305423 0.042751 0.090511
-0.211029 -0.088974 -0.044883
0.008860 0.098765 -0.015198
-0.272098 0.061678 -0.078421
-0.185535 -0.096757 -0.024107
0.457068 0.099772 -0.006472
0.448163 -0.015500 -0.098429
0.378167 -0.082079 0.056858
-0.297317 0.097438 0.022467
0.374016 0.091356 0.040732
-0.298227 0.071884 -0.069246
-0.204880 -0.099137 -0.010724
-0.332820 0.099809 0.006432
-0.387275 -0.051182 -0.085473
-0.103786 -0.077053 0.063589
-0.405852 -0.017960 -0.098039
0.007937 -0.007895 -0.099346
-0.253793 -0.074638 0.066360
0.110071 0.091165 -0.040810
-0.042696 -0.024313 0.097024
0.385718 0.016584 -0.098294
0.448501 0.024452 0.097045
-0.066535 -0.075094 0.065843
0.454244 0.072412 -0.068718
0.037803 -0.002460 -0.099626
-0.076286 -0.023725 -0.096792
0.270719 -0.097735 -0.019735
0.161899 0.062188 -0.078025
0.137424 0.052067 -0.085087
-0.458993 0.064202 0.076782
0.331325 -0.092847 -0.036342
0.118541 0.099626 0.008382
0.274136 0.099978 -0.000696
0.404892 0.099541 -0.008919
-0.184867 -0.016827 0.098582
-0.363259 0.061485 0.078933
-0.296791 -0.081922 -0.056726
0.318864 0.086220 -0.050358
0.201736 0.099306 0.011769
0.315002 0.039171 0.092068
-0.339999 -0.068125 0.073117
0.267889 0.086275 0.050628
0.400626 0.092714 -0.037230
0.141965 0.099817 -0.005805
0.096093 -0.072826 0.068416
-0.341987 0.096932 -0.024370
0.144352 -0.082256 0.056598
0.006331 -0.065329 0.075583
0.085633 0.026189 -0.096211
-0.362220 0.006526 -0.099497
0.100597 -0.071835 -0.069061
-0.359351 0.053830 -0.084028
0.225608 0.017902 -0.098085
0.340949 -0.098146 -0.017631
-0.412988 0.054218 0.084127
0.041698 -0.078066 -0.061920
0.317692 -0.006620 0.099829
0.451190 0.004577 -0.099567
0.033783 -0.040681 -0.090950
-0.308288 0.003220 0.099972
0.376971 -0.015739 -0.098391
-0.244053 0.082463 -0.056274
0.185510 -0.019284 -0.097785
-0.196425 -0.099526 0.006966
-0.438238 0.054112 0.084199
-0.263312 0.078906 -0.061139
0.225214 -0.097707 0.020219
0.266384 0.057523 -0.081519
-0.001965 0.025154 -0.096512
-0.305707 -0.046354 0.088555
-0.159614 0.011206 -0.099055
-0.046440 0.010007 -0.099168
0.036802 -0.099640 -0.004002
-0.421962 0.010202 -0.099150
0.003597 -0.013463 -0.098752
-0.366752 -0.090194 -0.042489
0.123771 0.099883 -0.003710
0.310647 0.003392 -0.099604
0.321960 -0.049294 -0.086589
0.428538 -0.051396 0.085709
0.186421 -0.097732 0.020107
-0.345554 0.009211 0.099606
0.433288 0.096963 -0.024231
0.405630 -0.033396 -0.093866
-0.298879 -0.044079 0.089715
0.235653 0.084631 -0.053044
0.397214 -0.074227 0.066826
-0.336175 0.087423 -0.048323
0.374970 -0.038634 -0.091836
0.449107 0.094061 0.033981
-0.266126 0.093028 -0.036486
0.051275 -0.062188 0.078207
0.310896 -0.099640 -0.004022
0.177580 0.079351 -0.060565
-0.228154 -0.092580 -0.037000
0.173437 -0.056698 -0.081920
-0.255853 0.075474 0.065677
0.176396 0.042962 0.090403
-0.417399 0.098220 -0.018609
-0.374674 -0.092336 0.037926
-0.382201 -0.065079 -0.075441
-0.016988 -0.075141 -0.065427
-0.213477 -0.003383 -0.099597
-0.204469 0.097318 -0.022645
-0.278390 -0.078722 -0.061075
0.109933 -0.045168 -0.088797
-0.412474 -0.096136 -0.026373
-0.050133 -0.080454 0.059205
-0.211404 0.078682 -0.061427
-0.064273 -0.001434 -0.099658
-0.363082 -0.033495 -0.093830
-0.294104 0.043465 0.090146
0.143877 0.021145 -0.097421
0.331996 -0.077675 -0.062425
-0.030022 0.042043 -0.090462
-0.297888 0.065452 -0.075317
0.095309 0.083634 0.054913
0.256203 0.099361 0.011181
-0.376475 -0.023384 -0.096869
0.198778 -0.082993 -0.055150
0.301663 0.054262 -0.083734
0.111351 -0.067239 -0.073536
-0.353195 0.098403 -0.017479
0.389257 -0.072619 -0.068277
0.240101 -0.055299 -0.082871
-0.145554 -0.099296 0.009404
0.413411 0.081642 0.057844
-0.201053 0.099786 0.006684
0.198669 -0.010084 0.099502
-0.032984 -0.092336 -0.037563
0.323863 -0.019555 -0.097725
-0.327839 -0.092000 -0.038340
0.135410 -0.098859 0.013491
-0.378042 -0.088957 -0.044917
-0.338852 0.088742 0.046159
-0.120103 -0.032814 0.094438
-0.403849 0.098110 -0.019099
-0.207165 0.092682 0.037667
0.277306 -0.084241 -0.053309
0.385233 0.088332 0.046964
0.316097 -0.092441 -0.037320
-0.091713 0.083840 -0.054247
0.244586 0.052190 -0.085014
0.340605 0.099900 0.003519
-0.005744 0.062868 -0.077498
0.161844 0.036374 -0.092878
0.021729 0.010534 0.099481
0.225714 -0.086338 -0.049764
0.353841 0.051880 0.085561
0.051776 -0.076976 -0.063326
-0.089639 -0.096156 0.026668
0.454110 0.098250 -0.018445
0.002593 0.062134 0.078430
0.112188 0.072417 0.069075
-0.340089 -0.007378 0.099757
-0.251657 -0.053427 -0.084143
0.075877 -0.003940 -0.099580
-0.333679 0.005390 0.099904
0.098220 0.036799 -0.092725
0.429550 0.017530 -0.098144
0.288899 0.023614 -0.096869
0.030545 -0.085107 -0.051846
0.423213 0.063160 -0.077272
-0.245353 0.098631 0.016402
-0.405092 0.075276 -0.065539
-0.066456 0.038157 0.092506
-0.451171 -0.090449 0.042286
-0.276259 0.080257 -0.059397
0.169105 0.099995 -0.000152
-0.305512 -0.028327 -0.095523
0.423906 -0.079616 0.060285
-0.222719 -0.070541 0.070718
-0.240467 -0.099187 0.010560
-0.200538 -0.007559 -0.099377
0.464748 0.074387 -0.066547
-0.386161 -0.099661 -0.003345
-0.178832 -0.082592 -0.055740
0.126443 0.073977 0.067375
-0.231435 -0.014061 0.099020
-0.242582 -0.016433 0.098644
-0.348769 -0.018717 -0.097912
0.090284 -0.027875 0.096016
-0.325511 -0.097363 0.021761
-0.257441 0.010506 0.099484
-0.373040 -0.087451 -0.047872
-0.290932 0.007431 0.099774
0.418347 -0.014281 0.098985
0.130373 -0.000806 -0.099678
-0.464228 -0.059932 0.079957
-0.232342 -0.088716 0.045751
-0.231742 -0.094537 0.032009
0.452507 -0.061326 -0.078513
0.160809 -0.064042 -0.076355
-0.103652 -0.029319 -0.095234
0.429406 0.080069 0.060002
0.060427 0.091814 -0.039310
-0.011310 -0.099703 0.002370
0.077054 -0.030326 -0.094942
-0.313518 0.054647 -0.083473
0.391548 0.085637 0.051706
-0.431375 0.062927 -0.077452
0.050170 0.088340 -0.046586
0.331392 -0.057632 0.081648
0.043870 0.021328 -0.097381
0.083293 -0.099772 0.000177
-0.111027 -0.054041 0.084089
0.008540 -0.060051 0.079865
-0.347474 0.001558 0.100025
0.051948 0.026183 -0.096213
-0.205460 -0.094294 -0.032321
0.380622 0.010476 -0.099124
-0.214413 -0.060281 -0.079323
-0.203683 -0.079229 -0.060421
0.010957 -0.019957 -0.097635
0.219191 0.064737 0.076311
0.370603 -0.073752 -0.067003
-0.396394 -0.072878 -0.067994
-0.436441 0.064964 0.076110
0.453145 0.034094 -0.093698
-0.322472 -0.084330 0.053521
0.171731 -0.099081 0.011682
-0.284084 -0.097787 0.019863
-0.347702 0.003705 -0.099594
-0.041167 0.039112 -0.091730
-0.403882 0.088383 -0.046502
-0.354182 0.098821 0.015205
0.195387 0.028145 -0.095643
-0.213533 -0.015695 -0.098398
0.375122 -0.098860 0.013486
0.197799 0.096077 0.027743
-0.144065 0.023280 0.097307
0.278092 -0.076671 0.064055
0.336623 0.089907 0.043873
0.362787 -0.093328 0.035369
-0.352653 -0.025743 -0.096273
-0.413396 -0.050448 0.086270
-0.313377 0.014988 0.098910
0.346761 -0.027610 -0.095731
-0.017316 0.042464 0.090642
0.188263 -0.099353 -0.008440
0.033138 0.010701 -0.099102
-0.297902 -0.014861 0.098893
-0.125718 -0.066004 0.074988
0.276637 0.060196 0.079933
-0.326695 -0.072713 0.068543
0.015868 0.093324 -0.035664
-0.136286 -0.050427 -0.085919
-0.244184 -0.088529 -0.045757
-0.298812 0.079823 -0.059956
0.434064 -0.097670 0.020387
-0.142809 -0.098978 -0.012376
0.297825 0.016564 -0.098297
-0.086747 -0.093581 -0.034302
0.360630 0.090900 -0.041422
0.253763 0.007936 0.099727
0.304381 -0.054018 0.084104
0.369992 0.004274 -0.099577
0.375102 0.081306 -0.057976
0.371450 -0.084305 0.053564
-0.401988 0.098381 0.017982
0.331421 0.096835 0.025134
0.079361 -0.085272 -0.051567
-0.411370 -0.094245 -0.032459
0.223738 0.090659 0.042341
0.047822 -0.043657 0.089930
-0.264987 -0.068064 -0.072809
0.120031 -0.018937 -0.097863
0.358716 0.099195 0.012841
-0.112875 -0.083557 0.054684
-0.307420 0.077145 -0.063409
0.025069 -0.098406 -0.015986
0.210229 -0.077882 -0.062159
-0.382608 -0.042243 0.090637
-0.380684 0.060034 -0.079696
-0.107031 0.093751 0.034842
-0.284038 0.001107 0.100039
-0.399460 0.079245 0.061064
-0.354655 -0.030421 0.095277
-0.288339 0.021852 -0.097263
0.043279 0.066366 0.074874
0.433701 -0.094748 -0.031062
0.372080 0.098842 -0.014707
-0.309545 -0.064230 -0.076189
0.439005 0.098426 0.017700
0.439407 0.056925 0.082287
0.325126 -0.087417 -0.047939
0.197590 0.090514 -0.042314
0.215504 0.090270 0.043160
0.207633 0.023851 0.097179
-0.429112 0.057221 -0.081724
0.106976 -0.090231 -0.042416
-0.258065 -0.004500 0.099925
0.010058 0.075543 0.065599
-0.446367 0.081032 0.058741
0.366008 -0.075851 0.064985
0.435616 -0.096322 -0.025731
-0.328873 -0.000731 0.100043
0.088222 -0.051950 -0.085019
0.446186 0.085941 -0.050829
0.273574 -0.058346 -0.080800
0.124543 -0.054174 -0.083635
-0.185519 -0.091742 -0.038937
0.192301 -0.090665 0.041789
-0.191513 0.081250 0.058421
-0.122939 -0.099639 -0.004059
-0.226162 0.079443 0.060809
-0.375887 -0.099728 0.001592
-0.039718 0.007784 0.099741
0.174052 0.099872 -0.004054
-0.392918 -0.092895 -0.036207
-0.428931 0.098176 0.019168
0.381741 0.058006 -0.081190
-0.380313 0.066355 -0.074521
0.248562 -0.090444 0.042298
-0.367708 -0.004098 -0.099575
0.352586 0.019169 0.098226
