0.465339 -0.033642 -0.084245
0.465339 -0.063908 -0.003617
0.465339 0.062855 -0.016516
0.465339 0.046919 -0.049392
0.465339 -0.053098 0.073552
0.465339 -0.043086 -0.080228
0.465339 -0.031644 0.004873
0.465339 -0.007982 -0.049520
0.465339 -0.003970 -0.099100
0.465339 0.016777 0.027026
0.465339 -0.008366 -0.078925
0.465339 -0.097783 -0.019319
0.465339 0.018921 -0.017612
0.465339 -0.014456 -0.071682
0.465339 0.001885 0.053370
0.465339 -0.004849 -0.051218
0.465339 -0.095989 0.025249
0.465339 0.044733 -0.009216
0.465339 -0.072137 0.055846
0.465339 -0.062380 -0.052761
0.465339 0.086190 -0.035935
0.465339 -0.036477 0.011627
0.465339 0.064459 -0.024305
0.465339 0.096242 0.006605
0.465339 -0.018406 0.054659
0.465339 0.062986 0.027138
0.465339 0.092596 0.006577
0.465339 -0.027980 0.022944
0.465339 0.011704 -0.029330
0.465339 -0.024305 -0.022556
0.465339 -0.079274 0.047823
0.465339 -0.032396 -0.032326
0.465339 -0.002977 0.039705
0.465339 0.061625 -0.031063
0.465339 0.040223 0.007542
0.465339 -0.026045 0.036809
0.465339 -0.001467 0.024818
0.465339 0.064799 0.063616
0.465339 -0.056829 -0.067069
0.465339 -0.016960 0.072833
0.465339 -0.078259 0.004074
0.465339 -0.059700 -0.052023
0.465339 -0.089116 0.044885
0.465339 0.082300 0.039621
0.465339 0.010757 0.037323
0.465339 0.075916 0.029992
0.465339 -0.026184 0.039624
0.465339 -0.012931 0.047640
0.465339 -0.031450 -0.010156
0.465339 0.058367 0.064441
0.465339 -0.010101 -0.026411
0.465339 -0.011166 -0.016890
0.465339 0.031572 0.001424
0.465339 0.040209 0.090948
0.465339 -0.026896 0.026138
0.465339 -0.021834 0.005055
0.465339 0.079147 -0.057550
0.465339 0.018450 -0.069054
0.465339 -0.007876 0.099668
0.465339 -0.025055 -0.016457
0.465339 0.040810 0.058257
0.465339 -0.037416 0.000239
0.465339 -0.083598 0.013286
0.465339 -0.061835 -0.049823
0.465339 -0.007744 0.042611
0.465339 0.032965 0.062678
0.465339 -0.031038 -0.093151
0.465339 -0.015843 -0.083659
0.465339 0.063153 -0.058825
0.465339 -0.066654 -0.011705
0.465339 -0.080098 0.035334
0.465339 -0.072195 -0.014223
0.465339 -0.001110 -0.057643
0.465339 0.076901 -0.053614
0.465339 0.025708 0.010190
0.465339 0.036645 -0.072330
0.465339 0.078016 -0.014557
0.465339 0.051282 -0.010264
0.465339 0.062111 -0.032607
0.465339 0.054406 0.054321
0.465339 0.016832 -0.021010
0.465339 0.045127 0.001681
0.465339 -0.042123 0.082859
0.465339 -0.005072 0.045559
0.465339 0.014964 0.035692
0.465339 -0.019222 0.030795
0.465339 -0.021409 0.085470
0.465339 0.084505 -0.038590
0.465339 0.055919 -0.018133
0.465339 0.007607 0.007133
0.465339 0.044199 -0.027650
0.465339 0.055204 0.002909
0.465339 0.067787 -0.046564
0.465339 0.024165 -0.002793
0.465339 -0.080526 0.040086
0.465339 -0.022951 0.060040
0.465339 0.059065 -0.000759
0.465339 -0.021427 -0.060283
0.465339 -0.008221 -0.022309
0.465339 -0.005907 0.099593
0.465339 0.002038 -0.058214
0.465339 -0.005243 -0.095501
0.465339 -0.014675 0.005561
0.465339 -0.055537 -0.045105
0.465339 0.024053 -0.095943
0.465339 0.043599 0.054282
0.465339 -0.050782 -0.035842
0.465339 0.039981 0.056333
0.465339 0.003825 -0.097132
0.465339 -0.006748 0.060626
0.465339 0.065731 -0.034329
0.465339 0.041698 0.032952
0.465339 0.070205 -0.000366
0.465339 0.030437 -0.071129
0.465339 -0.083504 -0.017675
0.465339 -0.088508 -0.025483
0.465339 -0.038102 -0.019416
0.465339 0.004357 -0.088901
0.465339 -0.007875 -0.032255
0.465339 0.059743 -0.042737
0.465339 -0.064420 -0.062901
0.465339 -0.097383 -0.010099
0.465339 -0.045075 0.037324
0.465339 -0.008243 -0.037675
0.465339 -0.042309 0.043050
0.465339 0.072578 -0.053941
0.465339 -0.050731 -0.022809
0.465339 0.015186 -0.074672
0.465339 -0.004827 -0.065278
0.465339 0.018171 -0.095343
0.465339 -0.005759 0.007793
0.465339 0.025904 -0.020272
0.465339 -0.035742 0.000903
0.465339 0.053644 -0.009413
0.465339 0.015824 0.088982
0.465339 0.051510 0.059579
0.465339 -0.051437 -0.028617
0.465339 0.026838 0.028521
0.465339 -0.043440 0.059052
0.465339 0.022657 -0.013405
0.465339 0.032482 -0.092237
0.465339 -0.018489 0.029363
0.465339 -0.016503 -0.053934
0.465339 0.002857 -0.000892
0.465339 0.053746 0.042937
0.465339 -0.048437 0.079741
0.465339 -0.046355 -0.036529
0.465339 0.093313 -0.013218
0.465339 0.083381 0.045238
0.465339 -0.030006 0.001115
0.465339 0.083345 0.046793
0.465339 -0.059131 0.078298
0.465339 -0.000256 0.064535
0.465339 -0.041902 0.015838
0.465339 0.068966 0.005298
0.465339 0.015853 0.098553
0.465339 0.084074 0.040007
0.465339 0.028555 -0.083832
0.465339 0.026683 0.003748
0.465339 -0.051546 0.034681
0.465339 0.033396 -0.016541
0.465339 0.066251 -0.032678
0.465339 0.074948 0.057045
0.465339 -0.016078 0.004027
0.465339 0.004294 0.017850
0.465339 0.020613 0.073038
0.465339 0.051755 0.042602
0.465339 0.070121 -0.070439
0.465339 0.019152 -0.010817
0.465339 0.044665 -0.064881
0.465339 -0.031217 -0.026413
0.465339 0.054067 -0.034690
0.465339 -0.071559 0.030575
0.465339 -0.081404 -0.033578
0.465339 0.009408 0.077516
0.465339 -0.071471 0.009541
0.465339 0.044172 -0.073543
0.465339 0.088537 -0.042756
0.465339 -0.057660 0.036788
0.465339 0.067330 0.025560
0.465339 -0.000318 -0.027489
0.465339 0.023778 -0.064234
0.465339 -0.030516 0.063447
0.465339 -0.020952 -0.082891
0.465339 0.092920 -0.035838
0.465339 0.013545 -0.080977
0.465339 0.011954 0.083171
0.465339 0.060249 0.061838
0.465339 -0.005899 0.028484
0.465339 0.015677 -0.008583
0.465339 -0.013615 0.001534
0.465339 -0.010800 -0.051784
0.465339 -0.028145 0.009206
0.465339 0.036442 -0.026616
0.465339 -0.052653 0.014694
0.465339 -0.020318 -0.034585
0.465339 -0.021235 -0.063195
0.465339 -0.027703 -0.085968
0.465339 0.034531 0.003920
0.465339 0.090252 0.004327
0.465339 -0.065203 0.044223
0.465339 0.009806 -0.047174
0.465339 -0.035691 0.049181
0.465339 -0.013087 -0.051849
0.465339 0.096992 0.024049
0.465339 -0.066005 0.036868
0.465339 0.007418 0.046441
0.465339 0.048264 -0.073603
0.465339 -0.000240 0.081743
0.465339 -0.035878 -0.065654
0.465339 0.045589 -0.060959
0.465339 -0.043000 0.060919
0.465339 -0.025478 0.028906
0.465339 0.053705 -0.050088
0.465339 -0.048855 -0.060725
0.465339 0.030028 -0.051653
0.465339 -0.031851 -0.008365
0.465339 0.032499 0.048024
0.465339 0.000189 -0.006007
0.465339 0.085326 -0.046269
0.465339 0.030747 -0.022043
0.465339 0.024429 0.061088
0.465339 0.056399 -0.043381
0.465339 0.031741 0.061516
0.465339 0.026184 -0.071626
0.465339 0.061810 -0.063517
0.465339 -0.050888 -0.021322
0.465339 0.035842 -0.050295
0.465339 -0.002470 -0.045565
0.465339 0.014631 -0.053256
0.465339 0.023777 0.092528
0.465339 -0.014884 -0.039999
0.465339 0.086498 -0.040462
0.465339 0.028561 -0.012717
0.465339 -0.033015 0.089823
0.465339 -0.062866 0.061509
0.465339 -0.088824 -0.044795
0.465339 -0.015998 -0.074266
0.465339 -0.075882 0.054006
0.465339 0.022581 0.031288
0.465339 -0.047318 0.035679
0.465339 -0.066404 -0.028213
0.465339 -0.040952 0.090605
0.465339 -0.010088 0.010212
0.465339 -0.035000 0.016865
0.465339 0.022069 -0.032160
0.465339 -0.008058 -0.094713
0.465339 -0.001579 0.001203
0.465339 0.059545 -0.065574
0.465339 -0.082548 -0.040144
0.465339 -0.018734 -0.074899
0.465339 0.008795 -0.024109
0.465339 -0.037510 -0.047677
0.465339 -0.005716 -0.080614
0.465339 -0.071683 0.005793
0.465339 -0.067139 0.026518
0.465339 0.047012 -0.037710
0.465339 -0.051621 -0.046556
0.465339 0.049237 0.038556
0.465339 0.019960 -0.043020
0.465339 0.090747 0.029948
0.465339 -0.068038 0.063294
0.465339 0.063163 0.056297
0.465339 0.089558 0.032205
0.465339 -0.009703 0.004371
0.465339 -0.035872 0.022940
0.465339 0.093956 0.009261
0.465339 0.049644 -0.077055
0.465339 -0.041787 -0.018271
0.465339 -0.019615 -0.029936
0.465339 -0.055858 -0.033372
0.465339 0.005391 -0.021162
0.465339 -0.005787 -0.059190
0.465339 -0.030170 0.080250
0.465339 0.053269 0.034875
0.465339 -0.081882 0.008846
0.465339 0.038544 -0.061719
0.465339 0.036176 0.005129
0.465339 -0.032081 0.030920
0.465339 0.077362 -0.062745
0.465339 -0.085292 0.036578
0.465339 -0.038294 0.020322
0.465339 -0.014265 -0.033768
0.465339 -0.036407 0.065625
0.465339 -0.039051 -0.006789
0.465339 0.033562 0.079742
0.465339 -0.072146 0.048488
0.465339 -0.006691 -0.061554
0.465339 0.010986 -0.083973
0.465339 -0.009245 -0.000227
0.465339 -0.048328 0.071525
0.465339 -0.063923 -0.036090
0.465339 -0.041330 -0.024361
0.465339 -0.058271 -0.002281
0.465339 -0.065769 -0.036400
0.465339 -0.029977 0.029773
0.465339 -0.064027 -0.065555
0.465339 -0.009730 0.036387
0.465339 0.039115 0.029722
0.465339 -0.018477 0.053070
0.465339 -0.020156 0.054040
0.465339 -0.021410 0.076425
0.465339 -0.047304 -0.078318
0.465339 0.088474 -0.023875
0.465339 0.065933 0.000353
0.465339 0.030779 -0.027294
0.465339 -0.065441 0.064674
0.465339 -0.017752 -0.058257
0.465339 -0.001060 0.077280
0.465339 0.051888 0.078899
0.465339 -0.035005 -0.059787
0.465339 0.021906 0.034742
0.465339 -0.084111 0.039482
0.465339 -0.000466 -0.066754
0.465339 0.005038 0.014170
0.465339 -0.058191 -0.013200
0.465339 -0.000320 0.029482
0.465339 -0.014359 0.035282
0.465339 -0.057411 0.045088
0.465339 0.048307 0.066372
0.465339 0.038810 0.021312
0.465339 0.030465 -0.031581
0.465339 0.004202 0.031561
0.465339 0.006182 0.036066
0.465339 -0.024290 0.037074
0.465339 -0.071718 -0.043493
0.465339 0.080351 -0.016804
0.465339 -0.077893 -0.056991
0.465339 -0.089599 0.029569
0.465339 -0.073686 -0.010319
0.465339 0.054790 0.049279
0.465339 0.055372 0.036851
0.465339 -0.074522 -0.033434
0.465339 -0.029102 -0.070256
0.465339 -0.032957 0.028781
0.465339 -0.015326 0.034053
0.465339 0.025400 -0.039970
0.465339 -0.021179 0.012478
0.465339 -0.068400 0.028192
0.465339 0.055009 0.041216
0.465339 -0.057979 0.022103
0.465339 0.060619 0.051149
0.465339 0.068232 0.042421
0.465339 0.008029 0.062946
0.465339 0.067279 -0.021640
0.465339 -0.033216 0.082931
0.465339 -0.002112 0.010649
0.465339 0.092328 -0.032188
0.465339 0.084725 -0.031017
0.465339 -0.004507 -0.092834
0.465339 0.069765 0.031577
0.465339 0.051000 -0.059730
0.465339 0.043236 -0.064802
0.465339 0.020470 0.055673
0.465339 -0.010402 0.033894
0.465339 0.064679 -0.026401
0.465339 0.034101 -0.005640
0.465339 0.063923 0.046855
0.465339 -0.058076 0.003782
0.465339 0.030368 0.037060
0.465339 0.032749 0.078157
0.465339 0.057292 0.065316
0.465339 0.072204 0.015970
0.465339 0.059739 -0.019247
0.465339 -0.049653 -0.001980
0.465339 0.030458 -0.040708
0.465339 0.071949 0.029252
0.465339 0.006498 -0.081308
0.465339 -0.064434 -0.059153
0.465339 -0.028886 0.028274
0.465339 -0.004161 -0.083506
0.465339 0.035951 -0.030434
0.465339 -0.025585 0.003523
0.465339 0.063202 -0.050040
0.465339 0.034401 0.006819
0.465339 -0.056386 -0.077016
0.465339 -0.043834 0.062671
0.465339 -0.023669 -0.001475
0.465339 0.004981 -0.081836
0.465339 -0.021021 0.021224
0.465339 0.080887 -0.040813
0.465339 -0.003683 0.022885
0.465339 0.057315 0.066779
0.465339 0.021881 0.083780
0.465339 -0.012403 -0.077757
0.465339 -0.066482 0.003404
0.465339 0.005915 0.000816
0.465339 0.005680 0.060366
0.465339 -0.013458 -0.085910
0.465339 0.085487 0.019676
0.465339 0.022578 -0.078243
0.465339 -0.017354 0.035737
0.465339 0.015518 -0.029821
0.465339 0.012533 0.014842
0.465339 -0.037656 -0.039919
0.465339 0.029586 -0.091028
0.465339 0.049369 0.014233
0.465339 0.077414 -0.003436
0.465339 -0.001568 0.018108
0.465339 -0.023621 0.072056
0.465339 0.032211 0.064438
0.465339 -0.052101 -0.075680
0.465339 -0.035329 -0.062431
0.465339 -0.075397 -0.003666
0.465339 -0.017055 -0.073257
0.465339 0.061292 -0.035739
0.465339 0.009932 0.007929
0.465339 -0.006743 -0.068630
0.465339 -0.037462 0.046549
0.465339 -0.038073 0.009319
0.465339 0.001430 0.064875
0.465339 0.026121 0.034843
0.465339 -0.061484 0.026703
0.465339 0.014834 0.012402
0.465339 0.010239 0.002806
0.465339 0.014573 0.004943
0.465339 0.042571 -0.040441
0.465339 -0.064596 0.027265
0.465339 0.030929 0.067546
0.465339 0.080547 0.014054
0.465339 0.035439 0.022736
0.465339 -0.044423 -0.030413
0.465339 0.017194 0.030539
0.465339 -0.000343 0.054722
0.465339 -0.086299 -0.002541
0.465339 0.006865 -0.090569
0.465339 0.012517 0.073676
0.465339 0.060762 0.064402
0.465339 -0.045049 -0.015015
0.465339 -0.093478 -0.012084
0.465339 -0.083709 0.050007
0.465339 0.021110 -0.075612
0.465339 -0.014181 -0.059784
0.465339 -0.023438 -0.093016
0.465339 -0.039017 0.089574
0.465339 0.010492 -0.070845
0.465339 -0.042347 -0.042423
0.465339 0.054066 0.017138
0.465339 0.067272 -0.003656
0.465339 -0.022558 -0.091727
0.465339 -0.024789 0.050240
0.465339 -0.028192 0.081252
0.465339 -0.071156 -0.031005
0.465339 -0.093913 -0.006363
0.465339 -0.058100 -0.036555
0.465339 -0.025341 -0.081958
0.465339 -0.015839 0.089141
0.465339 -0.035971 0.089608
0.465339 -0.069453 -0.029037
0.465339 0.033220 -0.007038
0.465339 -0.012329 -0.023466
0.465339 0.005487 -0.038935
0.465339 -0.003412 -0.012426
0.465339 0.063259 -0.014288
0.465339 0.016708 0.094607
0.465339 -0.045231 -0.021746
0.465339 -0.040354 -0.003116
0.465339 -0.051275 0.031551
0.465339 0.026713 -0.080530
0.465339 0.089004 -0.029401
0.465339 0.029577 0.013129
0.465339 -0.019246 0.059099
0.465339 0.036526 0.044625
0.465339 -0.002892 0.019327
0.465339 -0.096556 -0.022646
0.465339 -0.086078 -0.026694
0.465339 -0.060128 -0.077596
0.465339 0.046123 0.022591
0.465339 -0.009195 -0.065148
0.465339 0.045031 0.019373
0.465339 0.071736 -0.016312
0.465339 0.031826 -0.006028
0.465339 -0.060281 -0.059707
0.465339 0.033054 0.069045
0.465339 0.004433 -0.025955
0.465339 0.059838 0.043879
0.465339 0.003727 -0.049030
0.465339 -0.091485 0.001337
0.465339 -0.093679 -0.028017
0.465339 0.039258 0.062421
0.465339 0.073720 0.011660
0.465339 0.040017 0.023302
0.465339 0.044500 0.023163
0.465339 -0.036984 -0.091673
0.465339 0.051847 -0.067945
0.465339 -0.061723 -0.060696
0.465339 0.071641 -0.013885
0.465339 -0.047846 0.037156
0.465339 0.023434 0.064753
0.465339 -0.008934 0.027487
0.465339 -0.059813 -0.032299
0.465339 -0.029785 -0.089730
0.465339 -0.006147 0.044255
0.465339 0.029076 0.021308
0.465339 0.097830 -0.010838
0.465339 -0.004766 0.049259
0.465339 -0.066991 -0.002948
0.465339 -0.004506 0.088235
0.465339 -0.016974 0.033360
0.465339 0.051058 -0.069716
0.465339 -0.017205 0.028291
0.465339 -0.072817 0.023920
0.465339 -0.040715 0.028295
0.465339 -0.019230 -0.082797
0.465339 -0.095736 -0.019217
0.465339 -0.053445 -0.069159
0.465339 -0.045768 0.085161
0.465339 0.006118 0.054753
0.465339 0.065821 -0.018106
0.465339 0.005197 -0.011778
0.465339 0.028433 0.069662
0.465339 0.031493 0.069165
0.465339 -0.015980 0.063571
0.465339 0.039100 -0.040988
0.465339 0.025024 0.036174
0.465339 -0.064204 -0.011683
0.465339 -0.015495 0.066369
0.465339 0.025565 0.095497
0.465339 0.029619 -0.079328
0.465339 0.014925 0.052521
0.465339 -0.011439 0.090169
0.465339 -0.079421 0.054891
0.465339 0.030197 0.002598
0.465339 -0.026121 -0.007993
0.465339 -0.047819 0.045144
0.465339 -0.088148 -0.019456
0.465339 -0.082732 -0.037140
0.465339 -0.049714 0.037600
0.465339 -0.070521 0.013962
0.465339 -0.027414 0.071614
0.465339 -0.054469 -0.042085
0.465339 0.000453 0.041957
0.465339 -0.010563 0.023001
0.465339 -0.090041 -0.038461
0.465339 -0.006198 0.070370
0.465339 -0.040812 0.013582
0.465339 0.024133 0.037345
0.465339 0.081133 0.015594
0.465339 0.057172 0.053106
0.465339 -0.023628 -0.083498
0.465339 0.024632 0.024065
0.465339 0.040931 0.030492
0.465339 0.011608 -0.043854
0.465339 -0.072958 0.029962
0.465339 0.028565 0.041705
0.465339 0.098800 0.001825
0.465339 -0.077461 0.036909
0.465339 -0.009590 0.089324
0.465339 0.063219 0.034539
0.465339 0.073058 0.013845
0.465339 -0.058043 0.002113
0.465339 -0.048434 0.025280
0.465339 0.013764 0.024367
0.465339 0.087072 0.032188
0.465339 0.092703 0.021498
0.465339 0.075961 0.019876
0.465339 -0.061002 -0.015185
0.465339 -0.009866 -0.092730
0.465339 0.042274 -0.007071
0.465339 0.053132 0.002559
0.465339 0.012765 -0.040715
0.465339 0.066519 -0.002456
0.465339 0.006242 0.086665
0.465339 0.065529 0.022242
0.465339 -0.081033 0.056551
0.465339 0.044701 0.041447
0.465339 0.010741 0.049632
0.465339 0.001589 0.089604
0.465339 0.066022 0.068101
0.465339 -0.079035 0.037986
0.465339 -0.012250 0.078432
0.465339 0.021390 0.097281
0.465339 -0.040641 0.024488
0.465339 -0.011836 -0.067283
0.465339 -0.075322 -0.046420
0.465339 0.055799 -0.044764
0.465339 -0.080580 0.019490
0.465339 -0.001659 -0.091891
0.465339 0.067380 -0.069383
0.465339 -0.097256 0.004330
0.465339 0.000554 -0.070828
0.465339 -0.023628 0.039740
0.465339 0.084808 0.004952
0.465339 -0.014239 0.016822
0.465339 -0.027475 0.046889
0.465339 -0.029559 0.076650
0.465339 0.011247 0.044459
0.465339 0.021021 -0.069639
0.465339 -0.064200 0.075997
0.465339 -0.060404 -0.050121
0.465339 0.080454 0.008912
0.465339 -0.035933 0.042785
0.465339 -0.045029 -0.026019
0.465339 0.008453 0.038633
0.465339 -0.033188 0.042027
0.465339 0.058743 0.069961
0.465339 -0.077846 -0.041269
0.465339 0.072952 -0.041754
0.465339 0.068694 0.067492
0.465339 0.007625 -0.046871
0.465339 0.089862 -0.034671
0.465339 0.048490 0.020307
0.465339 0.058631 -0.006191
0.465339 -0.014343 -0.063055
0.465339 -0.071559 -0.021747
0.465339 0.072300 -0.034640
0.465339 -0.019998 -0.028408
0.465339 -0.089893 -0.003533
0.465339 -0.032650 -0.080475
0.465339 -0.028387 -0.017082
0.465339 0.050871 -0.016341
0.465339 0.099496 0.008957
0.465339 -0.024453 -0.011991
0.465339 -0.020142 0.010156
0.465339 0.014804 0.010653
0.465339 0.027185 -0.022316
0.465339 0.007239 -0.002282
0.465339 -0.055146 0.057830
0.465339 -0.021200 -0.024754
0.465339 0.035630 -0.047260
0.465339 -0.037393 -0.037126
0.465339 -0.027055 0.090934
0.465339 -0.051903 0.037420
0.465339 0.095535 0.000313
0.465339 0.056525 0.014697
0.465339 0.066255 -0.016100
0.465339 0.035843 0.077159
0.465339 0.028610 0.003496
0.465339 -0.014420 0.032350
0.465339 -0.028670 0.026006
0.465339 0.033629 0.086508
0.465339 0.063568 0.077053
0.465339 0.046544 -0.087970
0.465339 0.034933 0.041254
0.465339 -0.008479 0.062838
0.465339 0.017396 0.034818
0.465339 0.028911 0.092900
0.465339 -0.068261 -0.001933
0.465339 0.092275 -0.037814
0.465339 -0.068574 0.034357
0.465339 -0.079976 -0.010785
0.465339 0.062500 0.008838
0.465339 -0.065943 0.052329
0.465339 -0.092313 -0.036151
0.465339 -0.061029 0.006731
0.465339 0.001221 -0.084031
0.465339 0.018351 -0.033773
0.465339 -0.027649 -0.007587
0.465339 0.024927 -0.006722
0.465339 -0.015323 -0.076833
0.465339 0.065449 0.047593
0.465339 -0.037554 0.076652
0.465339 -0.023377 0.047460
0.465339 -0.065871 0.033197
0.465339 0.039431 -0.072457
0.465339 -0.033068 0.071182
0.465339 0.039861 -0.059936
0.465339 -0.082302 -0.009381
0.465339 -0.060778 0.042963
0.465339 -0.036095 0.053573
0.465339 0.024293 -0.085018
0.465339 0.030614 0.029182
0.465339 -0.089049 0.015840
0.465339 0.068596 0.044859
0.465339 -0.058305 0.075534
0.465339 -0.084067 -0.016172
0.465339 0.056411 0.069720
0.465339 0.009097 0.071803
0.465339 0.043285 -0.052917
0.465339 0.001438 -0.021569
0.465339 0.077699 0.050541
0.465339 0.016725 -0.033864
0.465339 -0.009779 -0.053525
0.465339 0.096147 -0.011257
0.465339 0.035523 0.024305
0.465339 0.001816 -0.002263
0.465339 0.013225 -0.052275
0.465339 -0.053877 -0.079227
0.465339 -0.012351 0.073740
0.465339 0.016311 0.012039
0.465339 0.064897 -0.036748
0.465339 -0.007778 -0.028785
0.465339 -0.059791 -0.062846
0.465339 -0.042822 -0.087864
0.465339 0.040255 -0.025194
0.465339 -0.073356 0.035935
0.465339 0.069973 0.014227
0.465339 -0.008277 -0.068997
0.465339 0.073411 0.004442
0.465339 0.046857 -0.025708
0.465339 0.014746 -0.024220
0.465339 0.082561 -0.040917
0.465339 -0.003180 -0.033497
0.465339 0.010437 -0.032914
0.465339 -0.074286 0.025017
0.465339 -0.000757 -0.042361
0.465339 0.090035 -0.015148
0.465339 -0.003447 -0.089073
0.465339 0.032531 0.058434
0.465339 -0.016985 0.040899
0.465339 0.070483 0.006098
0.465339 0.045692 -0.069803
0.465339 -0.014078 -0.061397
0.465339 -0.008668 0.020874
0.465339 0.033392 -0.026245
0.465339 -0.003708 0.052566
0.465339 0.029853 0.011448
0.465339 0.027750 0.013712
0.465339 0.006101 0.045308
0.465339 -0.008769 -0.027701
0.465339 -0.077926 0.033180
0.465339 -0.037050 0.056226
0.465339 0.043373 -0.006266
0.465339 0.003103 -0.052398
0.465339 0.066146 -0.025960
0.465339 -0.078224 0.020999
0.465339 0.054961 0.044020
0.465339 -0.085488 0.010939
0.465339 -0.015916 -0.019330
0.465339 0.000179 -0.075365
0.465339 -0.016822 0.050470
0.465339 0.058217 0.045061
0.465339 -0.081106 0.022924
0.465339 0.035223 0.039753
0.465339 -0.060318 0.007911
0.465339 -0.000487 0.060421
0.465339 0.061412 0.002195
0.465339 0.032738 -0.046988
0.465339 -0.030434 -0.020251
0.465339 0.018950 -0.044804
0.465339 0.026112 0.000487
0.465339 -0.000048 0.014838
0.465339 -0.031149 0.089528
0.465339 0.070418 -0.014736
0.465339 -0.054410 -0.047702
0.465339 -0.038416 0.084569
0.465339 0.081219 0.038217
0.465339 0.023516 -0.090963
0.465339 -0.031840 -0.071157
0.465339 -0.001869 0.061179
0.465339 -0.022210 0.029197
0.465339 0.044333 0.049571
0.465339 -0.007149 -0.053046
0.465339 -0.062234 -0.077489
0.465339 0.045808 -0.050380
0.465339 -0.071640 -0.017708
0.465339 0.003717 0.041491
0.465339 -0.055316 0.018889
0.465339 0.075150 0.036887
0.465339 0.057109 -0.074344
0.465339 -0.068390 -0.003465
0.465339 -0.013016 -0.017316
0.465339 -0.022761 -0.011704
0.465339 0.004467 -0.040257
0.465339 0.076476 -0.059208
0.465339 0.001871 0.024841
0.465339 0.073301 0.027892
0.465339 -0.033517 0.033463
0.465339 0.002345 -0.073595
0.465339 0.077621 -0.020584
0.465339 0.024044 0.089345
0.465339 0.036827 0.075193
0.465339 -0.058971 -0.027593
0.465339 0.065628 0.038286
0.465339 -0.018987 -0.066866
0.465339 0.072275 -0.023697
0.465339 -0.032849 -0.087991
0.465339 -0.054626 0.042823
0.465339 0.061540 0.018214
0.465339 0.069390 0.000991
0.465339 0.067078 0.058321
0.465339 0.090304 -0.018128
0.465339 -0.066995 0.029317
0.465339 -0.033105 -0.091614
0.465339 0.033727 -0.059041
0.465339 0.002933 0.028766
0.465339 0.092948 -0.005304
0.465339 -0.045718 0.067764
0.465339 0.039064 -0.069966
0.465339 -0.020265 -0.065575
0.465339 -0.055079 0.077366
0.465339 0.074641 -0.033524
0.465339 0.058708 0.029635
0.465339 -0.013347 0.058901
0.465339 0.020798 0.014627
0.465339 0.021781 -0.033592
0.465339 0.053214 -0.026519
0.465339 0.070284 -0.008411
0.465339 0.022192 -0.019983
0.465339 0.041765 0.010276
0.465339 -0.011260 -0.091802
0.465339 0.032232 -0.079396
0.465339 0.003494 0.094878
0.465339 0.038639 0.078487
0.465339 0.091496 -0.029275
0.465339 0.088743 0.034572
0.465339 -0.057217 -0.059219
0.465339 -0.071620 -0.016090
0.465339 -0.084644 0.016075
0.465339 0.034412 0.090445
0.465339 -0.084636 -0.025271
0.465339 0.015298 0.097280
0.465339 0.002150 -0.024588
0.465339 -0.067768 -0.069925
0.465339 -0.033332 -0.056427
0.465339 -0.021200 -0.039272
0.465339 0.069655 -0.031644
0.465339 0.069806 0.070200
0.465339 -0.023057 0.095190
0.465339 -0.012464 -0.009963
0.465339 -0.051950 -0.008234
0.465339 0.040120 0.086578
0.465339 0.028441 0.043186
0.465339 -0.038491 0.059589
0.465339 -0.088765 -0.013242
0.465339 0.048433 -0.071120
0.465339 -0.039009 -0.017972
0.465339 -0.004195 0.075662
0.465339 -0.043764 0.043493
0.465339 0.023323 0.026476
0.465339 -0.075570 -0.054933
0.465339 0.005645 0.024192
0.465339 -0.033392 -0.024583
0.465339 -0.048904 -0.072390
0.465339 -0.047964 -0.033837
0.465339 0.087533 -0.026914
0.465339 -0.095184 -0.004995
0.465339 0.081974 0.046058
0.465339 0.009156 0.047373
0.465339 0.017637 -0.027456
0.465339 0.072620 -0.020910
0.465339 0.052823 -0.062579
0.465339 0.048647 0.058611
0.465339 -0.070467 -0.066766
0.465339 0.004339 -0.056309
0.465339 0.094784 0.014112
0.465339 -0.061284 0.031704
0.465339 0.046310 0.008462
0.465339 0.088427 0.024009
0.465339 0.033653 0.022758
0.465339 0.048756 0.069503
0.465339 -0.083944 0.048037
0.465339 -0.090381 -0.036464
0.465339 -0.040081 0.066367
0.465339 -0.028072 -0.084138
0.465339 -0.046662 0.011885
0.465339 0.088363 0.017686
0.465339 0.057036 -0.063384
0.465339 0.028640 0.056524
0.465339 -0.009044 -0.041197
0.465339 0.053222 -0.024823
0.465339 -0.071027 -0.069212
0.465339 0.087459 -0.011214
0.465339 -0.014843 0.043196
0.465339 0.079071 0.000061
0.465339 0.013799 -0.068866
0.465339 0.016442 0.036183
0.465339 -0.046789 -0.038898
0.465339 -0.026859 0.084108
0.465339 0.073759 -0.022098
0.465339 0.004118 0.027210
0.465339 -0.026776 -0.047036
0.465339 0.044343 -0.047038
0.465339 -0.074235 0.022800
0.465339 0.073705 -0.002226
0.465339 -0.029593 -0.044889
0.465339 -0.078425 -0.033851
0.465339 -0.041822 0.063497
0.465339 -0.024392 0.070669
0.465339 -0.058187 -0.053992
0.465339 0.030310 0.083851
0.465339 0.012026 0.010841
0.465339 0.074000 0.046392
0.465339 -0.037023 0.048232
0.465339 -0.087736 -0.046173
0.465339 0.010952 0.059714
0.465339 -0.013822 -0.054507
0.465339 0.008355 0.041926
0.465339 -0.089275 -0.026976
0.465339 -0.009351 0.070559
0.465339 0.097934 0.012413
0.465339 0.056370 -0.037994
0.465339 -0.020399 0.051886
0.465339 0.015671 -0.094061
0.465339 0.008000 -0.033552
0.465339 -0.026311 -0.054266
0.465339 0.008524 0.075988
0.465339 -0.001644 -0.082239
0.465339 -0.019495 0.032434
0.465339 -0.016365 -0.066696
0.465339 0.072712 0.021865
0.465339 -0.043731 0.002410
0.465339 -0.017840 -0.005932
0.465339 -0.028889 0.090810
0.465339 -0.028580 -0.026039
0.465339 -0.008993 0.022446
0.465339 0.082487 0.024866
0.465339 0.081535 0.053925
0.465339 -0.091942 -0.005855
0.465339 0.001736 0.081912
0.465339 -0.007260 -0.007498
0.465339 0.033094 0.020482
0.465339 -0.037613 -0.012031
0.465339 0.055799 -0.000857
0.465339 -0.066093 0.066320
0.465339 0.045368 0.020928
0.465339 0.028888 -0.027510
0.465339 -0.015457 -0.078195
0.465339 -0.031354 -0.034164
0.465339 -0.010273 -0.028229
0.465339 -0.021645 0.093930
0.465339 -0.043787 0.025976
0.465339 -0.022166 -0.020919
0.465339 -0.051915 0.044357
0.465339 0.092044 -0.010753
0.465339 0.040208 0.026833
0.465339 -0.014636 0.052926
0.465339 -0.048746 0.051139
0.465339 0.007216 0.068749
0.465339 0.087923 0.019152
0.465339 -0.042158 -0.035023
0.465339 -0.039041 0.028670
0.465339 0.076618 0.053596
0.465339 0.084904 -0.023858
0.465339 -0.078717 -0.027599
0.465339 0.012059 0.094735
0.465339 -0.045228 -0.048239
0.465339 0.047176 0.039693
0.465339 0.052942 -0.017714
0.465339 0.085039 -0.042047
0.465339 0.050332 -0.065001
0.465339 -0.063009 0.031719
0.465339 -0.097859 -0.006419
0.465339 -0.011693 0.021208
0.465339 -0.012883 0.005023
0.465339 -0.004477 0.098813
0.465339 0.035113 0.049230
0.465339 0.001693 0.092616
0.465339 0.075588 -0.036669
0.465339 -0.050033 0.048006
0.465339 0.020219 0.090150
0.465339 0.082928 -0.012698
0.465339 -0.048462 -0.003050
0.465339 -0.069738 0.067591
0.465339 -0.027728 -0.054941
0.465339 -0.042779 0.031340
0.465339 -0.036288 -0.058698
0.465339 -0.056838 -0.031913
0.465339 -0.006304 -0.012785
0.465339 -0.012833 0.030844
0.465339 -0.025068 0.014720
0.465339 -0.036047 -0.079107
0.465339 -0.050769 -0.024714
0.465339 0.034109 -0.047041
0.465339 0.035243 -0.023395
0.465339 -0.082708 0.014891
0.465339 -0.021331 0.078242
0.465339 -0.048759 0.010760
0.465339 -0.074541 -0.001842
0.465339 0.003925 -0.093468
0.465339 0.098372 -0.003575
0.465339 -0.010586 0.037513
0.465339 -0.068103 -0.060177
0.465339 0.006358 -0.078250
0.465339 -0.002717 0.079592
0.465339 -0.061191 -0.037753
0.465339 0.007947 0.051180
0.465339 0.094473 0.019267
0.465339 0.053042 -0.060863
0.465339 -0.056839 0.018622
0.465339 0.018035 0.019992
0.465339 0.006116 -0.013231
0.465339 0.074890 -0.045398
0.465339 0.031825 -0.035231
0.465339 -0.013931 0.008183
0.465339 -0.043776 -0.035316
0.465339 -0.070819 -0.041604
0.465339 0.042633 -0.020899
0.465339 0.013788 0.037259
0.465339 -0.094761 0.013572
0.465339 0.086319 0.002256
0.465339 -0.092614 0.035545
0.465339 -0.074827 0.013573
0.465339 0.006449 -0.044105
0.465339 -0.091247 0.020928
0.465339 -0.039722 0.046048
0.465339 -0.028894 -0.051523
0.465339 -0.022889 -0.029987
0.465339 -0.047865 0.042031
0.465339 0.073982 -0.040470
0.465339 0.012650 0.046120
0.465339 -0.012479 -0.089067
0.465339 -0.003360 0.044983
0.465339 -0.011965 -0.059149
0.465339 0.018080 0.052552
0.465339 0.037464 -0.034649
0.465339 -0.095698 0.015346
0.465339 -0.002709 0.027733
0.465339 0.080113 -0.037815
0.465339 0.055740 -0.010791
0.465339 0.019625 -0.053791
0.465339 0.000836 0.018731
0.465339 -0.049499 -0.065568
0.465339 0.052449 -0.019358
0.465339 -0.060771 0.053082
0.465339 0.092658 0.010098
0.465339 -0.004909 -0.017990
0.465339 -0.065009 -0.002000
0.465339 0.017433 -0.030924
0.465339 -0.091052 0.032022
0.465339 -0.084982 0.008991
0.465339 0.016126 -0.065751
0.465339 -0.075368 0.015090
0.465339 -0.055757 -0.070496
0.465339 0.057684 0.022660
0.465339 0.033382 -0.032478
0.465339 -0.010778 -0.064655
0.465339 0.068069 0.060888
0.465339 -0.036813 0.080719
0.465339 -0.042495 -0.044033
0.465339 0.024592 -0.034415
0.465339 0.037718 0.040192
0.465339 0.015984 -0.016860
0.465339 -0.016734 -0.014951
0.465339 0.053106 0.049294
0.465339 0.077001 0.011839
0.465339 -0.004343 0.061636
0.465339 -0.008454 -0.061514
0.465339 0.006234 -0.067376
0.465339 0.001913 0.023336
0.465339 0.026223 0.042854
0.465339 -0.047841 0.052381
0.465339 0.083548 -0.015187
0.465339 -0.075073 0.019580
0.465339 0.008631 0.032929
0.465339 -0.002857 -0.019011
0.465339 -0.081278 -0.020240
0.465339 0.031542 0.021069
0.465339 0.065688 -0.007770
0.465339 -0.022458 -0.015441
0.465339 -0.087410 -0.001132
0.465339 -0.015056 -0.082387
0.465339 0.072445 -0.031370
0.465339 -0.017538 0.020205
0.465339 -0.045884 0.083604
0.465339 0.076125 -0.023599
0.465339 0.071931 -0.068746
0.465339 -0.025711 -0.030117
0.465339 0.064828 -0.013324
0.465339 0.036563 0.056111
0.465339 -0.060348 -0.022226
0.465339 0.039876 0.036861
0.465339 -0.076233 0.049389
0.465339 0.024469 0.081740
0.465339 -0.044576 -0.087085
0.465339 0.043659 0.089699
0.465339 0.069077 0.038834
0.465339 0.010369 0.035595
0.465339 -0.046468 0.048418
0.465339 -0.028075 -0.091571
0.465339 0.059050 -0.067118
0.465339 0.070122 -0.011486
0.465339 0.020644 -0.025411
0.465339 0.078764 0.031199
0.465339 0.044105 -0.054997
0.465339 0.087795 -0.047074
0.465339 0.011031 -0.068646
0.465339 0.087647 -0.006529
0.465339 0.026160 -0.067052
0.465339 0.020181 0.069768
0.465339 0.045813 0.000319
0.465339 -0.011246 -0.093525
0.465339 -0.032125 -0.035462
0.465339 -0.043702 -0.017916
0.465339 -0.059880 -0.061096
0.465339 -0.067919 -0.010322
0.465339 -0.040720 -0.075445
0.465339 0.005973 -0.075611
0.465339 -0.035058 0.011343
0.465339 -0.039890 0.075842
0.465339 0.007514 -0.017595
0.465339 -0.009276 0.024327
0.465339 0.041994 0.081187
0.465339 -0.021471 -0.066640
0.465339 -0.051312 -0.043799
0.465339 0.018856 -0.036625
0.465339 0.096043 0.025474
0.465339 -0.011994 0.075093
0.465339 -0.015252 -0.011290
0.465339 0.052674 -0.023477
0.465339 -0.017134 0.068002
0.465339 0.073192 0.053838
0.465339 0.087448 0.007039
0.465339 0.044380 0.032287
0.465339 0.058673 0.042906
0.465339 -0.012198 -0.020404
0.465339 -0.005847 0.078240
0.465339 -0.005913 -0.097078
0.465339 0.039048 -0.039482
0.465339 -0.045308 -0.088376
0.465339 -0.008187 -0.018533
0.465339 0.094435 -0.022526
0.465339 -0.015126 0.044968
0.465339 0.045398 0.089115
0.465339 0.063500 -0.012567
0.465339 -0.095506 -0.024550
0.465339 0.058244 -0.017654
0.465339 -0.013307 0.084416
0.465339 0.097364 0.021983
0.465339 0.014032 0.089685
0.465339 0.058985 -0.037667
0.465339 0.018050 0.017628
0.465339 0.031265 -0.052378
0.465339 0.032418 -0.023580
0.465339 -0.030189 0.083804
0.465339 0.059396 -0.010467
0.465339 -0.003100 -0.053591
0.465339 0.035034 -0.093015
0.465339 0.061964 -0.066577
0.465339 0.041347 0.025895
0.465339 0.060127 -0.053933
0.465339 0.009564 0.060500
0.465339 -0.008961 0.056665
0.465339 -0.019932 0.095537
0.465339 0.044197 0.024577
0.465339 0.044583 0.008097
0.465339 0.055434 -0.002611
0.465339 0.070731 -0.002555
0.465339 0.055619 0.073904
0.465339 0.011461 -0.005944
0.465339 0.034343 0.060630
0.465339 0.066311 -0.006526
0.465339 -0.028454 0.018123
0.465339 -0.026633 0.029760
0.465339 0.046452 0.071269
0.465339 -0.025804 0.008706
0.465339 -0.084210 -0.020634
0.465339 -0.066875 0.070093
0.465339 -0.012432 -0.044957
0.465339 -0.050453 -0.014656
0.465339 0.013589 0.048235
0.465339 0.018499 0.085021
0.465339 0.019639 0.023560
0.465339 -0.063011 -0.072820
0.465339 0.030978 -0.046849
0.465339 0.062592 -0.042620
0.465339 0.080409 0.052164
0.465339 -0.000057 -0.019006
0.465339 -0.011220 0.025562
0.465339 0.026122 0.023306
0.465339 -0.041178 0.003570
0.465339 -0.006669 0.053513
0.465339 0.076456 0.014971
0.465339 -0.035037 0.091801
0.465339 0.075069 -0.005349
0.465339 -0.005450 0.019550
0.465339 -0.070616 -0.002193
0.465339 0.090568 0.034180
0.465339 -0.026573 0.000024
0.465339 -0.075201 -0.048070
0.465339 -0.060204 -0.070246
0.465339 0.015838 -0.084798
0.465339 0.017675 0.059482
0.465339 -0.019316 -0.058313
0.465339 -0.055675 -0.036075
0.465339 -0.022915 0.022251
0.465339 -0.014466 0.013823
0.465339 -0.059603 0.024260
0.465339 0.090427 0.022333
0.465339 -0.069951 0.002193
0.465339 0.039493 0.052496
0.465339 0.013686 -0.084496
0.465339 0.009265 0.037120
0.465339 0.024871 -0.032638
0.465339 -0.063554 -0.012885
0.465339 0.057333 -0.067577
0.465339 0.058950 0.055631
0.465339 -0.065278 -0.013762
0.465339 0.015284 -0.022092
0.465339 -0.050388 -0.047540
0.465339 0.085439 0.037700
0.465339 0.034161 0.050856
0.465339 -0.087797 0.045638
0.465339 -0.063194 -0.040655
0.465339 0.054543 -0.063129
0.465339 0.020054 0.012625
0.465339 -0.017876 0.032196
0.465339 0.045582 -0.042294
0.465339 -0.057668 -0.068935
0.465339 -0.032644 -0.036984
0.465339 -0.098864 0.009584
0.465339 0.019802 0.006095
0.465339 0.047645 -0.050857
0.465339 -0.018087 -0.039670
0.465339 -0.018686 0.018032
0.465339 -0.033291 0.084807
0.465339 -0.037402 -0.027587
0.465339 0.033682 -0.079771
0.465339 0.049493 -0.024684
0.465339 -0.046147 -0.040183
0.465339 -0.014478 -0.065948
0.465339 0.063280 -0.009457
0.465339 0.013535 -0.021334
0.465339 -0.061398 -0.008308
0.465339 0.080712 -0.009434
0.465339 0.092536 0.013801
0.465339 0.031168 0.066018
0.465339 0.016605 0.003726
0.465339 -0.051814 -0.072751
0.465339 -0.034150 0.006183
0.465339 0.083382 0.015124
0.465339 0.093720 -0.032569
0.465339 -0.062290 0.042572
0.465339 0.069831 -0.057811
0.465339 0.021823 0.059382
0.465339 0.060670 0.037117
0.465339 -0.000271 0.092873
0.465339 -0.003131 0.087462
0.465339 0.013876 -0.039408
0.465339 0.024404 -0.046245
0.465339 0.008282 -0.081163
0.465339 0.011603 0.084832
0.465339 0.077335 0.039397
0.465339 -0.091459 -0.015282
0.465339 -0.061438 -0.062352
0.465339 -0.028006 -0.041247
0.465339 0.040050 -0.073935
0.465339 -0.051644 -0.019610
0.465339 0.001397 -0.026633
0.465339 -0.019317 -0.047263
0.465339 -0.045474 0.088732
0.465339 0.025786 0.054377
0.465339 0.093365 0.035482
0.465339 0.036139 0.038056
0.465339 -0.080366 -0.052022
0.465339 0.077965 0.058473
0.465339 -0.060393 0.013697
0.465339 -0.054337 0.030568
0.465339 -0.002960 0.008176
0.465339 0.006758 0.021961
0.465339 -0.034943 -0.005741
0.465339 0.082477 0.034139
0.465339 -0.070282 0.004743
0.465339 -0.024178 -0.089486
0.465339 -0.001053 -0.035051
0.465339 -0.056930 -0.064976
0.465339 -0.047337 -0.067816
0.465339 0.081602 0.044498
0.465339 0.087737 0.027564
0.465339 -0.098867 -0.011911
0.465339 -0.039284 0.086026
0.465339 -0.017555 0.017046
0.465339 0.061372 -0.061321
0.465339 0.019090 0.035470
0.465339 0.060147 0.028672
0.465339 -0.013622 -0.047794
0.465339 -0.084765 -0.022309
0.465339 -0.032521 -0.039501
0.465339 0.076420 -0.044433
0.465339 0.086473 -0.037362
0.465339 0.058154 0.060198
0.465339 -0.015609 -0.090752
0.465339 0.037597 -0.037830
0.465339 -0.000593 0.040780
0.465339 0.043160 -0.080934
0.465339 -0.008852 0.046235
0.465339 0.079699 0.003146
0.465339 -0.019067 -0.054447
0.465339 -0.061028 0.068897
0.465339 0.007288 -0.049478
0.465339 -0.046904 -0.013514
0.465339 -0.026188 -0.085089
0.465339 0.012406 -0.068663
0.465339 0.068278 -0.030893
0.465339 -0.024049 0.075079
0.465339 0.019393 0.078933
0.465339 0.062451 -0.038567
0.465339 0.043790 0.061099
0.465339 -0.064498 0.025440
0.465339 0.006786 -0.048054
0.465339 0.050427 -0.049286
0.465339 -0.017095 -0.067894
0.465339 -0.075318 -0.051564
0.465339 0.038429 0.092180
0.465339 0.046442 -0.076091
0.465339 -0.007358 0.074667
0.465339 -0.059843 -0.046035
0.465339 -0.052318 0.078702
0.465339 -0.048258 0.043730
0.465339 0.056700 0.075462
0.465339 0.041166 -0.031727
0.465339 -0.043844 -0.047845
0.465339 -0.056177 -0.073739
0.465339 0.086178 0.040951
0.465339 -0.002624 -0.070381
0.465339 0.037611 0.030208
0.465339 0.040900 -0.018747
0.465339 -0.016741 0.081799
0.465339 0.073990 -0.063490
0.465339 0.079173 -0.008336
0.465339 0.056414 0.049944
0.465339 0.055940 -0.071362
0.465339 0.081917 -0.051825
0.465339 0.055485 0.056964
0.465339 0.099151 -0.009761
0.465339 0.036356 0.034861
0.465339 -0.059933 0.054764
0.465339 -0.084179 -0.001569
0.465339 0.073584 -0.010152
0.465339 0.000736 0.090912
0.465339 -0.043685 -0.023737
0.465339 -0.072676 -0.022624
0.465339 -0.005490 0.072030
0.465339 -0.021173 0.059959
0.465339 0.015179 0.070747
0.465339 -0.056116 -0.041585
0.465339 0.002744 -0.034742
0.465339 -0.050387 0.040141
0.465339 0.056583 0.039977
0.465339 -0.048072 0.017777
0.465339 0.016972 -0.029023
0.465339 0.091437 0.008312
0.465339 0.073073 0.026217
0.465339 0.059679 -0.007251
0.465339 0.007241 -0.006824
0.465339 0.007657 0.082896
0.465339 0.012092 -0.066554
0.465339 -0.036427 0.093078
0.465339 -0.004349 -0.086254
0.465339 0.017163 0.095862
0.465339 -0.034485 -0.017043
0.465339 0.008285 -0.025973
0.465339 0.022353 -0.054105
0.465339 0.061412 -0.067988
0.465339 -0.011426 0.006806
0.465339 -0.051870 -0.005269
0.465339 0.087035 -0.031589
0.465339 -0.052167 -0.029894
0.465339 -0.041722 -0.080673
0.465339 0.022530 0.072216
0.465339 -0.039607 -0.067342
0.465339 -0.047701 -0.063656
0.465339 0.082927 0.043503
0.465339 0.041636 -0.065384
0.465339 0.086137 -0.050265
0.465339 -0.050129 0.053635
0.465339 -0.082249 -0.005612
0.465339 0.077653 0.034761
0.465339 0.038631 -0.059030
0.465339 -0.029819 -0.016923
0.465339 0.051214 0.066289
0.465339 -0.088663 0.039991
0.465339 -0.045193 0.075738
0.465339 -0.030246 -0.063826
0.465339 0.061089 0.022103
0.465339 0.003031 0.099740
0.465339 0.068373 0.070312
0.465339 0.042734 -0.018026
0.465339 0.019780 -0.047749
0.465339 -0.049688 0.064736
0.465339 -0.088151 0.018123
0.465339 0.087983 0.014053
0.465339 -0.065526 -0.015168
0.465339 0.057569 0.047020
0.465339 -0.012608 -0.082195
0.465339 0.008586 0.059119
0.465339 -0.027168 -0.026141
0.465339 -0.029449 -0.003417
0.465339 -0.032559 -0.090047
0.465339 0.077617 -0.057697
0.465339 0.015606 0.059020
0.465339 -0.035875 0.003774
0.465339 -0.043716 -0.082087
0.465339 -0.083281 0.002830
0.465339 0.014154 0.060113
0.465339 0.077010 0.043146
0.465339 0.064605 0.065559
0.465339 0.071905 -0.001131
0.465339 0.038470 -0.043721
0.465339 -0.080645 -0.055168
0.465339 0.058066 -0.076079
0.465339 0.024172 0.007830
0.465339 -0.091936 -0.003036
0.465339 0.030606 0.088615
0.465339 -0.026049 0.053807
0.465339 0.024221 0.052359
0.465339 0.060409 0.074283
0.465339 0.041155 -0.060651
0.465339 -0.072245 -0.047078
0.465339 0.025242 0.028325
0.465339 -0.069013 -0.062081
0.465339 -0.013619 0.045792
0.465339 0.013632 -0.062181
0.465339 0.016046 0.041557
0.465339 0.028634 0.008025
0.465339 -0.067402 -0.039482
0.465339 -0.052441 0.080440
0.465339 -0.058111 -0.032985
0.465339 0.071125 -0.049083
0.465339 -0.018403 -0.084505
0.465339 -0.027351 -0.073173
0.465339 -0.085975 0.025223
0.465339 0.046151 0.049391
0.465339 -0.023847 -0.042177
0.465339 -0.093827 0.005142
0.465339 -0.005412 0.005941
0.465339 0.086245 -0.038889
0.465339 -0.049127 -0.006518
0.465339 -0.085169 -0.043477
0.465339 0.005787 0.037336
0.465339 0.001842 0.066186
0.465339 0.058630 0.065944
0.465339 0.027035 0.072122
0.465339 -0.047266 -0.045322
0.465339 -0.032807 -0.000727
0.465339 0.055058 -0.057465
0.465339 0.082441 -0.018153
0.465339 0.075725 -0.022261
0.465339 -0.048308 -0.084206
0.465339 -0.061725 -0.059004
0.465339 0.045222 0.064848
0.465339 0.036868 -0.025031
0.465339 0.046125 0.014220
0.465339 -0.038468 0.032193
0.465339 -0.015436 -0.043884
0.465339 0.070032 -0.066523
0.465339 -0.007997 0.059606
0.465339 0.029179 -0.043408
0.465339 -0.008672 0.093447
0.465339 -0.032018 0.012082
0.465339 0.017893 0.005172
0.465339 -0.028980 0.057284
0.465339 0.027058 0.048639
0.465339 -0.066032 0.060934
0.465339 -0.054768 0.066425
0.465339 0.036432 -0.058401
0.465339 0.080828 0.025541
0.465339 0.020105 0.034230
0.465339 0.045116 0.012043
0.465339 0.019014 -0.080783
0.465339 -0.010303 -0.007621
0.465339 0.007843 -0.071300
0.465339 0.050417 -0.085684
0.465339 0.075805 0.004886
0.465339 -0.083079 -0.041597
0.465339 0.030305 0.060985
0.465339 -0.081560 0.002063
0.465339 -0.048880 0.022520
0.465339 -0.017181 0.031011
0.465339 0.055125 -0.040989
0.465339 0.015969 -0.005352
0.465339 -0.035533 -0.000452
0.465339 0.091369 0.005416
0.465339 -0.045893 0.047116
0.465339 0.025963 -0.053470
0.465339 0.053780 0.031022
0.465339 0.064907 0.002374
0.465339 -0.052383 0.025868
0.465339 -0.078826 0.015289
0.465339 0.025707 -0.079634
0.465339 0.035906 -0.004731
0.465339 0.009095 -0.062803
0.465339 0.027355 0.080955
0.465339 -0.061955 -0.067619
0.465339 0.001962 0.085098
0.465339 0.006970 -0.020886
0.465339 0.025706 -0.073238
0.465339 -0.070461 0.060656
0.465339 -0.026730 -0.045543
0.465339 0.054259 0.050586
0.465339 0.024299 0.017536
0.465339 0.076880 0.063964
0.465339 -0.003823 -0.030078
0.465339 0.078026 0.003747
0.465339 0.015027 0.038548
0.465339 -0.005495 -0.044694
0.465339 0.001055 0.028603
0.465339 0.051506 0.033985
0.465339 0.005789 -0.061291
0.465339 -0.056368 0.065092
0.465339 0.034315 -0.073923
0.465339 0.052042 -0.028240
0.465339 0.032479 -0.011295
0.465339 0.036610 0.001260
0.465339 0.085767 0.007401
0.465339 0.060500 -0.029857
0.465339 0.037948 0.065806
0.465339 -0.017050 -0.036390
0.465339 0.013922 -0.011502
0.465339 0.076318 -0.016076
0.465339 -0.014263 -0.013527
0.465339 0.027958 -0.002918
0.465339 0.085694 -0.043336
0.465339 0.015598 0.043228
0.465339 -0.081173 0.013576
0.465339 0.032447 0.050938
0.465339 0.079850 -0.002628
0.465339 0.070132 0.041809
0.465339 0.080900 -0.026137
0.465339 -0.061941 -0.055805
0.465339 -0.059604 -0.064354
0.465339 -0.090790 0.034957
0.465339 0.009582 -0.036597
0.465339 0.012358 0.008418
0.465339 -0.075411 -0.016822
0.465339 0.012285 -0.002465
0.465339 0.016219 0.023840
0.465339 0.004107 0.011348
0.465339 0.074582 -0.051794
0.465339 0.064518 -0.002547
0.465339 0.009752 0.013617
0.465339 -0.000661 -0.055879
0.465339 -0.002991 0.065739
0.465339 0.036145 0.092495
0.465339 -0.071763 -0.009486
0.465339 0.049066 0.000197
0.465339 0.003137 -0.005516
0.465339 -0.052033 -0.068622
0.465339 0.037596 0.028702
0.465339 -0.004237 0.070438
0.465339 -0.094428 0.028491
0.465339 0.035020 0.051968
0.465339 -0.079028 -0.055001
0.465339 -0.038443 -0.033380
0.465339 -0.054553 -0.022263
0.465339 -0.055594 -0.078358
0.465339 0.045998 0.066406
0.465339 0.021897 -0.090174
0.465339 -0.058123 0.010013
0.465339 0.035611 0.079200
0.465339 0.071207 0.030662
0.465339 0.079357 -0.014720
0.465339 -0.003929 -0.024310
0.465339 0.042870 0.039303
0.465339 0.039094 0.069242
0.465339 0.041819 -0.005657
0.465339 -0.016278 -0.031652
0.465339 -0.017876 0.043495
0.465339 0.058220 0.072330
0.465339 -0.058222 -0.058025
0.465339 -0.064418 0.034970
0.465339 0.060417 -0.069286
0.465339 -0.003807 0.010477
0.465339 -0.088114 0.031914
0.465339 0.065932 -0.009474
0.465339 -0.055469 0.027970
0.465339 0.027874 0.074024
0.465339 -0.051348 0.003902
0.465339 0.047216 -0.001415
0.465339 -0.049523 -0.036606
0.465339 0.026053 0.088862
0.465339 -0.040493 -0.025920
0.465339 -0.077690 0.002064
0.465339 -0.001656 0.086459
0.465339 -0.058181 -0.074136
0.465339 -0.065493 0.041557
0.465339 -0.065451 0.039690
0.465339 0.002381 0.042365
0.465339 0.060090 0.079010
0.465339 0.061966 0.061986
0.465339 -0.016161 0.054144
0.465339 0.027602 0.084485
0.465339 -0.031702 -0.002336
0.465339 -0.044189 -0.063990
0.465339 0.004895 -0.033112
0.465339 -0.004975 0.023820
0.465339 0.050807 -0.033168
0.465339 -0.003800 -0.075647
0.465339 0.022493 -0.073480
0.465339 0.019976 -0.065345
0.465339 0.064857 -0.032129
0.465339 0.042116 0.079392
0.465339 -0.052584 0.031113
0.465339 0.040799 -0.023837
0.465339 -0.077156 -0.055128
0.465339 0.006678 -0.041506
0.465339 -0.048102 -0.039850
0.465339 -0.054602 -0.004281
0.465339 0.073210 -0.055353
0.465339 0.005322 -0.072532
0.465339 -0.030147 -0.046984
0.465339 -0.006635 -0.027645
0.465339 -0.088638 0.012416
0.465339 -0.053641 -0.045402
0.465339 -0.079640 -0.024232
0.465339 -0.017596 -0.052479
0.465339 -0.048723 -0.020778
0.465339 0.053534 -0.013642
0.465339 0.077890 0.062469
0.465339 -0.015733 0.092653
0.465339 -0.051416 -0.016220
0.465339 -0.017435 0.077720
0.465339 -0.031386 0.053885
0.465339 -0.017161 0.047032
0.465339 -0.039035 -0.057249
0.465339 -0.048334 0.056522
0.465339 0.026418 -0.036990
0.465339 -0.024407 -0.053026
0.465339 0.015776 -0.001518
0.465339 0.063901 0.028721
0.465339 0.075087 -0.057742
0.465339 0.043662 -0.076502
0.465339 -0.001883 -0.028489
0.465339 0.035187 0.072774
0.465339 -0.092753 -0.031162
0.465339 0.022558 -0.063510
0.465339 0.013385 -0.071428
0.465339 0.030626 -0.094873
0.465339 -0.000831 0.010076
0.465339 0.033866 0.064055
0.465339 -0.075244 0.046293
0.465339 -0.007583 -0.034672
0.465339 0.020242 0.087170
0.465339 -0.031146 0.068120
0.465339 0.016848 0.021065
0.465339 -0.037440 -0.064954
0.465339 0.031595 -0.036764
0.465339 0.049086 0.009956
0.465339 -0.065725 0.002065
0.465339 -0.060966 -0.009837
0.465339 -0.004268 -0.080150
0.465339 0.012927 -0.025828
0.465339 0.038334 -0.078441
0.465339 0.039906 -0.054537
0.465339 0.030292 -0.054250
0.465339 0.020121 -0.032741
0.465339 -0.077931 -0.045524
0.465339 -0.064762 -0.034602
0.465339 0.076188 0.008661
0.465339 0.003617 -0.028605
0.465339 -0.014859 0.046498
0.465339 -0.032568 -0.085203
0.465339 0.028218 -0.076478
0.465339 0.048331 -0.027381
0.465339 0.009441 -0.068527
0.465339 0.028907 -0.060119
0.465339 -0.026177 -0.095766
0.465339 -0.028859 0.016080
0.465339 0.052949 -0.003212
0.465339 0.054282 0.035787
0.465339 -0.012304 0.052214
0.465339 -0.026427 -0.005362
0.465339 0.007569 -0.000010
0.465339 -0.017617 -0.009603
0.465339 -0.018560 -0.022941
0.465339 0.005028 -0.006321
0.465339 -0.003153 -0.067613
0.465339 -0.088634 -0.035893
0.465339 0.012390 0.002314
0.465339 -0.089533 -0.024140
0.465339 0.049967 0.080586
0.465339 -0.038449 0.050745
0.465339 -0.005669 -0.035478
0.465339 -0.041925 -0.083321
0.465339 0.041694 0.013887
0.465339 0.088560 -0.031024
0.465339 0.063423 -0.046621
0.465339 0.045130 0.004674
0.465339 0.007654 0.035675
0.465339 -0.087666 0.035881
0.465339 0.053143 0.006426
0.465339 0.042928 0.083985
0.465339 0.037779 -0.092051
0.465339 -0.007242 -0.039484
0.465339 -0.014370 0.011103
0.465339 -0.062722 0.008758
0.465339 0.041289 0.067780
0.465339 -0.065857 0.006861
0.465339 0.075177 0.047390
0.465339 0.069396 -0.059184
0.465339 0.013422 -0.013098
0.465339 0.010411 0.048130
0.465339 -0.001525 0.080490
0.465339 0.064464 -0.053253
0.465339 -0.018548 0.095196
0.465339 -0.035378 -0.028314
0.465339 -0.066744 -0.007691
0.465339 -0.061532 0.029013
0.465339 0.025149 -0.075253
0.465339 0.061447 -0.049252
0.465339 0.075655 0.065242
0.465339 0.015257 0.046090
0.465339 -0.028468 0.070457
0.465339 0.003738 0.035880
0.465339 0.024630 -0.066884
0.465339 0.085060 -0.004031
0.465339 -0.033404 0.076524
0.465339 0.064902 0.007734
0.465339 -0.007164 -0.009000
0.465339 -0.077707 0.055124
0.465339 -0.005573 0.067672
0.465339 -0.010961 0.035284
0.465339 -0.037083 -0.069667
0.465339 -0.012363 0.035399
0.465339 -0.021603 -0.055918
0.465339 0.059184 -0.012657
0.465339 0.064360 0.023810
0.465339 0.017384 0.010337
0.465339 -0.085775 0.018881
0.465339 0.021473 0.040345
0.465339 -0.049178 0.029851
0.465339 0.031898 0.002786
0.465339 -0.085632 -0.001056
0.465339 0.029519 -0.050355
0.465339 0.019913 -0.020832
0.465339 -0.004631 -0.068444
0.465339 0.081821 -0.002986
0.465339 -0.092278 0.029436
0.465339 0.003014 -0.017082
0.465339 0.041471 0.042674
0.465339 -0.070394 0.029821
0.465339 -0.065674 0.069048
0.465339 -0.074020 -0.063516
0.465339 -0.053663 -0.015162
