-0.071897 0.090294 -0.042752
0.102470 0.008716 0.099653
-0.442258 -0.090775 0.041535
0.335297 0.051509 0.085780
-0.247723 -0.099638 0.004447
0.032078 0.006909 0.099824
-0.031247 0.077087 -0.063484
0.357663 0.099728 0.007301
-0.351672 0.021661 0.097669
0.391361 0.088936 -0.045416
0.254704 0.049128 -0.086825
0.442464 0.051934 0.085529
0.356345 0.046363 -0.088307
-0.071289 0.064048 -0.076555
-0.344171 -0.098335 0.016801
0.396082 0.037942 -0.092236
-0.200300 0.099950 -0.001571
0.109341 0.064145 -0.076470
0.111262 0.099568 0.008992
0.296872 0.097584 -0.021453
-0.290234 -0.063613 0.077096
-0.108434 0.005468 0.099902
0.032224 0.000268 0.100065
-0.218348 0.088421 0.046790
0.450955 0.092158 0.038878
-0.300292 -0.019356 -0.097769
-0.065553 -0.076803 0.063905
-0.352417 -0.075441 0.065449
-0.259424 -0.053818 -0.083878
-0.121518 0.099918 -0.002597
0.313579 -0.083705 -0.054102
-0.109315 -0.093375 -0.034874
-0.234382 0.070895 -0.070235
0.214540 0.007720 0.099747
-0.389082 -0.066741 -0.073975
0.444413 0.032808 0.094525
0.357791 0.069508 -0.071621
0.364385 -0.006610 0.099830
0.068921 0.047394 -0.087782
-0.442008 0.001250 0.100034
0.448843 -0.090316 -0.042231
0.222417 -0.073404 0.067760
-0.155367 0.008134 -0.099345
0.023489 0.007011 -0.099451
-0.078998 0.035317 -0.093258
-0.176864 -0.035971 -0.092939
-0.418556 -0.030359 -0.094932
-0.030490 0.086463 0.050310
0.464201 -0.048491 -0.087064
0.190566 -0.077417 0.063120
0.418081 -0.070895 0.070364
0.168632 -0.099048 0.012031
0.359476 0.029149 0.095714
-0.117867 -0.029058 -0.095310
0.062716 0.045821 -0.088583
0.197668 -0.026780 -0.095972
-0.227191 0.066826 0.074469
-0.435892 0.084281 0.053961
0.381750 0.011563 -0.099021
-0.303911 -0.003373 0.099960
0.280684 -0.066252 0.074769
-0.193765 -0.095871 -0.027287
-0.072717 0.090495 0.042719
-0.409419 -0.081168 0.058199
-0.083448 -0.092023 -0.038287
0.003841 0.083472 0.055152
-0.143219 -0.019631 0.098070
0.205666 -0.098148 0.017982
0.235939 -0.069026 0.072232
-0.201974 0.044717 -0.089146
0.318156 0.043829 -0.089598
-0.287502 -0.053610 0.084382
-0.316116 -0.085549 -0.051098
-0.064562 0.073308 -0.067771
0.112369 0.004878 -0.099558
-0.436634 -0.063612 0.077096
-0.259710 0.073196 0.068261
-0.435171 -0.098393 0.016436
0.345953 0.087988 -0.047277
-0.282603 -0.002825 0.099978
0.013104 0.056156 -0.082447
-0.261436 -0.099603 0.005545
-0.419929 0.076978 -0.063608
-0.312157 -0.066309 -0.074356
0.365648 -0.080789 0.058756
0.159077 0.045919 -0.088533
0.006277 0.065361 -0.075397
-0.115072 0.061261 0.079107
-0.004091 0.099830 -0.005385
0.054859 0.085661 0.051666
-0.408847 -0.068714 -0.072182
-0.195729 0.096319 0.026910
-0.372485 0.087733 0.048139
-0.092200 0.034431 0.093940
0.222033 -0.034689 -0.093400
0.374635 -0.027598 -0.095734
0.428501 0.069721 0.071771
-0.103979 0.017500 0.098512
-0.055013 -0.084069 -0.053566
-0.362908 0.066347 0.074891
-0.429994 0.040239 0.091605
-0.377325 0.036257 0.093283
0.154797 0.065575 -0.075209
-0.437968 0.003594 -0.099598
-0.301469 0.078753 -0.061336
0.264092 0.087111 -0.048852
-0.443907 0.021488 -0.097345
0.234295 -0.097080 0.023026
0.182238 0.086215 -0.050366
0.015079 -0.036612 -0.092708
-0.232865 0.034246 -0.093644
-0.115120 0.066440 0.074809
-0.115957 0.094572 -0.032197
0.036304 0.045548 -0.088722
0.184683 -0.025899 0.096591
0.368739 -0.099264 0.009746
-0.112860 0.066498 -0.074395
0.028748 -0.097191 -0.022165
-0.348327 0.098856 -0.014621
-0.436794 0.071525 -0.069604
0.006891 -0.024307 -0.096662
-0.405873 0.087005 -0.049030
0.419986 0.099633 0.008310
-0.130876 -0.031695 0.094841
0.130569 0.098794 0.015373
0.314666 -0.049502 -0.086466
0.124117 -0.050406 -0.085932
0.312664 0.081266 0.058398
0.366967 0.097677 0.021399
-0.233449 0.099894 -0.003343
-0.405317 0.095591 -0.029052
0.251087 -0.045972 -0.088388
0.080657 0.083037 -0.055429
0.409137 0.071723 -0.069407
0.082492 -0.068985 0.072273
-0.128977 0.044941 0.089395
-0.384483 -0.097862 -0.019166
-0.450398 0.099859 -0.004467
-0.018634 -0.094943 0.030844
0.257110 0.077564 0.063232
0.367604 -0.083875 0.054215
-0.200608 -0.088751 -0.045321
-0.210007 0.086619 0.050047
-0.392765 0.062837 0.077884
0.249127 0.099705 -0.007178
-0.127217 0.089085 0.045485
0.091724 0.019890 0.098065
0.157201 -0.067105 0.074017
0.231061 -0.088972 0.045249
0.320839 0.058232 -0.081036
0.089987 0.053330 -0.084340
0.214681 0.067635 0.073756
0.392918 -0.097802 -0.019431
-0.388279 0.099300 -0.011471
0.272991 -0.099732 0.001445
0.457621 0.018968 -0.097908
-0.078835 -0.039478 0.091834
0.149163 -0.014591 -0.098573
-0.057862 0.002962 0.099981
0.182514 -0.000553 -0.099686
0.242392 -0.058116 0.081319
0.192777 0.022604 0.097458
-0.043639 -0.099101 0.011468
0.156773 -0.015759 0.098751
-0.141257 -0.062608 0.077881
-0.131477 0.083681 -0.054481
-0.091133 -0.037180 -0.092465
0.050130 -0.075706 -0.064786
0.187438 0.036224 0.093295
0.346679 0.099104 -0.013056
0.127593 0.100002 0.000092
0.132705 -0.028651 -0.095428
-0.303197 -0.024931 -0.096509
0.465300 -0.024102 0.097071
0.254576 0.032213 0.094739
-0.322171 0.096047 -0.027483
0.360745 -0.099762 0.000504
-0.201329 -0.046678 0.088390
0.422891 -0.067517 -0.073291
0.430654 -0.026630 0.096378
-0.332853 0.099000 -0.013713
0.419361 -0.030081 0.095376
0.129200 0.027501 0.096193
0.316179 -0.099747 0.000978
-0.258182 -0.000860 0.100039
0.252718 0.092470 0.038156
-0.214937 -0.087787 0.047575
0.456635 0.060262 -0.079519
-0.269503 0.099973 0.001202
0.342893 0.038535 0.092343
-0.286857 0.056996 -0.081877
-0.361239 0.098993 -0.013753
0.078785 -0.039571 -0.091431
-0.417697 0.100000 0.000359
-0.396359 0.040591 0.091453
0.304746 -0.022458 -0.097076
-0.189494 -0.094501 0.032109
-0.112266 0.073300 -0.067780
0.456269 -0.067221 0.073915
0.320059 -0.062322 0.078103
-0.113884 -0.098876 0.013382
-0.214334 0.033497 0.094276
-0.216457 0.078876 0.061541
0.206749 0.098369 -0.017695
-0.016771 0.051796 0.085610
-0.089218 -0.038833 0.092113
-0.337461 0.073165 0.068296
0.052115 -0.082982 0.055530
-0.006199 -0.059413 -0.079996
0.138719 -0.095952 -0.027006
-0.120601 0.005781 -0.099529
0.260150 -0.048370 0.087499
0.408021 -0.016272 -0.098307
-0.378574 -0.070907 0.070351
0.390732 0.054721 0.083785
0.088672 0.088145 -0.046969
0.256993 -0.058556 -0.080657
0.223530 -0.079959 0.059843
-0.162184 -0.095372 -0.029002
-0.372034 -0.027183 0.096218
-0.352821 0.098444 0.017585
-0.162937 -0.073860 -0.066880
-0.079621 -0.047902 -0.087404
-0.048680 -0.097542 0.020960
-0.293908 -0.097875 0.019469
-0.109898 0.076729 0.064253
-0.117607 0.012911 0.099239
-0.435045 -0.090449 -0.041924
-0.364450 0.096444 0.026478
-0.358269 0.067085 -0.073877
0.173578 -0.081103 -0.057932
-0.345854 0.091238 -0.040640
-0.189588 0.095606 -0.029002
0.443809 0.007506 0.099767
0.398587 0.095190 -0.030432
0.395898 0.095317 0.030360
0.370012 0.008007 -0.099357
0.448175 0.098909 -0.014285
-0.318245 0.066685 -0.074230
-0.271162 0.023424 -0.096912
-0.067506 -0.039075 -0.091645
0.140439 0.099925 0.002731
-0.072576 -0.032668 0.094491
-0.305229 0.014000 0.099066
0.458395 -0.093884 -0.033461
-0.071944 -0.070376 0.070883
-0.452166 0.011888 -0.098990
0.424582 -0.016175 0.098685
0.240546 -0.099482 -0.007076
0.336479 -0.079704 -0.059809
0.119152 0.054257 -0.083738
0.333804 0.057140 -0.081778
-0.268467 -0.087214 -0.048283
-0.420599 0.085394 0.052117
0.146538 0.065441 0.075690
-0.412342 -0.044202 -0.089289
0.352340 0.047151 0.088269
0.076595 0.064668 -0.076008
0.229298 0.065121 0.075971
0.290575 0.066610 -0.074297
0.373313 -0.058111 0.081323
0.379344 0.054313 0.084062
-0.418817 0.027480 -0.095836
-0.177763 0.082897 0.055998
0.370092 -0.076275 0.064504
0.465163 -0.027223 -0.095843
0.457285 -0.013826 -0.098694
-0.174995 -0.071384 -0.069512
0.331634 -0.040273 0.091490
0.410781 -0.047955 -0.087377
-0.059658 0.076428 -0.064232
0.149475 -0.098145 0.018002
0.437993 0.073205 0.068251
0.352274 -0.096421 0.025755
-0.034958 0.098636 -0.016011
-0.212996 -0.093580 -0.034306
0.111719 0.056384 -0.082292
-0.438024 -0.099236 0.010041
0.332197 0.097128 -0.023495
-0.346642 0.015392 0.098846
0.011883 0.099872 0.004435
0.376082 0.003887 -0.099589
-0.286254 0.078502 0.062022
-0.046355 0.049139 -0.086819
0.280134 0.096296 0.026988
-0.345101 -0.090079 0.043077
0.265497 -0.098518 -0.015281
0.059104 0.083948 -0.054088
0.388344 0.080737 0.059141
-0.049488 0.085031 -0.052368
0.253834 -0.099223 0.010174
-0.135501 -0.066921 0.074179
0.364372 0.072831 0.068661
0.278717 -0.062315 -0.077746
-0.432561 0.093275 0.036162
0.306923 0.073385 -0.067683
0.369652 -0.021346 -0.097324
0.334178 0.057867 0.081647
-0.109604 0.059866 -0.079826
-0.070588 -0.005318 0.099899
0.353371 0.094582 -0.032169
-0.005164 0.084063 -0.053918
-0.056456 0.078683 0.061790
-0.251399 -0.031760 0.094817
-0.106801 0.018086 -0.098056
0.398843 -0.098323 0.016876
0.287830 -0.098182 0.017765
-0.191845 0.098655 -0.015891
-0.093771 -0.050136 -0.086091
0.292230 0.039060 0.092115
0.424644 0.068391 -0.072726
-0.004354 -0.052567 0.085017
-0.329210 0.049263 -0.086746
-0.335194 0.053556 0.084569
-0.300797 0.056715 0.082430
0.083357 0.079877 -0.059887
-0.358954 -0.089749 -0.043362
-0.336451 -0.099590 -0.005610
0.216783 0.077199 -0.063339
-0.066081 0.090534 0.042630
0.144509 0.075185 0.066005
0.444731 0.090631 0.042405
-0.280898 -0.085801 -0.050672
0.272118 -0.024480 -0.096624
0.413338 -0.032243 0.094644
-0.300923 0.032293 -0.094347
-0.390382 -0.002248 0.099996
0.194590 -0.093962 -0.033244
0.111073 0.069408 -0.071721
0.333326 0.010317 0.099502
-0.171303 -0.078110 0.062226
-0.089140 -0.031185 -0.094662
0.457204 -0.028131 -0.095579
0.365801 -0.042141 0.090681
0.131632 -0.082544 -0.055810
0.102735 0.099676 0.007846
-0.202944 0.033073 -0.094066
0.223966 0.046143 -0.088419
-0.404358 0.051283 0.085914
0.123969 -0.068529 0.072729
-0.426724 0.011183 0.099420
-0.002267 -0.072069 0.069190
0.038331 -0.069775 0.071484
-0.401679 0.032270 -0.094355
0.373160 0.076375 -0.064292
-0.202478 0.081388 -0.057855
-0.248489 -0.006524 -0.099475
0.243517 0.096308 0.026947
0.211294 -0.018842 0.098247
-0.450816 -0.078885 -0.060864
-0.142555 -0.028913 -0.095352
0.224315 0.024455 -0.096682
-0.445179 -0.069821 0.071438
0.021914 0.028727 -0.095474
-0.027087 -0.077794 -0.062272
0.352612 0.034296 -0.093626
0.416731 0.087701 -0.047839
0.174963 -0.028697 0.095778
0.133249 -0.069410 0.071848
0.035034 0.078850 0.061574
0.189198 0.068326 -0.072783
0.444527 -0.075817 0.065023
0.154055 -0.040982 0.091183
0.446721 -0.093967 0.033594
-0.217007 0.008222 0.099700
0.020852 -0.076811 0.063895
0.358150 0.084384 -0.053446
-0.049908 -0.050676 -0.085772
-0.423725 -0.041064 0.091147
0.019128 0.038287 0.092450
-0.433308 0.038842 -0.091847
0.323811 0.025588 0.096749
-0.263448 0.088100 0.047419
0.415435 0.068369 -0.072746
0.157286 -0.090164 0.042911
0.450334 0.096022 0.027931
-0.335587 0.058976 0.080879
-0.434522 -0.081769 -0.056951
0.079887 -0.096128 -0.026400
-0.391388 -0.066225 0.074792
-0.270995 0.067439 0.073928
0.425283 0.098435 0.017640
-0.121519 0.095191 -0.030428
0.022991 -0.081162 0.058207
0.431631 -0.010678 0.099445
-0.296235 -0.039467 -0.091476
-0.175068 -0.016476 -0.098274
-0.359329 0.071993 -0.069137
0.173459 0.099952 0.001883
0.128764 0.035959 0.093390
0.384974 0.099980 -0.000633
0.252077 -0.096050 -0.026668
-0.177834 -0.094186 0.032984
-0.365108 -0.095320 0.029545
0.158231 -0.000538 0.100049
0.272051 -0.091750 -0.038919
-0.170876 0.099038 -0.013471
0.443860 -0.049645 -0.086382
-0.043774 0.095332 -0.029943
0.170119 0.051065 -0.085680
0.117121 -0.098620 -0.014635
-0.162515 0.061929 0.078589
-0.174313 -0.062095 -0.077916
0.397371 0.098007 -0.019558
0.335710 0.071749 0.069743
0.451548 -0.011443 0.099373
0.200370 0.032748 0.094546
-0.029260 -0.060151 -0.079425
-0.450119 0.074221 0.067098
0.057668 -0.072270 0.068989
0.199255 -0.097341 0.021857
0.115822 -0.064998 -0.075512
0.292290 0.099572 -0.008593
0.252008 0.085084 -0.052278
-0.225273 -0.079190 0.060834
0.175333 -0.097052 0.023150
-0.306973 -0.072244 -0.068653
0.177011 -0.084705 -0.052525
-0.152152 0.088353 0.046923
-0.202488 0.092603 0.037850
-0.031748 0.091803 -0.039334
0.032814 0.037050 0.092986
-0.056390 0.082667 0.056336
0.332199 -0.071558 -0.069338
-0.046168 -0.030456 -0.094904
0.425977 0.013029 -0.098857
0.222524 0.086134 -0.050503
0.115399 -0.094213 -0.032547
0.272832 0.070859 0.070633
0.139824 -0.047400 0.088023
0.161672 -0.099695 0.002629
0.269448 -0.069981 0.071277
0.441130 -0.054390 -0.083489
0.379374 0.005451 0.099902
-0.077303 0.099947 -0.001661
-0.391489 -0.053657 0.084350
-0.163294 -0.068055 -0.072817
0.368282 -0.028599 -0.095443
0.257883 -0.098991 -0.012270
-0.381246 -0.099740 -0.000835
0.190487 -0.088377 -0.046054
-0.041240 -0.068441 -0.072455
0.113836 -0.006552 -0.099473
0.270113 0.099860 -0.004435
0.264162 0.085004 0.052777
-0.274342 0.056733 -0.082055
0.109419 0.079186 0.061141
0.450061 -0.019878 -0.097652
-0.190221 -0.099659 0.003776
-0.288548 -0.000283 0.100057
0.332479 0.079866 -0.059902
0.196787 0.053951 0.084308
0.255217 0.058333 0.081331
-0.361953 -0.090407 0.042384
-0.394660 0.098419 -0.017379
0.047030 0.096744 -0.025085
0.263135 0.058318 0.081341
0.096065 0.089593 0.044489
-0.021211 -0.098174 -0.017452
0.049775 -0.006922 0.099800
-0.320226 -0.018291 -0.097987
-0.384376 -0.047380 -0.087670
0.293236 -0.027464 -0.095773
-0.310619 -0.087362 -0.048033
0.009297 0.040358 -0.091191
-0.019487 0.094372 -0.032754
-0.058417 0.097596 0.021762
-0.248622 -0.098992 0.012622
0.063179 0.099809 -0.006071
0.338239 0.099220 0.012673
-0.041968 -0.036148 0.093238
0.074192 0.066307 0.074926
0.422842 -0.099005 0.012479
-0.173136 0.062710 0.077983
0.206637 0.081287 0.058367
0.197222 -0.039446 0.091848
0.251297 0.089752 0.044176
0.397600 -0.014954 0.098878
-0.366945 -0.096996 -0.023038
-0.102490 -0.026884 0.096304
0.040988 -0.065261 0.075642
0.286785 0.084507 0.053617
0.145896 0.070362 0.071131
0.436764 -0.093202 -0.035355
0.101555 -0.089799 -0.043264
-0.404169 0.099576 -0.008549
0.226516 -0.098615 -0.014669
0.456371 -0.063576 -0.076765
0.306725 -0.058996 -0.080320
0.131416 0.006225 -0.099515
-0.256718 0.033159 -0.094035
0.296908 0.007530 -0.099402
0.161098 0.000346 -0.099700
-0.302635 -0.040027 -0.091233
0.256146 0.004507 0.099932
0.349522 0.096030 -0.027542
0.367798 0.069267 -0.071863
-0.307736 -0.019159 -0.097813
0.182958 0.099103 -0.013059
0.134882 0.054763 -0.083394
0.149792 -0.046230 0.088619
-0.429650 0.030134 0.095428
0.351669 0.049582 -0.086557
-0.120837 -0.078540 0.061672
-0.302216 -0.013064 -0.098815
0.430645 0.061900 -0.078249
0.365617 -0.035739 0.093385
0.265072 0.083663 -0.054508
0.098690 -0.026200 0.096503
0.047415 0.053725 0.084462
-0.462563 -0.017425 -0.098124
0.008457 0.033473 -0.093922
0.224185 0.051804 -0.085243
0.006312 0.045809 -0.088589
-0.297320 -0.066561 0.074497
-0.377442 -0.064046 0.076714
-0.197232 -0.051463 0.085669
-0.240195 -0.060989 -0.078775
0.134572 0.099951 -0.001548
-0.003935 0.015777 -0.098422
0.359144 0.031542 -0.094617
0.221828 0.097850 0.020628
0.017796 0.085948 0.051181
-0.273294 -0.085112 -0.051837
-0.236239 -0.047426 -0.087647
0.054064 0.046752 0.088472
-0.106628 -0.099329 -0.008692
-0.194273 -0.001787 0.100010
0.239933 0.099967 0.001390
0.211297 0.099349 -0.010946
-0.287252 -0.096452 0.025648
-0.287375 0.083755 -0.054373
0.075651 0.044136 -0.089442
0.389407 0.053714 -0.084107
0.069322 0.099742 -0.006790
0.442290 0.040923 0.091310
-0.142253 0.095760 0.028832
0.359537 -0.076897 -0.063428
-0.281269 -0.099011 -0.012058
-0.122205 -0.018938 -0.097863
0.360390 -0.084252 -0.053291
-0.360699 0.099726 -0.006955
0.277922 -0.098703 -0.014117
-0.355622 -0.018962 -0.097857
0.149573 -0.099317 0.009179
-0.418499 -0.087459 0.048219
-0.439801 0.067292 0.074058
-0.136371 -0.020522 0.097871
0.228807 -0.088987 -0.044857
0.157541 -0.095952 0.027368
-0.148672 0.086002 -0.050726
0.387099 -0.085729 -0.050794
0.266576 0.033850 0.094149
0.200113 0.090969 0.041625
-0.273945 0.040431 -0.091159
0.153978 0.099480 0.009928
0.177185 -0.057772 -0.081190
0.153076 -0.096567 -0.024889
0.095966 0.082647 0.056365
0.303728 -0.099760 0.000559
-0.459822 0.052747 0.085048
-0.080935 -0.093282 0.035495
-0.380230 0.091428 -0.040201
0.200895 -0.066261 -0.074398
0.241585 -0.079218 -0.060435
-0.087737 -0.090414 -0.042005
-0.423378 -0.089247 0.044711
0.302362 -0.093557 -0.034370
-0.204478 -0.096863 -0.023635
0.064728 -0.083444 -0.054487
0.091808 0.095160 -0.030535
0.269040 0.099659 0.008032
-0.466932 0.028490 -0.095543
-0.323896 0.025575 -0.096390
-0.398360 -0.085023 -0.051988
0.388709 -0.090115 -0.042644
0.324081 -0.007737 -0.099361
0.048509 -0.043209 -0.089795
-0.359387 -0.092965 0.036375
0.167611 -0.055109 0.083363
0.445936 -0.092554 -0.037059
0.233479 -0.050147 0.086448
-0.369977 0.031503 -0.094631
0.409379 0.039568 -0.091533
0.158109 -0.061371 0.078841
0.378848 -0.082193 0.056690
-0.035837 0.058455 0.081247
-0.211863 0.090168 0.043360
0.114038 -0.024513 -0.096616
-0.158297 0.066783 0.074506
0.357500 0.058280 -0.081003
0.154017 -0.072696 0.068563
0.005176 -0.058843 0.080801
-0.215294 -0.099663 -0.003288
0.066294 -0.097942 -0.018808
-0.130860 0.010749 0.099461
-0.117885 -0.059959 -0.079574
0.223313 0.091539 -0.039946
-0.317311 -0.050070 0.086493
0.461829 -0.088626 0.045929
-0.102214 0.058351 0.081318
0.275914 0.040370 0.091549
-0.300407 -0.099640 -0.004015
-0.243146 -0.003910 -0.099581
-0.173709 0.087574 -0.048068
-0.301051 0.068215 0.073244
-0.221387 -0.097136 -0.022413
0.024208 -0.095597 0.028592
0.166838 0.046637 -0.088167
0.192336 -0.035104 0.093614
-0.140305 0.009469 -0.099219
-0.037377 0.097796 0.020867
0.217083 0.099832 -0.005325
0.215457 -0.036976 -0.092554
0.315006 0.003939 -0.099587
0.450826 -0.040056 -0.091221
0.088021 0.098798 0.015348
-0.342161 0.004495 0.099932
0.200096 -0.085400 -0.051349
-0.377811 -0.095961 -0.026977
0.417298 0.098583 -0.016343
-0.289075 -0.098078 -0.018062
0.279408 0.075745 -0.065006
0.374957 0.073254 0.068195
-0.222685 0.070800 0.070692
0.268546 0.080919 -0.058544
-0.040140 -0.072556 -0.068340
-0.218717 0.093193 -0.036030
0.445231 -0.085487 -0.051203
0.259883 -0.094627 -0.031396
0.231091 0.026666 0.096436
0.302033 -0.048924 -0.086808
-0.444985 0.018739 0.098316
0.303841 0.081398 0.058203
-0.278597 0.002867 -0.099621
-0.451413 0.099930 0.002588
0.364081 0.099805 0.006485
0.308342 -0.029127 0.095653
0.315470 -0.066816 0.074272
0.060962 0.084407 0.053776
-0.268687 -0.065960 -0.074664
-0.009561 0.091314 0.040828
-0.370798 -0.069090 -0.071806
-0.296805 0.082169 -0.056706
-0.416549 0.077114 0.063811
-0.045748 0.064684 -0.075994
-0.108264 0.067125 0.074205
-0.213407 0.086495 -0.049894
-0.334887 0.087586 -0.048048
-0.245687 -0.087667 -0.047449
0.300438 0.072142 -0.068987
-0.438974 0.034719 -0.093474
0.402882 0.079908 -0.059847
-0.047691 -0.066819 -0.073906
0.300637 0.080855 -0.058626
-0.016369 0.074110 0.067225
-0.322591 0.093961 -0.033894
0.069907 -0.051513 -0.085277
0.387732 -0.057127 -0.081629
0.309996 0.096625 -0.025494
0.459037 0.097111 0.023931
-0.112234 0.098034 -0.019439
0.104640 -0.089408 0.044394
-0.250844 0.021145 0.097784
-0.301150 -0.046395 -0.088172
-0.029188 -0.014012 -0.098665
0.143452 -0.099553 0.006685
0.145717 0.086851 0.049654
0.364210 -0.050857 0.086028
0.120264 -0.055260 -0.082898
0.302117 0.019430 0.098167
-0.381716 -0.097812 0.019752
0.367629 -0.090073 -0.042725
-0.221235 0.096217 0.027259
0.267992 -0.012343 0.099288
0.105367 -0.041219 -0.090718
-0.236985 -0.049030 0.087108
0.202213 -0.000018 0.100066
-0.334315 -0.087152 -0.048387
0.119960 -0.005282 -0.099538
-0.332500 -0.068909 0.072350
-0.215799 -0.053587 -0.084034
0.429275 0.046397 0.088653
0.322136 -0.047689 0.087875
-0.242697 0.079205 0.061116
0.443268 0.033088 -0.094061
-0.445540 -0.015912 -0.098364
-0.369096 -0.080690 0.058900
-0.363106 -0.010853 0.099429
-0.092006 0.099998 0.000415
-0.372524 0.054149 0.084174
-0.109515 -0.098056 0.018560
0.143682 -0.077316 -0.062888
0.031417 0.023960 0.097155
-0.245538 0.099738 -0.006837
0.456746 0.053890 0.084350
0.126390 0.087003 -0.049034
0.090310 0.084240 0.054022
-0.349552 0.083945 -0.054093
0.110265 -0.099754 0.000764
0.443826 0.095517 -0.029308
-0.410982 -0.036956 0.092925
-0.060610 0.098141 -0.018960
0.099009 0.093222 0.036310
0.019898 0.082952 0.055917
-0.403965 0.093489 -0.035207
0.220446 -0.097836 -0.019281
0.371482 0.076595 0.064406
0.410354 0.087576 -0.048065
0.318552 0.098023 -0.019490
-0.425082 0.088528 0.046579
-0.105597 0.026874 0.096375
-0.024882 -0.088796 0.045596
0.455069 0.092119 -0.038605
0.057926 0.018061 -0.098060
-0.295206 0.046577 -0.088198
0.127927 -0.024773 -0.096555
-0.030573 0.001811 0.100017
-0.278963 0.070424 0.071068
0.224219 0.098791 0.015392
0.122178 -0.084815 0.052702
-0.057409 -0.087748 0.047652
-0.108592 0.095959 -0.027785
0.028252 -0.090778 0.041528
0.279474 0.053714 0.084469
0.148645 0.028719 0.095839
-0.163423 0.055557 0.083217
0.247955 0.066351 -0.074524
0.168960 0.076001 0.065079
-0.142715 -0.060036 -0.079514
0.287934 -0.051929 0.085394
0.214414 -0.033300 0.094263
-0.202772 0.027305 -0.095887
-0.035160 0.053457 0.084628
-0.399879 0.053880 -0.083994
0.188561 -0.010461 0.099466
0.436941 -0.066617 0.074447
-0.220702 -0.099482 -0.007077
-0.191441 -0.098530 0.015571
-0.224637 0.027340 -0.095877
0.299290 -0.027138 -0.095868
0.028364 -0.005798 -0.099521
-0.344429 -0.016767 -0.098228
-0.428560 -0.098343 0.016751
0.018702 0.077133 -0.063424
0.024369 0.099868 0.004535
-0.271278 0.091694 -0.039586
-0.099465 -0.053577 0.084404
-0.027720 -0.035927 -0.092955
-0.184515 -0.079377 -0.060231
-0.239639 0.094774 0.031998
-0.036753 -0.054421 -0.083467
0.194288 -0.003680 0.099951
0.221971 0.091962 0.039330
-0.295327 -0.031991 -0.094372
0.426197 0.025824 0.096680
0.430355 0.001986 0.100011
-0.270791 -0.095290 -0.029286
-0.160474 -0.011496 -0.099005
-0.273975 -0.027509 0.096123
0.130039 0.092376 -0.038012
-0.313294 0.048711 0.087435
-0.025152 -0.082325 0.056495
-0.360980 -0.014637 -0.098566
0.329589 -0.087428 0.048279
-0.216763 -0.096971 0.023514
-0.144670 0.089502 -0.044305
-0.359445 -0.035115 -0.093247
0.403158 -0.019908 0.098009
0.310743 -0.079792 -0.059695
-0.101991 0.008913 0.099634
-0.219549 0.009779 -0.099190
0.103370 -0.097139 0.022761
0.063376 -0.092830 0.036752
0.341847 0.033722 -0.093833
0.385334 0.076038 0.065037
0.375500 -0.095818 -0.027468
-0.127717 0.058898 -0.080577
-0.410537 0.021902 0.097615
0.215682 -0.028239 -0.095548
0.421056 0.085918 0.051232
0.327827 -0.083124 0.055321
-0.330236 -0.010104 0.099500
0.004357 -0.069473 -0.071424
-0.455520 0.053711 -0.084109
0.297973 -0.098353 -0.016325
0.427261 0.096443 -0.026120
0.090990 0.099999 0.000384
0.130574 -0.062048 -0.077953
-0.449236 -0.082088 0.056844
-0.463781 -0.020744 0.097821
-0.082438 -0.081951 -0.056683
0.305747 0.099958 0.001685
0.452579 0.012971 -0.098866
-0.401418 -0.009687 -0.099176
-0.185786 0.097181 0.023617
0.030198 -0.043156 -0.089822
-0.080232 0.078145 0.062483
-0.032584 0.012948 0.099233
0.255106 0.064910 0.076158
0.111825 0.088279 -0.046705
0.379512 -0.092589 -0.036980
0.464681 0.003681 0.099958
-0.265865 0.017077 0.098579
-0.200450 0.095479 -0.029437
-0.191241 -0.031191 -0.094660
0.125610 -0.050128 0.086459
-0.078095 0.088967 0.045717
-0.125881 -0.098523 -0.015253
-0.075329 0.067570 -0.073450
0.296193 0.095485 -0.029419
-0.226529 -0.016471 -0.098275
-0.206964 0.031185 0.095109
-0.224495 -0.016406 0.098648
-0.006087 -0.042797 0.090368
0.229786 -0.072573 0.068686
-0.291219 0.045302 0.089211
0.259008 -0.042372 -0.090218
-0.303862 0.026757 -0.096046
-0.035079 0.088988 -0.045314
-0.030723 0.099949 -0.001593
-0.078699 0.094148 0.033737
-0.014071 -0.046193 -0.088275
0.222043 0.078400 0.062153
0.078517 -0.094509 -0.031724
-0.238749 0.096867 0.025023
-0.164483 -0.062510 0.077957
-0.120752 -0.093520 0.034835
0.428241 0.053649 -0.084151
0.257077 -0.091718 -0.038992
0.056816 0.096566 0.026059
0.037357 0.039565 -0.091534
-0.196117 0.047901 0.087887
-0.405062 0.088204 0.047216
-0.025566 0.037618 -0.092377
0.325167 0.099964 0.001485
0.283646 -0.035546 0.093454
0.172554 0.046252 0.088726
0.157757 -0.045877 0.088799
0.418331 -0.088079 0.047003
0.248955 0.063101 0.077680
0.350029 -0.073396 0.067770
-0.413774 -0.057528 0.081719
0.228244 0.099964 -0.001144
0.244533 -0.016760 -0.098229
-0.246413 -0.089704 0.043813
-0.177632 -0.016993 0.098555
0.207800 -0.093584 0.034658
-0.227062 0.079718 -0.060093
-0.466907 -0.068703 -0.072193
-0.106486 -0.053460 0.084484
0.135577 0.066096 -0.074749
0.022261 0.085952 -0.050811
-0.188290 -0.098653 -0.014430
-0.414374 0.091492 0.040417
0.187272 0.096723 0.025519
0.151045 0.039756 -0.091452
0.229893 -0.099735 0.001356
0.080030 -0.043863 0.089825
-0.368597 0.045694 0.089011
0.420740 0.065104 -0.075624
0.408440 -0.064292 -0.076134
-0.334908 -0.055498 -0.082736
-0.377277 0.078497 -0.061666
-0.327623 0.099674 0.007867
0.029596 0.009967 -0.099172
-0.267296 0.051549 0.085757
-0.086670 -0.084316 -0.053182
0.108166 -0.048550 -0.087030
0.151779 -0.055756 0.082923
-0.305659 -0.058888 0.080766
0.442957 0.086435 0.050358
-0.204602 0.096585 0.025994
0.363425 0.060231 0.079906
-0.166281 -0.067416 0.073743
-0.379690 -0.038106 -0.092065
-0.134897 0.090699 0.042248
-0.402576 -0.059085 -0.080251
0.017565 0.032729 0.094553
-0.364290 0.080794 0.059067
0.005193 -0.094801 0.031277
0.155837 -0.085332 -0.051465
0.327923 -0.020433 -0.097528
0.169480 0.028289 0.095964
0.462238 -0.004640 0.099921
0.296308 -0.080165 0.059578
0.316129 -0.090771 -0.041180
-0.466892 -0.070726 0.070533
-0.208487 0.094493 -0.032416
0.227049 -0.098090 0.018348
-0.070184 -0.095262 -0.029380
0.355389 -0.072065 -0.068831
-0.295884 0.076553 0.064453
-0.097245 -0.015282 -0.098464
-0.206309 -0.040894 0.091221
-0.258628 0.097087 0.024041
-0.180617 0.064054 0.076912
0.177194 -0.069408 -0.071488
0.296252 0.091636 0.040083
-0.435926 0.059116 0.080771
0.259349 0.091621 -0.039756
-0.321681 0.008573 0.099666
0.149990 -0.080313 0.059387
-0.131265 -0.081406 -0.057486
0.368348 -0.038731 -0.091794
0.257131 -0.080388 0.059291
0.177441 -0.093203 0.035716
-0.187350 0.097439 -0.022102
-0.203280 0.051704 0.085665
-0.098714 -0.097860 0.019537
-0.265038 0.007892 -0.099368
-0.399588 -0.023130 -0.096926
0.447049 0.079099 0.061253
-0.051627 -0.063021 0.077561
-0.043949 0.092059 0.039107
0.283119 0.018041 0.098426
-0.126397 -0.086143 0.050456
-0.022461 -0.092784 0.036880
-0.090704 0.052143 0.085405
0.270696 -0.047947 -0.087381
-0.281448 0.099940 0.002251
0.023451 0.044650 -0.089180
-0.349467 0.064082 -0.076525
-0.432011 0.073634 0.067764
-0.141620 -0.097513 -0.020726
0.059445 -0.079132 0.060909
-0.445693 -0.004499 -0.099562
-0.229098 -0.092893 -0.036212
-0.232360 0.013353 -0.098806
-0.303170 -0.031286 -0.094626
0.062441 -0.049586 0.086780
-0.442477 -0.075552 0.065323
0.213819 0.095451 -0.029535
0.100115 0.026588 0.096458
0.024139 0.053552 0.084572
0.458509 -0.037705 -0.092238
0.229683 0.070356 0.071137
-0.130141 0.099227 -0.012236
-0.302086 -0.088693 -0.045434
0.082117 0.046561 0.088569
0.227534 0.096597 0.025954
0.279411 0.038556 -0.091971
0.375550 -0.036735 -0.092658
-0.426235 -0.069467 -0.071429
0.330744 0.099945 -0.001728
0.096494 -0.012639 0.099245
0.026744 0.086287 0.050607
0.089657 0.062191 -0.078023
-0.090447 0.010655 0.099470
0.071006 -0.081629 -0.057158
-0.302221 0.082268 0.056924
0.362132 -0.096425 -0.025377
0.056025 -0.036037 -0.092915
-0.330007 -0.002623 -0.099621
0.196884 -0.099612 0.005265
-0.278746 -0.042438 -0.090188
0.384742 0.041432 -0.090727
-0.259314 0.068791 0.072701
0.301877 0.060670 0.079565
-0.165475 -0.024200 -0.096686
-0.151248 -0.081781 0.057297
0.289938 0.098450 -0.017187
-0.098393 0.080147 0.059902
-0.118873 0.062132 -0.078069
0.135889 -0.077146 -0.063107
0.119083 0.097673 0.021415
-0.412313 0.094731 0.032118
0.079487 -0.016261 -0.098308
0.163302 -0.050806 0.086058
-0.059114 -0.099572 -0.006125
0.391786 0.072372 0.069120
0.378097 -0.002620 0.099984
0.289832 0.095486 -0.029412
-0.112727 0.090801 -0.041650
-0.016203 0.099772 0.006831
-0.399464 -0.053154 0.084670
-0.323359 0.092256 0.038650
-0.035479 -0.030989 0.095095
-0.127355 0.092338 0.038462
-0.175003 0.004839 -0.099559
0.040186 0.011014 -0.099073
0.068880 0.075777 -0.064971
-0.306124 0.100003 0.000238
-0.320660 -0.091071 0.040851
-0.229398 -0.098571 -0.014946
0.107804 -0.033928 -0.093674
0.030401 0.086350 -0.050138
0.001369 -0.086965 -0.048703
0.035586 -0.089365 0.044479
-0.335889 -0.077948 0.062435
-0.393249 0.006620 0.099851
-0.193722 -0.066020 -0.074610
0.088967 0.063951 0.077003
0.379749 -0.069183 -0.071713
-0.404741 -0.027367 -0.095801
-0.315616 -0.094391 0.032414
-0.362974 -0.072386 0.068873
0.461669 0.025300 -0.096470
-0.438925 0.016298 0.098702
0.353931 0.062988 -0.077405
0.418453 -0.076534 0.064210
0.075373 0.011861 -0.098993
-0.434224 0.099359 -0.010840
0.219665 0.013265 -0.098820
0.431879 0.099980 0.000981
0.377513 0.082447 -0.056297
-0.376899 0.079572 0.060643
0.316985 0.099968 -0.001000
0.324961 0.033676 0.094212
0.200458 -0.061512 0.078731
0.383905 -0.000081 -0.099701
0.373673 -0.087302 -0.048134
0.033753 0.099164 -0.012676
0.338385 -0.056749 0.082249
-0.258685 0.084680 0.053325
-0.347999 0.088424 -0.046420
-0.051637 0.027839 -0.095732
0.195169 -0.071967 -0.068929
0.362393 0.001694 0.100020
0.202111 -0.047859 -0.087426
0.128779 -0.065046 0.075832
0.046764 0.099935 0.002428
0.148133 -0.054640 -0.083319
-0.008740 0.007740 -0.099382
-0.194793 0.048385 -0.087265
0.121590 0.099938 0.002325
0.225329 -0.092157 -0.037977
0.001436 0.081107 -0.058269
-0.410463 -0.084559 0.053134
0.319183 -0.018652 -0.097926
-0.134021 0.090901 -0.041419
-0.431058 -0.093490 0.034917
0.027214 0.069656 -0.071474
-0.436226 -0.095258 0.029758
0.323623 0.083058 -0.055397
0.266079 0.062254 0.078337
0.411460 0.050301 0.086495
0.207301 -0.013394 0.099125
0.465339 -0.016690 0.068736
0.465339 -0.070504 -0.013970
0.465339 0.005571 0.066080
0.465339 -0.039085 0.087788
0.465339 -0.064380 0.009318
0.465339 -0.016005 -0.007134
0.465339 0.018924 -0.039786
0.465339 -0.074061 0.042117
0.465339 -0.056765 -0.003670
0.465339 -0.009651 -0.082395
0.465339 -0.016749 0.038452
0.465339 0.081106 -0.011954
0.465339 -0.004862 0.034613
0.465339 -0.064376 -0.069039
0.465339 0.031298 0.011829
0.465339 0.027334 0.092332
0.465339 -0.061772 0.034480
0.465339 -0.052064 0.027290
0.465339 -0.006361 -0.021591
0.465339 -0.011666 0.045009
0.465339 -0.009256 -0.065144
0.465339 0.074764 0.025338
0.465339 -0.043501 0.060179
0.465339 -0.076839 0.010082
0.465339 0.025115 -0.034425
0.465339 -0.059375 -0.067894
0.465339 0.054499 0.012370
0.465339 0.028817 -0.069187
0.465339 0.023681 -0.070159
0.465339 -0.059322 0.031537
0.465339 0.064994 -0.042247
0.465339 0.049492 0.036834
0.465339 -0.037024 0.085667
0.465339 -0.064639 0.045794
0.465339 0.000191 0.049251
0.465339 0.003025 -0.003875
0.465339 0.059248 -0.056616
0.465339 -0.018701 0.011830
0.465339 0.079348 -0.006765
0.465339 -0.009248 -0.029489
0.465339 -0.018860 -0.004694
0.465339 0.068784 -0.032165
0.465339 0.071548 -0.064866
0.465339 -0.022830 -0.026800
0.465339 -0.038558 0.054633
0.465339 -0.017427 0.088883
0.465339 0.019769 -0.054563
0.465339 0.045685 0.072701
0.465339 -0.099346 0.008050
0.465339 -0.005905 -0.039359
0.465339 -0.058555 -0.033531
0.465339 -0.064185 0.039489
0.465339 0.062808 0.038766
0.465339 0.053603 0.077564
0.465339 -0.041253 -0.069926
0.465339 0.045222 -0.085000
0.465339 -0.053964 0.050780
0.465339 0.046413 0.063833
0.465339 0.091263 0.016851
0.465339 0.006100 -0.088011
0.465339 0.032336 -0.017078
0.465339 0.087968 -0.013477
0.465339 -0.054547 -0.006044
0.465339 0.076250 -0.055949
0.465339 0.017297 -0.036334
0.465339 -0.044064 0.045540
0.465339 0.024111 -0.000435
0.465339 0.007164 -0.082458
0.465339 -0.042276 -0.009233
0.465339 0.065310 0.061532
0.465339 0.068686 -0.072161
0.465339 -0.054284 0.056924
0.465339 0.035039 -0.031129
0.465339 0.050148 0.029234
0.465339 -0.003029 -0.061663
0.465339 0.007063 0.040221
0.465339 -0.004049 0.000186
0.465339 0.013008 -0.068160
0.465339 0.020176 -0.023110
0.465339 -0.020853 -0.002277
0.465339 -0.081663 -0.053383
0.465339 -0.029567 0.012925
0.465339 -0.097890 -0.003449
0.465339 -0.034114 -0.049574
0.465339 -0.028169 0.014116
0.465339 -0.071424 0.066933
0.465339 0.073926 -0.050165
0.465339 -0.083367 -0.016037
0.465339 0.042559 -0.000604
0.465339 -0.045771 -0.034879
0.465339 -0.003390 -0.001076
0.465339 -0.024448 -0.031616
0.465339 -0.009132 -0.026696
0.465339 0.097718 0.003277
0.465339 0.036947 0.040236
0.465339 0.014455 0.036578
0.465339 0.005763 0.009410
0.465339 0.040713 0.023143
0.465339 0.018834 0.010264
0.465339 -0.072975 -0.043464
0.465339 -0.075856 -0.057705
0.465339 -0.089468 -0.042919
0.465339 -0.029779 -0.079008
0.465339 0.065368 0.015931
0.465339 0.042437 0.040155
0.465339 0.020370 0.050609
0.465339 -0.044889 -0.076437
0.465339 -0.048594 0.065224
0.465339 0.017948 0.060187
0.465339 0.024233 -0.022040
0.465339 -0.013057 0.003828
0.465339 0.094144 -0.000230
0.465339 0.015765 -0.069409
0.465339 -0.030380 0.052172
0.465339 0.044091 0.080800
0.465339 0.055258 0.003192
0.465339 -0.000865 -0.064658
0.465339 -0.036889 0.062608
0.465339 -0.098779 -0.006897
0.465339 0.007169 -0.099422
0.465339 -0.046425 0.082648
0.465339 -0.008928 0.029239
0.465339 0.057023 0.073320
0.465339 -0.012342 0.091463
0.465339 0.054261 -0.000617
0.465339 0.078251 -0.030062
0.465339 0.047692 0.085797
0.465339 -0.003780 -0.076273
0.465339 -0.003889 -0.018663
0.465339 0.019871 0.032085
0.465339 0.078980 -0.016100
0.465339 -0.027710 0.088000
0.465339 0.060107 0.056254
0.465339 -0.038447 -0.003551
0.465339 0.030699 0.014864
0.465339 -0.002625 -0.040879
0.465339 -0.018223 -0.084175
0.465339 0.034202 -0.091564
0.465339 -0.018350 -0.087934
0.465339 0.055037 -0.038226
0.465339 0.053110 -0.042871
0.465339 -0.034665 0.013969
0.465339 -0.016128 0.036641
0.465339 0.019028 -0.071579
0.465339 -0.026380 0.043065
0.465339 0.033053 -0.045750
0.465339 -0.006979 -0.090553
0.465339 -0.016452 0.032346
0.465339 0.077804 -0.006218
0.465339 0.071220 0.007492
0.465339 -0.038222 0.089338
0.465339 0.009897 0.011498
0.465339 -0.038865 -0.027142
0.465339 0.056178 -0.025604
0.465339 0.005672 -0.083025
0.465339 -0.063968 0.074049
0.465339 -0.056958 -0.079462
0.465339 0.058067 -0.074991
0.465339 -0.018547 -0.067153
0.465339 0.008638 0.013052
0.465339 -0.067936 -0.068794
0.465339 -0.023973 0.021622
0.465339 -0.069429 0.042124
0.465339 0.051162 -0.041194
0.465339 0.007071 -0.044307
0.465339 0.048887 -0.009777
0.465339 -0.040169 0.086452
0.465339 -0.022502 -0.020289
0.465339 -0.053658 -0.070592
0.465339 -0.031624 -0.072321
0.465339 -0.057227 0.071456
0.465339 0.092481 0.016022
0.465339 0.015511 -0.059131
0.465339 0.012257 -0.033887
0.465339 0.055146 -0.077334
0.465339 0.008607 -0.072780
0.465339 0.022473 0.045881
0.465339 0.071775 -0.034685
0.465339 -0.083200 0.031007
0.465339 0.022443 -0.006282
0.465339 -0.015690 -0.016792
0.465339 0.016642 -0.025013
0.465339 -0.057057 0.034321
0.465339 0.034017 -0.026587
0.465339 0.058557 0.065589
0.465339 -0.071036 0.012460
0.465339 0.007993 -0.054852
0.465339 -0.076215 -0.005934
0.465339 0.002726 -0.077863
0.465339 -0.002389 0.032729
0.465339 0.041771 0.064222
0.465339 -0.072837 -0.045032
0.465339 -0.020844 -0.029360
0.465339 0.051840 -0.043776
0.465339 -0.064044 -0.026585
0.465339 -0.068486 0.021800
0.465339 -0.089958 -0.004587
0.465339 -0.059013 -0.041020
0.465339 -0.005541 -0.069231
0.465339 -0.085574 0.026094
0.465339 -0.029814 0.086810
0.465339 0.012973 0.034638
0.465339 0.037507 0.030610
0.465339 -0.073455 -0.039798
0.465339 0.000151 -0.089760
0.465339 -0.034546 0.010650
0.465339 0.065204 -0.055380
0.465339 0.036305 0.020273
0.465339 -0.040709 0.073399
0.465339 -0.029653 -0.046975
0.465339 -0.062802 0.009476
0.465339 -0.029561 0.055218
0.465339 0.091840 0.034116
0.465339 0.031625 0.010048
0.465339 -0.048162 -0.022802
0.465339 -0.046869 -0.006000
0.465339 0.042674 0.005595
0.465339 -0.020354 -0.011994
0.465339 0.010765 0.069423
0.465339 0.055448 -0.064312
0.465339 0.061358 -0.060880
0.465339 -0.057451 -0.014975
0.465339 0.010500 0.098015
0.465339 -0.061684 0.047400
0.465339 -0.038214 -0.009670
0.465339 -0.071797 -0.042601
0.465339 0.067510 -0.027579
0.465339 0.015280 -0.026193
0.465339 0.009382 0.070050
0.465339 -0.045904 0.025615
0.465339 0.079906 -0.048425
0.465339 0.074029 -0.025173
0.465339 -0.001784 -0.048267
0.465339 0.042648 -0.020150
0.465339 -0.046848 -0.058504
0.465339 -0.074974 0.016013
0.465339 0.013005 -0.036634
0.465339 -0.048600 -0.057236
0.465339 -0.022596 -0.077075
0.465339 -0.071307 -0.052182
0.465339 0.087299 0.016306
0.465339 0.009102 -0.061771
0.465339 0.064069 0.031077
0.465339 -0.009649 -0.070291
0.465339 0.001821 0.096385
0.465339 -0.082790 -0.042624
0.465339 0.022453 0.073846
0.465339 -0.071350 0.047276
0.465339 0.082644 0.044594
0.465339 -0.035386 0.021222
0.465339 0.003621 -0.040753
0.465339 -0.050499 -0.000106
0.465339 0.083245 -0.014351
0.465339 0.041267 0.073837
0.465339 -0.042657 0.057199
0.465339 -0.002413 -0.084057
0.465339 -0.040629 -0.067827
0.465339 -0.054235 -0.047583
0.465339 0.076172 -0.031531
0.465339 -0.054691 -0.023034
0.465339 0.079919 -0.034140
0.465339 0.005467 -0.007135
0.465339 0.000382 -0.028650
0.465339 0.064933 0.052356
0.465339 -0.021747 -0.033507
0.465339 0.066325 -0.049746
0.465339 0.000466 -0.071754
0.465339 -0.007042 0.046555
0.465339 0.043524 -0.059455
0.465339 -0.024294 0.071479
0.465339 0.075182 -0.017713
0.465339 0.071437 -0.066808
0.465339 0.097782 0.012544
0.465339 0.049045 0.068061
0.465339 -0.070155 0.062914
0.465339 0.011911 -0.067103
0.465339 -0.018595 -0.076143
0.465339 -0.026693 -0.025664
0.465339 -0.001452 0.072376
0.465339 0.022028 -0.072526
0.465339 0.000862 -0.024959
0.465339 -0.069437 0.045685
0.465339 0.056441 0.014729
0.465339 0.039164 -0.017530
0.465339 0.012362 -0.027629
0.465339 -0.000514 0.040644
0.465339 -0.064529 0.035425
0.465339 0.026064 -0.083056
0.465339 0.008227 0.021426
0.465339 0.071215 -0.042413
0.465339 0.000823 0.079293
0.465339 0.018053 -0.083734
0.465339 0.045377 -0.059207
0.465339 -0.036696 -0.054043
0.465339 0.003990 -0.042909
0.465339 -0.022711 0.012143
0.465339 0.035189 0.061766
0.465339 0.036637 0.075568
0.465339 -0.055310 -0.057122
0.465339 0.041417 0.029025
0.465339 0.042519 -0.035037
0.465339 -0.013396 0.068026
0.465339 0.040643 0.085443
0.465339 0.025034 0.096895
0.465339 -0.001404 -0.068619
0.465339 -0.014634 -0.084814
0.465339 -0.030852 0.050606
0.465339 -0.085488 -0.025467
0.465339 -0.002555 -0.078614
0.465339 -0.032779 0.050780
0.465339 -0.031150 0.015232
0.465339 0.083245 -0.050564
0.465339 0.029941 0.048846
0.465339 -0.026501 -0.089912
0.465339 -0.086837 0.013911
0.465339 -0.060123 -0.036368
0.465339 0.069507 -0.013396
0.465339 0.030814 0.080605
0.465339 0.066089 0.044031
0.465339 -0.035529 -0.056517
0.465339 -0.032269 0.009064
0.465339 0.076371 -0.015210
0.465339 -0.014943 0.007090
0.465339 0.046533 -0.004669
0.465339 0.001107 -0.034067
0.465339 -0.096307 0.019038
0.465339 0.044609 0.030631
0.465339 -0.006292 -0.074422
0.465339 -0.045868 -0.055460
0.465339 0.014986 0.069705
0.465339 0.086105 -0.019847
0.465339 -0.058101 -0.053584
0.465339 -0.068590 0.046772
0.465339 -0.054833 0.049376
0.465339 0.065255 0.008568
0.465339 -0.055637 0.041026
0.465339 -0.082019 -0.002294
0.465339 0.058927 -0.073655
0.465339 -0.030889 0.059362
0.465339 -0.091626 0.029275
0.465339 -0.047947 -0.070457
0.465339 -0.003392 -0.052538
0.465339 -0.003414 0.003824
0.465339 -0.024582 0.039198
0.465339 -0.069724 0.030321
0.465339 0.040426 0.008744
0.465339 0.024737 -0.066815
0.465339 0.082516 0.005535
0.465339 -0.094652 0.001618
0.465339 -0.011869 -0.031152
0.465339 -0.006693 -0.007948
0.465339 0.000158 -0.038193
0.465339 -0.084762 -0.029106
0.465339 0.074509 -0.056000
0.465339 0.098156 0.014504
0.465339 0.026983 0.044810
0.465339 0.046520 -0.039182
0.465339 0.055855 0.057755
0.465339 -0.013750 -0.061612
0.465339 0.034287 0.064390
0.465339 -0.006697 0.048018
0.465339 0.041010 -0.001495
0.465339 -0.000977 -0.033679
0.465339 -0.036301 0.010337
0.465339 -0.031279 -0.022327
0.465339 -0.009061 0.005237
0.465339 0.051045 0.061468
0.465339 0.032498 0.050206
0.465339 0.010834 0.060693
0.465339 0.020483 0.006102
0.465339 -0.069421 0.024610
0.465339 -0.043291 0.027762
0.465339 -0.055006 -0.054820
0.465339 0.080215 -0.040509
0.465339 -0.074681 0.028641
0.465339 0.011493 -0.043170
0.465339 -0.044561 -0.087909
0.465339 0.064047 -0.036945
0.465339 0.010317 -0.097972
0.465339 0.020320 -0.088408
0.465339 -0.045043 0.034383
0.465339 0.010581 0.048156
0.465339 -0.001261 0.034068
0.465339 0.000921 -0.057730
0.465339 0.020942 -0.064201
0.465339 -0.081382 0.037045
0.465339 -0.060910 -0.058427
0.465339 0.031708 -0.013510
0.465339 -0.033542 0.073352
0.465339 0.027843 0.082906
0.465339 -0.031093 0.080530
0.465339 -0.005310 0.069911
0.465339 0.032396 -0.040500
0.465339 0.046858 0.050060
0.465339 0.049762 -0.073833
0.465339 -0.013341 0.021466
0.465339 -0.054570 0.068398
0.465339 0.060983 0.008257
0.465339 0.042361 0.031745
0.465339 0.016658 0.073449
0.465339 0.003875 -0.015396
0.465339 -0.007583 0.079794
0.465339 0.050817 -0.068844
0.465339 0.051608 -0.065589
0.465339 -0.028765 -0.076451
0.465339 0.008641 0.092785
0.465339 0.004250 -0.048659
0.465339 -0.070845 0.057361
0.465339 0.061740 -0.025425
0.465339 0.090286 -0.011316
0.465339 -0.092784 0.021656
0.465339 -0.060032 -0.007170
0.465339 0.026453 0.025906
0.465339 0.062566 0.020018
0.465339 -0.023896 -0.050621
0.465339 0.081656 -0.001708
0.465339 -0.059140 -0.069416
0.465339 0.035309 0.017920
0.465339 -0.027870 0.004374
0.465339 0.061338 0.020993
0.465339 0.022975 -0.035534
0.465339 -0.008881 0.052431
0.465339 -0.045934 -0.068499
0.465339 -0.006455 0.066047
0.465339 -0.011360 0.097606
0.465339 -0.098289 -0.016674
0.465339 0.057097 -0.014251
0.465339 -0.032275 -0.055711
0.465339 -0.084181 0.040273
0.465339 0.001560 0.011739
0.465339 0.071935 -0.009817
0.465339 0.000412 0.094699
0.465339 0.066035 -0.065639
0.465339 0.029871 -0.073189
0.465339 -0.087489 -0.016927
0.465339 0.013053 -0.014127
0.465339 -0.018110 -0.070872
0.465339 0.052151 0.072862
0.465339 -0.091757 0.025009
0.465339 -0.003110 0.011944
0.465339 -0.042275 -0.047017
0.465339 -0.092382 -0.014856
0.465339 0.033132 -0.089204
0.465339 -0.053711 -0.025555
0.465339 -0.000165 -0.000953
0.465339 0.067205 0.020334
0.465339 0.012129 0.042411
0.465339 -0.040133 -0.072430
0.465339 -0.047970 -0.020904
0.465339 0.018318 -0.035391
0.465339 0.022653 -0.049108
0.465339 -0.024897 -0.084010
0.465339 0.003119 -0.071712
0.465339 -0.045596 0.057662
0.465339 0.062655 0.017432
0.465339 -0.088367 0.034530
0.465339 -0.001917 0.057601
0.465339 0.037081 -0.030989
0.465339 -0.071826 -0.013465
0.465339 -0.052848 0.080031
0.465339 -0.073575 -0.038329
0.465339 0.057128 0.003525
0.465339 0.023240 -0.071648
0.465339 0.050516 -0.050908
0.465339 -0.003790 0.026961
0.465339 -0.082276 0.048718
0.465339 0.007607 0.094129
0.465339 -0.047037 -0.032681
0.465339 0.005068 0.092363
0.465339 -0.008773 -0.053455
0.465339 -0.042598 -0.061946
0.465339 -0.058568 -0.014038
0.465339 0.022092 -0.002084
0.465339 0.054358 0.048690
0.465339 0.083244 -0.040013
0.465339 0.073970 -0.041269
0.465339 0.008597 -0.034816
0.465339 -0.001010 0.027947
0.465339 -0.014131 -0.049441
0.465339 -0.041690 0.080279
0.465339 -0.028973 0.079093
0.465339 -0.063964 -0.073850
0.465339 0.000181 0.074691
0.465339 -0.090891 0.041225
0.465339 0.001779 0.027417
0.465339 0.020129 0.035331
0.465339 0.046372 -0.083784
0.465339 -0.030176 0.019864
0.465339 -0.052825 0.060951
0.465339 0.047200 0.077732
0.465339 -0.079208 -0.008287
0.465339 -0.071506 0.013976
0.465339 0.041874 -0.028057
0.465339 0.091576 -0.028003
0.465339 0.015338 -0.005394
0.465339 0.029465 -0.055917
0.465339 0.047744 -0.040243
0.465339 -0.013216 -0.076352
0.465339 0.025842 -0.012844
0.465339 0.018675 -0.001971
0.465339 0.069013 -0.018467
0.465339 0.066152 0.058872
0.465339 0.019785 0.090428
0.465339 -0.049977 0.014798
0.465339 -0.025257 0.065675
0.465339 -0.037846 0.053298
0.465339 0.034739 -0.088059
0.465339 -0.053728 -0.037685
0.465339 0.035022 0.080278
0.465339 0.031888 0.026897
0.465339 -0.005450 0.082859
0.465339 -0.049415 -0.021659
0.465339 -0.067810 0.054440
0.465339 0.016516 0.077306
0.465339 0.011011 0.055429
0.465339 -0.027244 -0.030454
0.465339 -0.031091 0.016647
0.465339 0.092085 -0.000563
0.465339 -0.018966 -0.000886
0.465339 0.035646 -0.029346
0.465339 0.058182 -0.039093
0.465339 -0.031301 0.034817
0.465339 0.069060 0.039800
0.465339 -0.074370 -0.054547
0.465339 0.061407 0.022531
0.465339 0.036988 -0.087494
0.465339 0.021859 -0.047430
0.465339 -0.023268 -0.030779
0.465339 0.048082 -0.058207
0.465339 0.009173 0.008536
0.465339 -0.050280 0.078675
0.465339 -0.029473 0.031822
0.465339 0.019066 -0.024270
0.465339 0.086367 0.019353
0.465339 0.096220 -0.011276
0.465339 0.015540 -0.008527
0.465339 0.069384 -0.004390
0.465339 -0.028933 0.051166
0.465339 -0.032787 -0.061334
0.465339 0.040547 -0.065449
0.465339 -0.069308 -0.034704
0.465339 0.033770 -0.071623
0.465339 0.070833 0.010851
0.465339 0.057140 -0.010417
0.465339 -0.049666 0.081840
0.465339 0.005998 0.058763
0.465339 0.001904 0.094408
0.465339 -0.054718 -0.061340
0.465339 0.001855 0.037116
0.465339 -0.071128 -0.061563
0.465339 -0.046845 0.011172
0.465339 0.048098 0.015204
0.465339 -0.000642 0.052023
0.465339 0.032750 0.064356
0.465339 -0.050825 -0.081930
0.465339 -0.008669 -0.047038
0.465339 0.075972 0.032957
0.465339 -0.028737 -0.086835
0.465339 0.039280 -0.026170
0.465339 -0.032546 0.005801
0.465339 -0.052588 -0.054517
0.465339 0.085893 -0.034149
0.465339 -0.015225 0.035095
0.465339 0.012268 0.062599
0.465339 0.042587 0.066796
0.465339 -0.025309 -0.012392
0.465339 0.052638 -0.030552
0.465339 -0.088626 0.015226
0.465339 0.056703 -0.038920
0.465339 -0.082511 -0.036190
0.465339 0.067903 -0.043043
0.465339 0.034877 0.070899
0.465339 0.032980 0.068957
0.465339 0.053043 0.069034
0.465339 -0.016734 0.080144
0.465339 -0.009815 0.000005
0.465339 0.057063 -0.044200
0.465339 -0.063510 -0.041150
0.465339 0.063047 -0.069051
0.465339 0.006193 -0.097363
0.465339 0.061560 0.018815
0.465339 0.046043 -0.055937
0.465339 -0.029388 0.088584
0.465339 0.033824 -0.025004
0.465339 0.009553 -0.018939
0.465339 0.004985 -0.090422
0.465339 -0.009599 0.036451
0.465339 -0.007677 0.063687
0.465339 0.068750 -0.008524
0.465339 -0.042902 0.037623
0.465339 0.092724 0.031542
0.465339 0.074981 -0.045679
0.465339 -0.083246 0.002855
0.465339 -0.063713 -0.005085
0.465339 0.018025 -0.013576
0.465339 0.095336 -0.023757
0.465339 0.043964 -0.030837
0.465339 -0.036727 -0.081420
0.465339 -0.049526 -0.070411
0.465339 0.035570 0.000946
0.465339 -0.020155 -0.050007
0.465339 0.047821 -0.035137
0.465339 0.023422 0.082977
0.465339 0.058098 0.013706
0.465339 -0.028183 -0.072495
0.465339 -0.056197 0.015708
0.465339 -0.021602 0.030813
0.465339 -0.084388 -0.042239
0.465339 -0.080132 0.059166
0.465339 0.058447 0.067235
0.465339 0.009908 -0.002563
0.465339 -0.068455 0.016744
0.465339 0.038795 -0.069392
0.465339 0.031230 0.055895
0.465339 0.004548 0.047073
0.465339 -0.042173 0.042413
0.465339 -0.049473 -0.061495
0.465339 -0.072110 -0.010464
0.465339 -0.019258 -0.059670
0.465339 0.022188 0.035761
0.465339 0.055147 -0.016895
0.465339 -0.062083 -0.000741
0.465339 0.020100 0.085814
0.465339 0.034657 -0.007334
0.465339 -0.035299 0.007721
0.465339 -0.067818 0.068519
0.465339 -0.033896 -0.076285
0.465339 0.068889 -0.000255
0.465339 0.058114 0.029135
0.465339 -0.095358 -0.010586
0.465339 -0.009618 -0.051875
0.465339 -0.013355 0.000970
0.465339 0.074229 0.057371
0.465339 -0.013087 0.010985
0.465339 0.081477 0.031716
0.465339 -0.025132 0.023793
0.465339 -0.066321 -0.011436
0.465339 0.005470 -0.037609
0.465339 -0.054494 0.037867
0.465339 -0.068220 0.039735
0.465339 0.015339 0.096295
0.465339 0.030896 0.064052
0.465339 0.053812 -0.022958
0.465339 -0.037485 -0.074403
0.465339 -0.005090 0.003046
0.465339 -0.005695 0.013259
0.465339 -0.007098 0.060598
0.465339 -0.029636 -0.071791
0.465339 0.054578 -0.083096
0.465339 -0.061376 0.028048
0.465339 0.077115 -0.032796
0.465339 0.019513 0.070416
0.465339 -0.001330 -0.089816
0.465339 -0.053903 -0.032397
0.465339 -0.097673 0.008859
0.465339 -0.077574 0.032236
0.465339 -0.089005 -0.044260
0.465339 0.095253 0.018700
0.465339 0.049329 -0.085345
