-0.466955 -0.074078 0.038283
-0.466955 -0.047459 0.048006
-0.466955 -0.037095 -0.092210
-0.466955 -0.041106 -0.055869
-0.466955 -0.023561 -0.024322
-0.466955 -0.041574 0.066891
-0.466955 -0.053657 0.083564
-0.466955 0.006360 -0.022796
-0.466955 -0.075042 0.056152
-0.466955 0.026343 0.032012
-0.466955 -0.017840 -0.061195
-0.466955 -0.080105 -0.000270
-0.466955 -0.028057 0.069946
-0.466955 0.027754 0.094483
-0.466955 0.047492 -0.003523
-0.466955 -0.047636 0.016550
-0.466955 0.034714 -0.008938
-0.466955 -0.053751 -0.078108
-0.466955 0.018120 -0.095367
-0.466955 -0.007448 0.092403
-0.466955 0.068309 -0.005255
-0.466955 0.057850 -0.037440
-0.466955 -0.015268 -0.035874
-0.466955 0.037125 0.040217
-0.466955 -0.034598 -0.029188
-0.466955 -0.075653 0.029718
-0.466955 0.020886 -0.060819
-0.466955 0.018154 -0.015239
-0.466955 0.007676 -0.025627
-0.466955 0.040293 0.057024
-0.466955 -0.003895 -0.091738
-0.466955 -0.075680 -0.060406
-0.466955 -0.072627 0.029297
-0.466955 0.030745 -0.038592
-0.466955 0.018966 -0.062824
-0.466955 -0.018322 -0.023799
-0.466955 -0.036154 -0.008071
-0.466955 -0.000406 -0.077219
-0.466955 -0.021158 0.045831
-0.466955 -0.070821 -0.032853
-0.466955 -0.037280 -0.028847
-0.466955 0.073786 0.025097
-0.466955 0.028649 0.092294
-0.466955 -0.022642 -0.038417
-0.466955 -0.066349 0.048873
-0.466955 0.023707 0.084623
-0.466955 0.086708 -0.017747
-0.466955 0.012394 -0.059631
-0.466955 0.041344 -0.083313
-0.466955 -0.051879 -0.000483
-0.466955 0.013881 0.016014
-0.466955 -0.063660 -0.061227
-0.466955 0.003964 -0.054214
-0.466955 -0.007119 0.005639
-0.466955 -0.074780 -0.016680
-0.466955 -0.021203 -0.038936
-0.466955 -0.022429 -0.076935
-0.466955 -0.054991 0.048471
-0.466955 0.038351 -0.069467
-0.466955 -0.051428 -0.054221
-0.466955 0.011168 0.024534
-0.466955 -0.068712 0.002263
-0.466955 -0.061016 0.023238
-0.466955 0.031959 -0.048006
-0.466955 0.066235 0.046504
-0.466955 0.027443 -0.063369
-0.466955 -0.041036 -0.050864
-0.466955 0.056147 0.075147
-0.466955 0.054155 -0.011238
-0.466955 -0.020470 -0.010610
-0.466955 -0.005927 -0.065489
-0.466955 0.018525 -0.041791
-0.466955 0.019282 -0.034512
-0.466955 0.033072 -0.058211
-0.466955 -0.091728 0.007220
-0.466955 0.088782 0.038697
-0.466955 0.031363 -0.042494
-0.466955 -0.002559 -0.047981
-0.466955 -0.070038 0.040515
-0.466955 -0.012871 -0.058108
-0.466955 -0.049530 -0.027255
-0.466955 -0.072379 -0.025893
-0.466955 0.019423 0.045864
-0.466955 -0.010991 -0.059521
-0.466955 -0.016612 0.028816
-0.466955 0.079312 -0.013380
-0.466955 0.078119 0.049279
-0.466955 0.095388 -0.015189
-0.466955 0.022384 0.051722
-0.466955 0.012292 0.022055
-0.466955 -0.009892 0.016482
-0.466955 -0.048050 0.046517
-0.466955 -0.056600 -0.051409
-0.466955 0.035670 0.016369
-0.466955 -0.082325 -0.007204
-0.466955 -0.088070 -0.035579
-0.466955 0.025067 -0.056216
-0.466955 0.053001 -0.080414
-0.466955 -0.059814 0.012941
-0.466955 -0.033212 0.023847
-0.466955 0.088031 -0.038934
-0.466955 0.074654 0.059251
-0.466955 -0.043461 0.079258
-0.466955 0.030589 0.044988
-0.466955 -0.057271 -0.034348
-0.466955 0.049672 -0.072720
-0.466955 -0.016846 0.059860
-0.466955 -0.008500 0.056535
-0.466955 0.047691 0.084395
-0.466955 -0.012366 0.013372
-0.466955 0.048644 -0.020875
-0.466955 -0.068492 -0.042605
-0.466955 0.052110 0.008225
-0.466955 0.080887 0.002524
-0.466955 0.056536 -0.034512
-0.466955 0.019048 -0.032708
-0.466955 -0.038367 -0.085131
-0.466955 -0.041767 0.078619
-0.466955 0.074813 -0.039369
-0.466955 0.078148 0.044464
-0.466955 0.042655 0.023159
-0.466955 -0.065974 0.050569
-0.466955 -0.007702 0.058095
-0.466955 -0.092477 -0.035940
-0.466955 0.035652 0.014728
-0.466955 -0.064799 -0.016241
-0.466955 0.011115 0.004000
-0.466955 -0.029272 0.077309
-0.466955 -0.096701 0.013457
-0.466955 0.010582 -0.085995
-0.466955 -0.051166 -0.026637
-0.466955 -0.035908 0.064152
-0.466955 -0.032473 0.009244
-0.466955 0.061909 -0.058586
-0.466955 0.041644 -0.059444
-0.466955 -0.020871 0.024097
-0.466955 0.088890 -0.015099
-0.466955 -0.057474 -0.044783
-0.466955 -0.017220 0.058133
-0.466955 0.013805 0.032392
-0.466955 0.047329 -0.008513
-0.466955 -0.081753 -0.042971
-0.466955 -0.011943 -0.026792
-0.466955 -0.025640 -0.068924
-0.466955 -0.022112 -0.021105
-0.466955 0.074684 -0.027423
-0.466955 -0.032925 0.037963
-0.466955 0.000543 -0.013563
-0.466955 -0.022202 -0.004762
-0.466955 0.028727 0.042476
-0.466955 0.035853 -0.083802
-0.466955 -0.041775 -0.003168
-0.466955 -0.053993 0.061018
-0.466955 -0.009027 0.072414
-0.466955 0.016484 0.096576
-0.466955 -0.021867 0.018447
-0.466955 0.083346 -0.044209
-0.466955 0.032530 0.087097
-0.466955 0.026134 0.018657
-0.466955 -0.032944 0.070014
-0.466955 0.013624 0.083393
-0.466955 0.003716 0.025745
-0.466955 0.041748 0.043899
-0.466955 -0.050478 0.082054
-0.466955 0.034205 0.093954
-0.466955 0.023041 0.049964
-0.466955 -0.060686 -0.076496
-0.466955 -0.021129 -0.086121
-0.466955 -0.018314 -0.016974
-0.466955 0.075718 -0.050369
-0.466955 0.033843 0.010123
-0.466955 0.055392 -0.067566
-0.466955 -0.033484 -0.004895
-0.466955 0.042528 -0.024586
-0.466955 0.061628 0.038189
-0.466955 -0.059978 0.063888
-0.466955 -0.049644 -0.047421
-0.466955 -0.029792 0.059402
-0.466955 -0.051508 -0.052705
-0.466955 -0.050587 -0.032642
-0.466955 -0.029821 0.036678
-0.466955 -0.098873 0.004090
-0.466955 -0.027123 0.043655
-0.466955 -0.014892 -0.058264
-0.466955 0.033455 0.030525
-0.466955 0.036542 -0.004106
-0.466955 0.053655 0.021906
-0.466955 -0.052882 -0.054720
-0.466955 -0.060657 0.073595
-0.466955 -0.031986 -0.001798
-0.466955 -0.029193 0.039457
-0.466955 0.030734 0.017525
-0.466955 -0.031870 -0.084583
-0.466955 -0.037223 0.050662
-0.466955 -0.021007 0.092907
-0.466955 0.071081 0.067993
-0.466955 0.040428 -0.032386
-0.466955 0.027923 -0.012648
-0.466955 -0.022155 0.087303
-0.466955 0.039586 0.024037
-0.466955 0.057017 0.034759
-0.466955 0.017054 0.041097
-0.466955 0.094211 -0.032291
-0.466955 0.007144 0.050170
-0.466955 0.056323 0.025713
-0.466955 0.033201 -0.055798
-0.466955 -0.048366 -0.029689
-0.466955 0.040246 -0.049185
-0.466955 0.005589 -0.001194
-0.466955 -0.019619 -0.036838
-0.466955 -0.052315 0.065364
-0.466955 -0.028441 -0.038785
-0.466955 0.011512 -0.096936
-0.466955 0.038647 0.084678
-0.466955 -0.050546 -0.051710
-0.466955 -0.034437 -0.043460
-0.466955 0.032876 -0.051222
-0.466955 0.062254 0.058911
-0.466955 -0.042213 -0.063795
-0.466955 -0.023093 0.003934
-0.466955 -0.001322 0.015859
-0.466955 0.042595 -0.089945
-0.466955 -0.014011 0.084586
-0.466955 0.033552 0.052243
-0.466955 0.021365 -0.056844
-0.466955 -0.056327 -0.047804
-0.466955 -0.010132 -0.009037
-0.466955 0.040805 0.081311
-0.466955 0.004798 -0.010859
-0.466955 -0.015284 0.004278
-0.466955 -0.005515 -0.032611
-0.466955 0.072834 0.016429
-0.466955 0.022183 0.081979
-0.466955 0.074263 -0.028719
-0.466955 0.010706 -0.048537
-0.466955 0.073263 0.044290
-0.466955 0.086682 -0.027637
-0.466955 0.046972 0.068252
-0.466955 -0.007224 -0.040156
-0.466955 -0.002641 0.078329
-0.466955 -0.066611 0.033206
-0.466955 0.029056 0.022874
-0.466955 -0.014578 -0.082039
-0.466955 -0.075085 -0.008079
-0.466955 -0.068420 0.032940
-0.466955 0.075383 -0.060980
-0.466955 -0.030438 -0.075697
-0.466955 -0.069003 0.015189
-0.466955 0.051208 0.005506
-0.466955 0.050795 -0.024458
-0.466955 0.064096 -0.033572
-0.466955 -0.080521 0.047232
-0.466955 -0.087601 -0.018560
-0.466955 0.002648 0.047521
-0.466955 0.038762 -0.037365
-0.466955 0.001018 -0.068992
-0.466955 0.035981 -0.059078
-0.466955 -0.010246 0.042968
-0.466955 0.061987 -0.062427
-0.466955 -0.023710 -0.066769
-0.466955 -0.080506 0.014903
-0.466955 -0.013470 0.035827
-0.466955 -0.043536 0.045408
-0.466955 -0.073241 -0.058839
-0.466955 -0.052582 0.017811
-0.466955 -0.012353 0.088882
-0.466955 0.027158 -0.004166
-0.466955 -0.044890 0.020237
-0.466955 0.008856 -0.016660
-0.466955 0.077646 -0.039228
-0.466955 -0.000965 -0.027784
-0.466955 -0.036953 -0.038870
-0.466955 -0.014949 -0.023940
-0.466955 0.021276 -0.093579
-0.466955 -0.079379 0.007056
-0.466955 -0.040259 0.057347
-0.466955 -0.004081 0.078291
-0.466955 -0.094338 0.020703
-0.466955 0.040405 0.030427
-0.466955 0.090525 0.029882
-0.466955 -0.020618 -0.055551
-0.466955 0.076341 -0.014141
-0.466955 -0.030841 0.070344
-0.466955 0.052375 -0.070534
-0.466955 0.052387 0.055051
-0.466955 -0.069785 0.019706
-0.466955 -0.020650 -0.097396
-0.466955 -0.019570 -0.075494
-0.466955 0.000556 0.008996
-0.466955 0.031933 0.063446
-0.466955 -0.093485 -0.004166
-0.466955 0.015915 -0.055270
-0.466955 0.041964 -0.002810
-0.466955 -0.007931 0.067387
-0.466955 -0.048641 0.085592
-0.466955 0.079721 0.053180
-0.466955 -0.039107 -0.041721
-0.466955 0.015775 0.076125
-0.466955 -0.045717 0.077450
-0.466955 0.045427 -0.055693
-0.466955 0.048680 0.024031
-0.466955 0.006987 -0.088155
-0.466955 -0.015420 0.012020
-0.466955 0.031891 -0.015041
-0.466955 -0.089066 -0.034398
-0.466955 0.070467 0.048679
-0.466955 0.069597 -0.005716
-0.466955 0.090971 -0.020898
-0.466955 -0.038056 -0.018148
-0.466955 0.029030 -0.019571
-0.466955 0.042109 0.047294
-0.466955 -0.027922 -0.042593
-0.466955 -0.024108 -0.031881
-0.466955 0.033360 0.074668
-0.466955 -0.019048 -0.043877
-0.466955 -0.043142 0.001325
-0.466955 -0.029050 -0.084509
-0.466955 -0.058088 -0.022441
-0.466955 -0.019149 0.004470
-0.466955 0.039699 0.091107
-0.466955 -0.040176 0.014181
-0.466955 -0.010450 0.067771
-0.466955 -0.030355 -0.064971
-0.466955 0.067624 -0.011790
-0.466955 0.053902 0.072349
-0.466955 -0.020249 0.052812
-0.466955 -0.039701 0.034807
-0.466955 0.071387 0.016370
-0.466955 0.018807 -0.003061
-0.466955 -0.054396 -0.012955
-0.466955 0.013213 -0.036845
-0.466955 0.011456 -0.018466
-0.466955 0.046506 0.070416
-0.466955 -0.047295 0.045149
-0.466955 -0.042068 -0.076594
-0.466955 0.011585 0.085268
-0.466955 0.032039 -0.086901
-0.466955 -0.046308 -0.054366
-0.466955 -0.044192 0.003914
-0.466955 -0.073151 0.026526
-0.466955 0.029617 0.031137
-0.466955 0.020441 0.032199
-0.466955 -0.003129 0.095523
-0.466955 0.048986 0.075601
-0.466955 -0.038755 -0.063554
-0.466955 -0.086691 0.013987
-0.466955 0.010143 -0.046705
-0.466955 0.051286 -0.049836
-0.466955 0.047238 -0.033602
-0.466955 0.047592 0.048789
-0.466955 -0.052053 -0.061582
-0.466955 0.031715 -0.083644
-0.466955 0.016714 0.091293
-0.466955 -0.076117 0.026933
-0.466955 -0.032496 0.087898
-0.466955 -0.041990 0.000359
-0.466955 0.003649 -0.017216
-0.466955 0.067525 -0.056843
-0.466955 -0.076607 -0.029952
-0.466955 0.002196 0.021405
-0.466955 0.042925 0.021591
-0.466955 -0.032724 0.059692
-0.466955 0.084967 0.035496
-0.466955 -0.052613 0.078907
-0.466955 0.031518 -0.040970
-0.466955 0.071647 0.066625
-0.466955 0.012756 -0.030323
-0.466955 -0.064315 0.018573
-0.466955 -0.018632 -0.085028
-0.466955 0.036049 -0.090050
-0.466955 -0.056165 -0.021171
-0.466955 0.090696 0.014299
-0.466955 0.072213 -0.032868
-0.466955 0.021449 0.091373
-0.466955 -0.052499 0.081930
-0.466955 0.041702 -0.049047
-0.466955 -0.006649 -0.009489
-0.466955 0.030138 0.050233
-0.466955 -0.060938 -0.002252
-0.466955 -0.040021 -0.048066
-0.466955 0.002806 0.095597
-0.466955 0.024906 -0.067648
-0.466955 -0.037048 -0.086187
-0.466955 -0.019091 -0.007650
-0.466955 -0.024986 0.072314
-0.466955 -0.034482 -0.053633
-0.466955 0.023035 -0.057868
-0.466955 -0.017396 0.087409
-0.466955 -0.003083 0.016004
-0.466955 0.017383 -0.062664
-0.466955 0.050358 -0.078761
-0.466955 -0.081003 0.017656
-0.466955 0.034567 0.040986
-0.466955 -0.012596 0.017355
-0.466955 0.006926 0.074787
-0.466955 0.076200 0.059173
-0.466955 0.077105 0.008900
-0.466955 0.045391 -0.041486
-0.466955 -0.084721 0.040051
-0.466955 -0.056819 0.052849
-0.466955 -0.028678 -0.066043
-0.466955 -0.030119 -0.094985
-0.466955 -0.008146 -0.085113
-0.466955 -0.039220 0.009953
-0.466955 0.034832 -0.067623
-0.466955 0.042286 0.004271
-0.466955 0.078629 0.020811
-0.466955 -0.074080 0.032552
-0.466955 -0.012040 0.096936
-0.466955 0.036419 0.041542
-0.466955 -0.069219 -0.053972
-0.466955 -0.028729 0.035626
-0.466955 0.015260 0.018434
-0.466955 -0.026869 0.012484
-0.466955 -0.046167 0.043460
-0.466955 -0.039866 0.028031
-0.466955 -0.025024 -0.039532
-0.466955 0.050969 -0.019382
-0.466955 -0.016857 0.071730
-0.466955 0.049671 0.020242
-0.466955 -0.060912 0.055759
-0.466955 -0.029593 -0.074264
-0.466955 -0.039822 -0.046732
-0.466955 -0.052871 -0.056491
-0.466955 0.009446 -0.044364
-0.466955 0.069827 -0.037932
-0.466955 0.077653 -0.050710
-0.466955 -0.017889 -0.081830
-0.466955 -0.011056 0.083465
-0.466955 0.091228 0.012744
-0.466955 0.081020 0.021816
-0.466955 -0.085597 0.036014
-0.466955 0.045774 -0.023797
-0.466955 0.009330 -0.060734
-0.466955 0.028761 -0.073044
-0.466955 0.084406 0.047705
-0.466955 0.074667 -0.049087
-0.466955 0.033691 0.046479
-0.466955 -0.037955 0.013048
-0.466955 -0.029325 -0.052613
-0.466955 -0.084830 -0.047240
-0.466955 0.008787 0.082428
-0.466955 -0.076128 0.000474
-0.466955 0.034065 0.016801
-0.466955 0.024000 -0.003952
-0.466955 -0.006959 0.056563
-0.466955 0.074771 0.052334
-0.466955 -0.051898 -0.057957
-0.466955 0.039615 0.006492
-0.466955 -0.024817 0.093654
-0.466955 0.025994 0.083649
-0.466955 0.024458 -0.034732
-0.466955 0.066421 0.013147
-0.466955 -0.021652 0.037139
-0.466955 0.006720 0.014041
-0.466955 -0.089818 0.038886
-0.466955 -0.007568 -0.028838
-0.466955 0.012030 0.089382
-0.466955 0.089787 0.031167
-0.466955 -0.043328 -0.042768
-0.466955 -0.042391 -0.060377
-0.466955 0.048839 0.081948
-0.466955 0.022126 0.086788
-0.466955 -0.010027 0.034950
-0.466955 0.036613 0.032402
-0.466955 -0.096584 -0.007772
-0.466955 0.015215 -0.026416
-0.466955 0.014218 -0.046732
-0.466955 -0.076937 -0.008767
-0.466955 0.033048 -0.033918
-0.466955 -0.066255 0.062852
-0.466955 0.021486 0.019786
-0.466955 0.049955 -0.053193
-0.466955 -0.034421 -0.080249
-0.466955 -0.005663 0.033361
-0.466955 -0.065410 0.064187
-0.466955 0.007602 0.001430
-0.466955 -0.013618 -0.097787
-0.466955 0.000999 0.088364
-0.466955 -0.047128 0.040865
-0.466955 -0.046221 0.074912
-0.466955 -0.075038 -0.051811
-0.466955 -0.039515 -0.039074
-0.466955 0.013555 -0.084136
-0.466955 -0.083039 -0.052271
-0.466955 0.002665 -0.069750
-0.466955 -0.052006 0.071341
-0.466955 0.045145 -0.025228
-0.466955 0.011379 -0.029764
-0.466955 -0.095347 0.028422
-0.466955 0.082092 0.039721
-0.466955 -0.038341 0.067196
-0.466955 0.040459 -0.014366
-0.466955 0.044135 -0.026615
-0.466955 -0.085677 0.002119
-0.466955 0.009446 -0.077638
-0.466955 -0.049077 0.016686
-0.466955 -0.074267 -0.014386
-0.466955 -0.017416 -0.006433
-0.466955 0.049879 0.021854
-0.466955 -0.062075 -0.016572
-0.466955 -0.031239 -0.050611
-0.466955 -0.026495 -0.057718
-0.466955 0.043006 -0.053209
-0.466955 -0.091089 -0.010196
-0.466955 0.011802 0.065785
-0.466955 0.059546 -0.001201
-0.466955 -0.027060 -0.064593
-0.466955 0.022556 0.026347
-0.466955 -0.071711 -0.060354
-0.466955 -0.096193 0.011910
-0.466955 0.085004 -0.033202
-0.466955 -0.070478 0.029302
-0.466955 0.042298 -0.026289
-0.466955 -0.015806 0.022601
-0.466955 0.057811 -0.052817
-0.466955 0.016776 0.066830
-0.466955 -0.038061 -0.014842
-0.466955 0.045921 -0.072123
-0.466955 0.014102 -0.039787
-0.466955 -0.067531 -0.012793
-0.466955 0.052077 -0.078889
-0.466955 -0.032099 -0.065340
-0.466955 -0.092164 -0.003320
-0.466955 0.059839 0.080168
-0.466955 -0.070556 -0.046509
-0.466955 -0.049025 -0.086253
-0.466955 0.067984 0.067457
-0.466955 -0.002734 0.059250
-0.466955 0.050026 -0.047212
-0.466955 0.092883 0.030085
-0.466955 0.076610 0.055044
-0.466955 0.008776 0.067281
-0.466955 0.068865 -0.013284
-0.466955 -0.025961 -0.010378
-0.466955 -0.049968 -0.071505
-0.466955 -0.060931 0.045250
-0.466955 0.023445 0.037360
-0.466955 0.085134 0.049942
-0.466955 -0.038388 0.008845
-0.466955 0.003620 0.045028
-0.466955 0.055258 0.069912
-0.466955 0.072691 -0.066109
-0.466955 0.069956 -0.023645
-0.466955 0.089000 0.008378
-0.466955 0.032329 0.023158
-0.466955 -0.046931 -0.008140
-0.466955 -0.020991 -0.026205
-0.466955 -0.057953 0.064314
-0.466955 -0.005830 -0.039561
-0.466955 -0.006025 0.083701
-0.466955 0.016248 0.054442
-0.466955 0.058162 -0.000050
-0.466955 -0.042253 0.011139
-0.466955 -0.090899 -0.039448
-0.466955 -0.036455 0.003783
-0.466955 0.032987 -0.028479
-0.466955 0.058877 -0.019200
-0.466955 -0.042299 -0.089967
-0.466955 0.032679 -0.074897
-0.466955 0.092743 0.012202
-0.466955 0.015507 -0.089590
-0.466955 0.052273 -0.024924
-0.466955 0.004020 0.007282
-0.466955 -0.033294 -0.061919
-0.466955 0.084504 -0.030053
-0.466955 -0.088605 -0.022217
-0.466955 -0.002865 0.044081
-0.466955 -0.026195 0.007357
-0.466955 -0.001595 0.081631
-0.466955 0.077218 -0.033529
-0.466955 -0.009201 -0.088757
-0.466955 0.022037 0.031492
-0.466955 0.079919 0.034451
-0.466955 0.028035 -0.044985
-0.466955 -0.032418 0.022776
-0.466955 -0.014668 0.001115
-0.466955 0.066395 0.017710
-0.466955 -0.094059 -0.013075
-0.466955 -0.049752 0.067377
-0.466955 0.058718 0.043769
-0.466955 -0.026573 0.072402
-0.466955 0.065281 0.033194
-0.466955 -0.047880 0.026173
-0.466955 0.052231 0.002790
-0.466955 0.045090 -0.027791
-0.466955 0.011463 0.029519
-0.466955 -0.017547 -0.043410
-0.466955 -0.035941 0.070937
-0.466955 -0.049208 0.061280
-0.466955 0.002644 -0.057328
-0.466955 -0.058979 -0.013964
-0.466955 -0.039547 -0.054841
-0.466955 0.004777 0.078569
-0.466955 0.021331 -0.038631
-0.466955 0.073420 -0.044941
-0.466955 0.066986 0.045206
-0.466955 -0.082855 -0.045861
-0.466955 0.001717 0.065870
-0.466955 0.017059 -0.019425
-0.466955 -0.010932 -0.037424
-0.466955 0.053204 0.048112
-0.466955 0.041252 -0.006801
-0.466955 0.048594 -0.033220
-0.466955 0.025385 -0.075202
-0.466955 0.048493 0.080508
-0.466955 0.011188 0.093593
-0.466955 -0.012544 0.072835
-0.466955 -0.062934 0.065703
-0.466955 -0.026845 -0.036846
-0.466955 0.092908 0.031773
-0.466955 0.007504 0.047705
-0.466955 -0.024905 0.078976
-0.466955 0.038937 -0.026445
-0.466955 -0.052227 0.029207
-0.466955 0.060500 0.046099
-0.466955 -0.048180 -0.054899
-0.466955 0.031800 0.070997
-0.466955 0.069634 -0.055755
-0.466955 0.077495 0.050796
-0.466955 0.033414 0.036307
-0.466955 -0.097342 0.020054
-0.466955 -0.041199 -0.077904
-0.466955 0.001844 -0.038424
-0.466955 -0.051268 0.072946
-0.466955 0.099662 -0.005588
-0.466955 0.060903 0.011416
-0.466955 0.059144 -0.017167
-0.466955 -0.024597 -0.017992
-0.466955 -0.024295 -0.087485
-0.466955 -0.025503 0.056001
-0.466955 -0.071022 -0.056955
-0.466955 -0.040255 -0.042924
-0.466955 0.063168 0.035513
-0.466955 0.079227 0.007412
-0.466955 0.010582 -0.071749
-0.466955 -0.038349 0.065747
-0.466955 0.008723 0.041308
-0.466955 0.033384 -0.040203
-0.466955 -0.043010 0.003036
-0.466955 0.076121 0.027843
-0.466955 -0.052265 0.005817
-0.466955 0.034189 -0.072447
-0.466955 -0.030890 0.066546
-0.466955 -0.013666 -0.015362
-0.466955 -0.076157 0.023441
-0.466955 0.078062 0.056088
-0.466955 0.024829 -0.077816
-0.466955 -0.019089 -0.076913
-0.466955 0.067101 -0.059863
-0.466955 0.034271 -0.019117
-0.466955 0.041438 0.022177
-0.466955 -0.024949 -0.042930
-0.466955 0.013401 -0.015278
-0.466955 0.055853 -0.002534
-0.466955 -0.040983 -0.023832
-0.466955 -0.022272 0.072295
-0.466955 0.038458 0.089540
-0.466955 0.048118 0.026020
-0.466955 -0.080972 0.010852
-0.466955 0.023102 -0.077405
-0.466955 0.001971 -0.086901
-0.466955 -0.026836 -0.021065
-0.466955 0.002078 0.055878
-0.466955 -0.097706 0.008712
-0.466955 0.005980 0.010206
-0.466955 0.083665 -0.052116
-0.466955 -0.054268 -0.032761
-0.466955 -0.016002 0.091614
-0.466955 0.065393 -0.058843
-0.466955 0.002422 0.074792
-0.466955 -0.004291 0.093938
-0.466955 -0.021335 0.097562
-0.466955 0.045723 0.004618
-0.466955 -0.045093 0.031294
-0.466955 0.023804 -0.011633
-0.466955 -0.019878 0.021767
-0.466955 0.029360 -0.054313
-0.466955 -0.012993 0.057764
-0.466955 0.024857 0.073965
-0.466955 0.016064 0.045284
-0.466955 0.073734 0.022026
-0.466955 -0.042468 -0.028179
-0.466955 0.026367 -0.086198
-0.466955 -0.026846 0.086901
-0.466955 -0.044607 0.080070
-0.466955 0.046889 -0.023015
-0.466955 0.054121 -0.069759
-0.466955 -0.032379 0.018391
-0.466955 -0.001044 0.036720
-0.466955 -0.001992 0.038064
-0.466955 0.094165 0.001151
-0.466955 0.013698 -0.066913
-0.466955 0.069659 -0.003958
-0.466955 -0.058351 0.029347
-0.466955 0.035072 0.009080
-0.466955 0.065228 -0.023141
-0.466955 -0.020868 -0.015886
-0.466955 -0.007347 0.020341
-0.466955 0.025866 -0.068828
-0.466955 -0.010259 -0.078953
-0.466955 -0.013067 0.063970
-0.466955 -0.016764 -0.090728
-0.466955 0.034099 -0.012986
-0.466955 -0.033432 0.006085
-0.466955 0.049753 -0.030575
-0.466955 -0.058328 0.003759
-0.466955 0.062120 0.007032
-0.466955 0.004666 -0.075240
-0.466955 0.061329 -0.066030
-0.466955 0.015224 0.027680
-0.466955 -0.042444 -0.057605
-0.466955 -0.093525 0.031320
-0.466955 0.091203 0.017266
-0.466955 0.061931 0.045371
-0.466955 -0.050901 0.078741
-0.466955 -0.034232 -0.063077
-0.466955 0.073120 0.059632
-0.466955 0.006551 -0.002421
-0.466955 -0.011875 0.043957
-0.466955 0.045996 -0.079243
-0.466955 0.082360 -0.026314
-0.466955 0.083798 0.022649
-0.466955 -0.020650 0.048057
-0.466955 -0.045636 0.078816
-0.466955 0.036404 0.070827
-0.466955 0.069087 0.014239
-0.466955 0.029705 0.068373
-0.466955 -0.062636 0.025829
-0.466955 0.019958 0.092843
-0.466955 -0.097822 0.010642
-0.466955 -0.023168 0.073615
-0.466955 -0.069946 -0.023316
-0.466955 -0.082578 0.043634
-0.466955 0.029157 0.064331
-0.466955 0.035024 -0.002243
-0.466955 -0.027669 -0.055316
-0.466955 -0.030874 -0.005575
-0.466955 0.034201 0.005089
-0.466955 0.038079 0.081997
-0.466955 0.074518 0.060665
-0.466955 0.059736 0.063865
-0.466955 -0.035864 0.035196
-0.466955 -0.057136 -0.007422
-0.466955 0.066922 0.037339
-0.466955 -0.003650 0.063602
-0.466955 0.003277 -0.074248
-0.466955 0.081684 0.046928
-0.466955 -0.049102 0.039866
-0.466955 0.005240 0.022667
-0.466955 0.051591 0.021347
-0.466955 -0.053542 0.074271
-0.466955 -0.010261 0.078036
-0.466955 -0.019988 -0.038258
-0.466955 0.021536 -0.034229
-0.466955 0.000029 0.037771
-0.466955 -0.074224 0.046004
-0.466955 0.078876 -0.001373
-0.466955 -0.015907 0.020155
-0.466955 0.050777 0.085834
-0.466955 0.078946 -0.052521
-0.466955 0.092361 -0.017764
-0.466955 0.097130 -0.019677
-0.466955 -0.056656 -0.046369
-0.466955 0.004134 0.094358
-0.466955 -0.014489 0.020646
-0.466955 -0.033522 0.048929
-0.466955 -0.037289 0.020823
-0.466955 -0.057814 -0.062817
-0.466955 -0.013118 0.087361
-0.466955 -0.025698 -0.086824
-0.466955 0.021276 0.055112
-0.466955 -0.041381 0.002867
-0.466955 0.002316 0.035156
-0.466955 -0.061043 0.026616
-0.466955 0.054901 0.045661
-0.466955 0.010456 -0.002767
-0.466955 0.015578 -0.023083
-0.466955 -0.013658 -0.075905
-0.466955 -0.011974 -0.055102
-0.466955 -0.027004 -0.093725
-0.466955 0.039563 -0.036081
-0.466955 0.000078 0.007529
-0.466955 -0.002839 -0.025171
-0.466955 0.092876 -0.007583
-0.466955 0.082007 0.035521
-0.466955 -0.028976 0.003701
-0.466955 0.002390 0.088802
-0.466955 0.036980 0.090249
-0.466955 -0.022142 -0.055182
-0.466955 0.076711 -0.053294
-0.466955 0.064026 -0.060504
-0.466955 -0.015281 0.016164
-0.466955 -0.070450 0.032805
-0.466955 -0.026235 -0.063288
-0.466955 0.032841 0.068994
-0.466955 -0.088208 0.013820
-0.466955 -0.014361 -0.077500
-0.466955 -0.038136 0.047867
-0.466955 0.023216 0.078685
-0.466955 0.077718 -0.031353
-0.466955 0.021591 -0.086540
-0.466955 0.021829 -0.008187
-0.466955 0.041359 0.031622
-0.466955 0.056655 0.003662
-0.466955 0.088992 0.034431
-0.466955 0.006062 0.048917
-0.466955 -0.055486 0.061665
-0.466955 0.026563 -0.056990
-0.466955 0.055885 0.079816
-0.466955 0.023699 0.064393
-0.466955 0.048980 -0.008625
-0.466955 -0.018125 0.035416
-0.466955 -0.083138 -0.011033
-0.466955 -0.042129 0.069566
-0.466955 -0.035888 -0.079495
-0.466955 -0.031330 0.028578
-0.466955 0.047198 -0.078070
-0.466955 0.042905 0.057140
-0.466955 0.047710 0.012315
-0.466955 -0.038180 -0.066998
-0.466955 0.033990 -0.017120
-0.466955 -0.017594 0.068760
-0.466955 0.044813 0.011360
-0.466955 -0.015419 0.060922
-0.466955 -0.047656 -0.078392
-0.466955 0.022270 0.067672
-0.466955 0.081247 0.042912
-0.466955 0.028181 0.086457
-0.466955 -0.007743 -0.079912
-0.466955 -0.000539 0.043691
-0.466955 0.012612 -0.069138
-0.466955 0.025561 0.030783
-0.466955 0.065121 -0.064226
-0.466955 0.065431 0.001917
-0.466955 -0.012747 0.030293
-0.466955 -0.017974 0.049387
-0.466955 -0.056629 -0.039395
-0.466955 0.037287 -0.075536
-0.466955 0.090704 -0.028385
-0.466955 0.022991 -0.080829
-0.466955 -0.016121 -0.043347
-0.466955 -0.008661 0.062173
-0.466955 0.048889 0.086955
-0.466955 0.019735 -0.042727
-0.466955 0.064633 0.023639
-0.466955 0.021546 0.039161
-0.466955 0.071147 -0.040705
-0.466955 -0.086728 -0.020362
-0.466955 -0.015510 -0.046860
-0.466955 0.037662 0.005590
-0.466955 -0.051774 -0.037986
-0.466955 -0.029234 0.043029
-0.466955 -0.045416 -0.043038
-0.466955 0.008226 0.081121
-0.466955 -0.011905 0.027315
-0.466955 0.025336 -0.061993
-0.466955 -0.020957 -0.052937
-0.466955 -0.011205 0.081768
-0.466955 0.009647 -0.033735
-0.466955 -0.025242 -0.075364
-0.466955 -0.000367 -0.058644
-0.466955 -0.019566 -0.093368
-0.466955 -0.059593 -0.069019
-0.466955 -0.009726 -0.056976
-0.466955 0.023311 -0.010125
-0.466955 -0.064878 0.037031
-0.466955 -0.009259 -0.034412
-0.466955 0.051939 0.043547
-0.466955 0.051637 -0.046128
-0.466955 0.036730 0.061524
-0.466955 0.064389 -0.044236
-0.466955 0.017731 0.073776
-0.466955 0.011162 -0.058043
-0.466955 0.013532 0.060977
-0.466955 0.064716 -0.041104
-0.466955 -0.044323 0.058316
-0.466955 -0.010953 0.088869
-0.466955 -0.028527 -0.030336
-0.466955 -0.021199 0.049831
-0.466955 -0.090237 -0.008827
-0.466955 -0.061541 -0.033616
-0.466955 -0.089716 -0.001947
-0.466955 0.059657 0.075480
-0.466955 0.060595 0.015689
-0.466955 0.023291 0.095299
-0.466955 -0.016019 0.026172
-0.466955 0.070106 -0.069047
-0.466955 -0.024658 -0.054094
-0.466955 -0.003848 -0.089706
-0.466955 -0.038156 0.035440
-0.466955 -0.072510 0.035251
-0.466955 0.070577 0.058738
-0.466955 0.096635 0.013153
-0.466955 -0.005087 -0.093594
-0.466955 0.077631 -0.047857
-0.466955 0.068480 0.071840
-0.466955 -0.057365 0.048757
-0.466955 -0.055091 0.016362
-0.466955 -0.064048 -0.011903
-0.466955 -0.056345 -0.030903
-0.466955 -0.047040 0.002103
-0.466955 -0.038624 0.024553
-0.466955 0.050444 -0.016197
-0.466955 -0.034373 0.062974
-0.466955 -0.054240 0.069546
-0.466955 0.023848 -0.049935
-0.466955 -0.027844 0.023632
-0.466955 0.045592 0.066556
-0.466955 0.019433 -0.070622
-0.466955 0.031917 0.036438
-0.466955 0.014325 0.093862
-0.466955 0.003578 -0.067783
-0.466955 0.001756 0.077449
-0.466955 0.029396 0.001094
-0.466955 -0.003753 0.084033
-0.466955 -0.014942 0.096883
-0.466955 -0.073069 -0.034817
-0.466955 -0.057041 -0.079338
-0.466955 0.019967 0.022532
-0.466955 -0.093209 0.008101
-0.466955 0.027483 0.055049
-0.466955 0.011959 -0.016268
-0.466955 0.035382 0.030009
-0.466955 0.069765 0.065080
-0.466955 0.024350 0.051544
-0.466955 -0.035868 0.021847
-0.466955 -0.067684 0.006647
-0.466955 0.004675 -0.022104
-0.466955 -0.067554 0.024966
-0.466955 -0.009298 0.030971
-0.466955 -0.066467 -0.026444
-0.466955 0.010869 -0.008987
-0.466955 0.093333 0.021690
-0.466955 0.013589 0.037380
-0.466955 -0.057045 0.079672
-0.466955 0.031507 -0.080745
-0.466955 0.004954 0.086227
-0.466955 -0.052581 -0.027132
-0.466955 0.015283 0.025109
-0.466955 -0.038620 -0.020119
-0.466955 -0.021645 0.073713
-0.466955 0.044205 0.042750
-0.466955 -0.034717 0.005560
-0.466955 0.031800 0.030353
-0.466955 -0.006912 -0.044912
-0.466955 0.027211 -0.039461
-0.466955 0.035779 0.074421
-0.466955 -0.028732 -0.082453
-0.466955 -0.064178 -0.004565
-0.466955 -0.077567 0.015038
-0.466955 -0.088286 0.011852
-0.466955 0.013913 0.058187
-0.466955 -0.014076 -0.060300
-0.466955 -0.006132 -0.075317
-0.466955 -0.020123 0.035303
-0.466955 -0.069308 0.024846
-0.466955 0.060822 -0.031869
-0.466955 0.006840 0.053647
-0.466955 0.063948 0.061587
-0.466955 -0.078901 0.036996
-0.466955 0.041879 -0.074628
-0.466955 0.021592 0.093174
-0.466955 -0.057571 0.047428
-0.466955 0.028739 -0.070404
-0.466955 -0.059773 0.048351
-0.466955 -0.071030 -0.015470
-0.466955 -0.030712 0.041805
-0.466955 0.028720 -0.046150
-0.466955 0.033242 -0.084072
-0.466955 0.036223 -0.092491
-0.466955 0.076264 0.013308
-0.466955 -0.011255 0.064927
-0.466955 -0.016309 0.041277
-0.466955 -0.001421 -0.003735
-0.466955 0.041004 0.051034
-0.466955 0.006310 0.061613
-0.466955 -0.026256 0.026024
-0.466955 -0.075810 -0.032577
-0.466955 0.040329 0.015967
-0.466955 0.085357 0.029537
-0.466955 0.004289 -0.084656
-0.466955 0.034265 0.054836
-0.466955 -0.026996 0.032084
-0.466955 0.004347 0.014075
-0.466955 -0.019291 -0.068183
-0.466955 -0.004781 0.000649
-0.466955 -0.038521 0.073334
-0.466955 0.041657 0.024069
-0.466955 0.017118 -0.049829
-0.466955 -0.041388 0.026851
-0.466955 0.018367 0.080274
-0.466955 0.020507 -0.055181
-0.466955 0.029069 -0.041317
-0.466955 -0.091024 0.021244
-0.466955 -0.099584 0.005552
-0.466955 -0.075485 -0.013330
-0.466955 -0.075586 -0.054556
-0.466955 -0.033422 0.007629
-0.466955 0.043136 -0.040941
-0.466955 0.049325 0.042416
-0.466955 -0.082675 -0.041882
-0.466955 -0.044814 0.070916
-0.466955 0.071307 -0.022691
-0.466955 -0.086151 0.046346
-0.466955 0.039142 0.061708
-0.466955 0.005933 -0.050503
-0.466955 -0.026311 0.019633
-0.466955 0.075539 0.047806
-0.466955 -0.066338 0.031169
-0.466955 0.013551 -0.098556
-0.466955 -0.069799 0.071080
-0.466955 0.072073 0.026489
-0.466955 0.053978 -0.039110
-0.466955 0.028862 0.040722
-0.466955 -0.057811 0.056808
-0.466955 0.018294 0.000888
-0.466955 0.062804 0.077892
-0.466955 -0.084639 0.028619
-0.466955 -0.011342 -0.006444
-0.466955 -0.076567 0.056852
-0.466955 0.017200 -0.076430
-0.466955 -0.074753 0.054093
-0.466955 -0.011480 -0.016672
-0.466955 -0.031126 -0.041241
-0.466955 0.039051 0.080820
-0.466955 0.035849 -0.047057
-0.466955 -0.087912 -0.032804
-0.466955 -0.050715 -0.039054
-0.466955 0.028367 0.026908
-0.466955 0.071915 -0.010355
-0.466955 -0.089662 -0.032738
-0.466955 0.025446 -0.064117
-0.466955 0.026993 -0.016753
-0.466955 0.055046 0.034881
-0.466955 0.018331 0.014001
-0.466955 -0.094773 0.011457
-0.466955 0.000173 -0.049457
-0.466955 -0.034253 -0.015777
-0.466955 -0.082923 -0.008860
-0.466955 -0.091997 0.000432
-0.466955 -0.053514 0.052824
-0.466955 -0.013641 0.019152
-0.466955 -0.055676 -0.075691
-0.466955 -0.002586 -0.039401
-0.466955 0.031300 -0.000732
-0.466955 0.026216 0.080161
-0.466955 0.008293 0.093573
-0.466955 -0.085449 -0.024153
-0.466955 -0.087349 -0.027838
-0.466955 0.041875 -0.076437
-0.466955 -0.058464 -0.010079
-0.466955 0.077025 0.029785
-0.466955 -0.050092 -0.028911
-0.466955 0.021877 -0.027724
-0.466955 0.041868 -0.023017
-0.466955 -0.002253 0.050072
-0.466955 0.007429 0.037636
-0.466955 -0.072167 0.055529
-0.466955 0.024653 0.036701
-0.466955 0.057678 0.024486
-0.466955 0.017791 0.006257
-0.466955 -0.054184 0.051162
-0.466955 0.074279 -0.042064
-0.466955 0.024564 0.065567
-0.466955 0.094775 -0.027326
-0.466955 -0.073889 -0.009286
-0.466955 -0.098132 -0.015133
-0.466955 -0.021312 0.010873
-0.466955 -0.052096 0.044973
-0.466955 0.052916 -0.015950
-0.466955 -0.051097 -0.013792
-0.466955 0.010958 0.044940
-0.466955 -0.096801 -0.006223
-0.466955 0.080308 -0.001924
-0.466955 -0.026309 0.060074
-0.466955 0.002427 0.091881
-0.466955 0.041170 -0.071095
-0.466955 0.032093 -0.068045
-0.466955 -0.059741 -0.058666
-0.466955 0.054412 -0.049315
-0.466955 0.003139 0.009136
-0.466955 0.071484 0.055974
-0.466955 -0.065129 -0.030626
-0.466955 0.023931 0.059619
-0.466955 0.034648 -0.079918
-0.466955 0.056766 0.069699
-0.466955 0.068497 -0.018264
-0.466955 -0.095835 0.003212
-0.466955 0.096404 -0.000131
-0.466955 0.011454 -0.012837
-0.466955 0.073395 -0.064939
-0.466955 -0.071608 -0.027857
-0.466955 -0.069042 0.005195
-0.466955 0.033572 0.020009
-0.466955 -0.020912 0.009572
-0.466955 0.043555 -0.008291
-0.466955 0.041049 0.042037
-0.466955 0.010590 -0.059562
-0.466955 -0.040635 0.051557
-0.466955 -0.073858 -0.017929
-0.466955 0.005555 0.082259
-0.466955 -0.058072 -0.041584
-0.466955 -0.090797 -0.021869
-0.466955 -0.027796 0.085678
-0.466955 -0.024942 -0.016475
-0.466955 -0.056874 0.054491
-0.466955 0.014644 0.047991
-0.466955 0.056626 -0.031359
-0.466955 -0.009055 -0.007783
-0.466955 0.087821 0.018193
-0.466955 -0.053044 -0.022833
-0.466955 -0.024922 0.062557
-0.466955 0.083072 0.046216
-0.466955 -0.059282 -0.032639
-0.466955 0.022505 -0.070322
-0.466955 0.053425 0.036777
-0.466955 0.092532 0.001493
-0.466955 -0.000230 0.078145
-0.466955 0.030545 0.076902
-0.466955 0.010670 0.015521
-0.466955 0.037426 -0.026710
-0.466955 -0.089987 0.006408
-0.466955 -0.063606 0.000771
-0.466955 -0.020131 0.067275
-0.466955 0.005580 -0.044386
-0.466955 0.050253 -0.069341
-0.466955 0.051141 0.012057
-0.466955 0.031659 -0.058319
-0.466955 0.025794 0.078762
-0.466955 -0.028033 0.047885
-0.466955 -0.007455 0.030609
-0.466955 0.068574 0.063617
-0.466955 -0.029633 0.040707
-0.466955 -0.054410 -0.056872
-0.466955 -0.050940 0.084744
-0.466955 -0.022966 0.020204
-0.466955 -0.057880 0.016344
-0.466955 -0.029378 0.017929
-0.466955 0.000832 -0.057707
-0.466955 -0.079953 -0.007607
-0.466955 0.026239 0.049289
-0.466955 0.060300 0.037727
-0.466955 -0.042119 -0.061758
-0.466955 0.054895 -0.005340
-0.466955 0.082767 0.036863
-0.466955 0.070623 -0.043736
-0.466955 0.032642 0.028706
-0.466955 -0.032442 -0.037331
-0.466955 0.090135 -0.023576
-0.466955 0.024809 0.053976
-0.466955 0.018054 -0.023611
-0.466955 -0.070399 -0.053158
-0.466955 0.095525 -0.017598
-0.466955 -0.022799 0.022687
-0.466955 0.035562 -0.052799
-0.466955 0.000753 0.042766
-0.466955 0.064523 -0.051323
-0.466955 0.019190 0.096522
-0.466955 0.049829 0.025128
-0.466955 0.003052 0.062286
-0.466955 -0.041311 0.028679
-0.466955 0.085426 0.001051
-0.466955 0.030957 -0.035702
-0.466955 0.036703 -0.025005
-0.466955 0.095537 0.020204
-0.466955 0.020849 0.096532
-0.466955 -0.093023 0.036048
-0.466955 -0.055703 -0.066161
-0.466955 0.046083 -0.016103
-0.466955 0.032694 -0.018645
-0.466955 0.079091 0.009039
-0.466955 -0.052142 0.048004
-0.466955 -0.010452 -0.018994
-0.466955 -0.010131 0.052444
-0.466955 -0.031702 -0.016906
-0.466955 -0.019482 0.049342
-0.466955 -0.035372 -0.039678
-0.466955 0.071163 0.007069
-0.466955 0.030206 -0.052887
-0.466955 -0.041600 -0.047908
-0.466955 -0.034730 0.030452
-0.466955 0.074511 -0.025596
-0.466955 0.066383 0.059796
-0.466955 -0.065356 0.030147
-0.466955 0.025813 0.091328
-0.466955 0.067265 -0.014113
-0.466955 0.033000 0.079171
-0.466955 -0.002505 0.046097
-0.466955 -0.078918 -0.048430
-0.466955 0.089192 -0.010790
-0.466955 0.042516 0.082542
-0.466955 0.078804 0.057360
-0.466955 0.034947 0.070547
-0.466955 0.075689 -0.043193
-0.466955 -0.018850 -0.040382
-0.466955 -0.078526 -0.054437
-0.466955 0.014161 0.064143
-0.466955 0.099865 -0.002509
-0.466955 -0.067584 -0.032254
-0.466955 -0.007993 0.085313
-0.466955 -0.063303 0.024516
-0.466955 -0.042094 0.030815
-0.466955 -0.033582 0.019381
-0.466955 -0.080447 -0.022795
-0.466955 -0.023448 -0.050578
-0.466955 -0.029804 -0.070608
-0.466955 -0.025740 -0.088705
-0.466955 0.060437 0.031665
-0.466955 -0.020843 0.020282
-0.466955 0.002787 -0.018628
-0.466955 0.033746 0.073142
-0.466955 0.037907 0.092095
-0.466955 -0.075357 -0.050089
-0.466955 0.002311 0.068998
-0.466955 -0.009875 0.014068
-0.466955 0.014210 -0.007640
-0.466955 0.064089 -0.009528
-0.466955 -0.045996 -0.063444
-0.466955 -0.051330 0.075814
-0.466955 0.062358 -0.000610
-0.466955 -0.007460 0.017379
-0.466955 -0.061219 -0.014043
-0.466955 0.037056 -0.060046
-0.466955 -0.013812 -0.030485
-0.466955 -0.059279 0.023193
-0.466955 0.038495 0.063303
-0.466955 -0.024737 -0.020139
-0.466955 0.016749 -0.086641
-0.466955 -0.014010 -0.055875
-0.466955 0.014969 0.095304
-0.466955 0.058003 0.039534
-0.466955 -0.050551 0.047310
-0.466955 -0.040438 -0.081105
-0.466955 -0.058817 -0.067535
-0.466955 0.008331 0.083745
-0.466955 0.036302 0.035876
-0.466955 -0.040685 0.033687
-0.466955 0.075758 0.018905
-0.466955 0.025473 0.006039
-0.466955 -0.063001 0.077303
-0.466955 -0.059458 0.017113
-0.466955 0.010173 0.030528
-0.466955 0.078566 0.025425
-0.466955 -0.004581 -0.005275
-0.466955 0.031336 0.015913
-0.466955 0.024422 -0.032845
-0.466955 0.014749 0.053555
-0.466955 0.061482 0.062517
-0.466955 -0.039117 -0.035055
-0.466955 -0.047463 -0.018659
-0.466955 -0.047058 0.073286
-0.466955 0.050819 -0.032092
-0.466955 -0.081823 -0.001608
-0.466955 0.050590 -0.042973
-0.466955 0.035894 -0.050652
-0.466955 0.037129 0.080796
-0.466955 0.018242 0.086295
-0.466955 0.016370 0.023893
-0.466955 0.083265 -0.033098
-0.466955 -0.022522 -0.060169
-0.466955 -0.045172 0.012151
-0.466955 0.082677 -0.020961
-0.466955 0.057650 0.066704
-0.466955 0.079229 -0.003218
-0.466955 -0.096834 -0.013848
-0.466955 -0.064042 0.054093
-0.466955 -0.060833 -0.056926
-0.466955 0.028912 0.025612
-0.466955 0.067643 -0.037693
-0.466955 -0.014300 0.098310
-0.466955 -0.009499 -0.004747
-0.466955 -0.014723 0.074184
-0.466955 0.036072 -0.073792
-0.466955 -0.069197 0.038036
-0.466955 -0.073770 -0.050499
-0.466955 0.036360 -0.086597
-0.466955 -0.055661 0.003694
-0.466955 0.004975 0.097031
-0.466955 -0.044486 -0.001651
-0.466955 -0.045657 0.058812
-0.466955 -0.017591 -0.007926
-0.466955 -0.023762 0.045744
-0.466955 -0.018236 -0.009297
-0.466955 0.001594 0.067312
-0.466955 0.096243 -0.022733
-0.466955 -0.032172 -0.030463
-0.466955 0.081389 -0.020179
-0.466955 0.040384 -0.001977
-0.466955 0.095839 -0.009987
-0.466955 0.009830 0.042495
-0.466955 -0.078054 0.046011
-0.466955 -0.007278 0.045616
-0.466955 0.035062 -0.062420
-0.466955 0.013626 -0.043783
-0.466955 -0.058325 0.036458
-0.466955 0.029828 0.005288
-0.466955 -0.002260 -0.021655
-0.466955 -0.051305 0.036280
-0.466955 -0.055527 0.044240
-0.466955 0.086629 0.033559
-0.466955 -0.012427 -0.032212
-0.466955 0.066569 0.034921
-0.466955 -0.012561 -0.068649
-0.466955 0.005310 0.070988
-0.466955 0.070714 -0.065681
-0.466955 -0.004844 -0.016735
-0.466955 -0.016070 0.075060
-0.466955 -0.028470 0.091837
-0.466955 -0.078437 -0.050261
-0.466955 -0.019076 0.066010
-0.466955 0.021992 -0.048148
-0.466955 -0.051236 0.060861
-0.466955 0.006904 -0.014718
-0.466955 0.004457 0.019957
-0.466955 0.045230 -0.066745
-0.466955 -0.011996 -0.049800
-0.466955 -0.054160 -0.045747
-0.466955 -0.003823 -0.069219
-0.466955 -0.003292 -0.017430
-0.466955 0.061307 -0.061202
-0.466955 0.005145 -0.066219
-0.466955 -0.064313 -0.038076
-0.466955 0.055044 -0.060155
-0.466955 -0.004227 0.010019
-0.466955 -0.029895 -0.088746
-0.466955 0.044340 -0.043334
-0.466955 -0.035637 0.075170
-0.466955 -0.019776 0.038960
-0.466955 -0.073100 0.007802
-0.466955 -0.024877 0.052391
-0.466955 0.004496 -0.006682
-0.466955 0.056644 -0.004081
-0.466955 -0.006854 -0.011885
-0.466955 -0.026668 -0.039923
-0.466955 -0.021990 -0.095664
-0.466955 0.006087 -0.053762
-0.466955 -0.031526 0.094238
-0.466955 0.021416 0.066369
-0.466955 -0.013986 -0.008766
-0.466955 0.073436 0.055639
-0.466955 0.087566 -0.033818
-0.466955 0.045983 0.079403
-0.466955 -0.078288 0.025603
-0.466955 -0.001378 -0.064694
-0.466955 0.013824 -0.042248
-0.466955 0.078509 0.058752
-0.466955 -0.014569 -0.064009
-0.466955 0.019955 -0.088900
-0.466955 0.099840 -0.003920
-0.466955 0.034423 0.015479
-0.466955 -0.087025 0.031249
-0.466955 0.083239 -0.004691
-0.466955 0.061178 0.078287
-0.466955 0.050388 -0.041044
-0.466955 -0.002095 -0.074846
-0.466955 0.042728 0.000528
-0.466955 0.058998 0.045965
-0.466955 0.028140 0.035067
-0.466955 -0.047149 -0.052742
-0.466955 -0.081228 0.048880
-0.466955 0.000070 -0.031349
-0.466955 0.038547 -0.042981
-0.466955 0.019751 -0.018702
-0.466955 -0.050706 0.057943
-0.466955 -0.075320 -0.000702
-0.466955 -0.080341 -0.053402
-0.466955 -0.060878 0.019266
-0.466955 -0.020107 0.018537
-0.466955 0.005340 -0.036465
-0.466955 0.008039 -0.033478
-0.466955 -0.034384 -0.091860
-0.466955 0.085780 0.026207
-0.466955 -0.006844 -0.092424
-0.466955 -0.087415 0.048249
-0.466955 -0.042298 -0.052208
-0.466955 -0.080619 -0.040049
-0.466955 0.004690 0.089116
-0.466955 -0.036416 -0.041698
-0.466955 -0.070792 0.054286
-0.466955 0.039145 -0.052055
-0.466955 0.077005 0.053564
-0.466955 0.045442 -0.003138
-0.466955 0.043078 0.032687
-0.466955 0.017007 0.075348
-0.466955 -0.018240 0.082551
-0.466955 0.036558 0.012715
-0.466955 0.044034 0.015561
-0.466955 0.006821 -0.080547
-0.466955 0.090831 0.003709
-0.466955 0.058038 -0.030727
-0.466955 0.035726 -0.026893
-0.466955 -0.002753 0.035774
-0.466955 -0.085082 0.041657
-0.466955 0.020587 -0.002807
-0.466955 -0.054006 -0.074524
-0.466955 0.039748 0.071014
-0.466955 -0.097734 0.012304
-0.466955 0.029381 -0.066676
-0.466955 0.057433 -0.009910
-0.466955 -0.011714 -0.063535
-0.466955 0.004069 0.084648
-0.466955 0.025435 0.044889
-0.466955 0.076946 -0.010551
-0.466955 0.012458 -0.011863
-0.466955 0.051829 0.069598
-0.466955 0.005678 0.058323
-0.466955 0.028535 -0.038313
-0.466955 -0.072469 -0.007203
-0.466955 -0.002359 0.055558
-0.466955 -0.055512 0.027476
-0.466955 -0.061176 -0.068730
-0.466955 -0.028598 -0.077076
-0.466955 0.046994 0.003536
-0.466955 -0.053672 -0.049823
-0.466955 -0.030630 0.048014
-0.466955 0.071182 -0.067119
-0.466955 -0.016399 0.013806
-0.466955 -0.043701 -0.047878
-0.466955 -0.073871 -0.033584
-0.466955 -0.007868 -0.006913
-0.466955 0.049243 -0.002264
-0.466955 -0.047658 0.076023
-0.466955 -0.078898 0.022843
-0.466955 0.021225 -0.043879
-0.466955 -0.003419 -0.002777
-0.466955 0.073253 -0.063179
-0.466955 -0.000555 -0.001993
-0.466955 0.006751 -0.036248
-0.466955 0.011111 0.069933
-0.466955 0.070678 -0.035379
-0.466955 -0.093207 0.012658
-0.466955 0.012267 0.073100
-0.466955 0.039354 -0.000474
-0.466955 -0.080595 0.007891
-0.466955 0.039958 0.002961
-0.466955 0.015299 0.091063
-0.466955 0.077298 -0.015782
-0.466955 0.087077 0.029271
-0.466955 0.006544 0.096029
-0.466955 -0.037744 0.075662
-0.466955 0.050251 0.026570
-0.466955 0.051273 -0.055549
-0.466955 0.067443 -0.036341
-0.466955 0.043187 -0.046662
-0.466955 0.034413 -0.029573
-0.466955 -0.012774 0.031873
-0.466955 0.056203 0.061061
-0.466955 -0.003320 0.057346
-0.466955 0.048267 -0.055130
-0.466955 0.022642 0.015196
-0.466955 0.041765 -0.018495
-0.466955 0.055836 -0.018659
-0.466955 0.018755 0.002211
-0.466955 -0.061282 -0.074262
-0.466955 0.001974 -0.042011
-0.466955 0.059671 -0.014179
-0.466955 -0.019965 0.083924
-0.466955 0.033982 0.056621
-0.466955 -0.020698 0.054499
-0.466955 -0.052235 -0.035694
-0.466955 0.009949 0.055868
-0.466955 -0.079188 0.039012
-0.466955 0.001127 -0.076846
-0.466955 -0.044837 0.026408
-0.466955 0.027748 -0.067425
-0.466955 0.015784 -0.068700
-0.466955 0.049614 0.061461
-0.466955 0.033070 -0.043504
-0.466955 -0.002283 0.097379
-0.466955 -0.038818 -0.073002
-0.466955 -0.037237 0.073974
-0.466955 -0.074126 0.020177
-0.466955 0.009810 0.093888
-0.466955 -0.049379 -0.037688
-0.466955 0.013509 0.095282
-0.466955 0.047669 0.037588
-0.466955 -0.028659 0.095315
-0.466955 0.014181 0.070042
-0.466955 0.012625 0.068942
-0.466955 -0.030233 0.088849
-0.466955 -0.072860 0.048689
-0.466955 0.019113 0.083514
-0.466955 -0.085864 0.018359
-0.466955 0.004616 0.050331
-0.466955 0.016364 -0.000858
-0.466955 -0.002564 0.018832
-0.466955 -0.076922 -0.005702
-0.466955 -0.067181 0.003386
-0.466955 0.086853 -0.043661
-0.466955 0.029629 -0.080655
-0.466955 0.001831 -0.090992
-0.466955 0.073474 -0.060429
-0.466955 -0.045540 -0.012262
-0.466955 0.085253 -0.031490
-0.466955 -0.056659 -0.077338
-0.466955 0.031977 0.077028
-0.466955 -0.044227 -0.087460
-0.466955 -0.060327 -0.012562
-0.466955 0.081083 0.030472
-0.466955 0.019546 0.090252
-0.466955 0.074918 0.007590
-0.466955 0.052268 -0.010876
-0.466955 0.011273 0.002157
-0.466955 -0.027051 -0.001223
-0.466955 0.059111 -0.025577
-0.466955 0.065252 -0.011306
-0.466955 0.060235 -0.065145
-0.466955 -0.068667 0.065331
-0.466955 0.012122 0.015140
-0.466955 -0.044360 0.009377
-0.466955 0.051623 0.067630
-0.466955 -0.062959 -0.033374
-0.466955 -0.011615 -0.084912
-0.466955 0.021265 -0.083765
-0.466955 0.082288 -0.009387
-0.466955 0.028488 0.073517
-0.466955 0.039038 -0.059512
-0.466955 -0.063015 0.045751
-0.466955 -0.073278 0.024669
-0.466955 0.036220 -0.057526
-0.466955 -0.052494 -0.034197
-0.466955 -0.079568 0.024666
-0.466955 0.093688 0.016206
-0.466955 -0.048313 -0.071927
-0.466955 -0.013511 0.041756
-0.466955 0.013854 0.010621
-0.466955 -0.039043 0.036722
-0.466955 0.055375 0.005162
-0.466955 0.023160 0.056456
-0.466955 0.038420 -0.048344
-0.466955 -0.072215 -0.051623
-0.466955 0.077792 0.014510
-0.466955 -0.067260 0.029956
-0.466955 0.052134 -0.020804
-0.466955 0.048401 0.009880
-0.466955 0.047982 0.005537
-0.466955 -0.060440 -0.027407
-0.466955 0.017985 -0.021143
-0.466955 0.010371 -0.084499
-0.466955 -0.022395 -0.091572
-0.466955 0.068858 0.055335
-0.466955 -0.043519 0.061666
-0.466955 0.010616 0.019744
-0.466955 0.020517 -0.073871
-0.466955 0.006471 0.024843
-0.466955 -0.066804 0.044886
-0.466955 -0.002461 0.027834
-0.466955 -0.009552 -0.083691
-0.466955 -0.004808 0.097413
-0.466955 -0.028037 0.057836
-0.466955 -0.034932 0.072017
-0.466955 0.041860 0.076245
-0.466955 0.024463 -0.045620
-0.466955 -0.013721 0.012640
-0.466955 0.051375 0.045589
-0.466955 0.020547 0.084351
-0.466955 -0.039243 -0.000547
-0.466955 -0.046608 -0.001324
-0.466955 0.022122 -0.062870
-0.466955 -0.004307 0.067272
-0.466955 0.062199 -0.009391
-0.466955 -0.039931 -0.071542
-0.466955 -0.025250 -0.056973
-0.466955 -0.066500 0.055882
-0.466955 0.018383 -0.051471
-0.466955 -0.006003 0.048800
-0.466955 -0.057057 0.060282
-0.466955 0.018448 0.092204
-0.466955 -0.019075 -0.052355
-0.466955 0.006263 0.077790
-0.466955 -0.062321 -0.031500
-0.466955 0.040307 -0.047487
-0.466955 -0.094811 -0.017426
-0.466955 -0.046441 0.062190
-0.466955 -0.017759 -0.062824
-0.466955 -0.052305 0.041649
-0.466955 0.073393 -0.006430
-0.466955 0.058180 0.020674
-0.466955 -0.000749 -0.032629
-0.466955 0.003667 -0.012387
-0.466955 -0.008065 -0.018680
-0.466955 0.045392 -0.049440
-0.466955 -0.008018 -0.012562
-0.466955 -0.051983 -0.030545
-0.466955 -0.066159 -0.054411
-0.466955 0.002807 0.030920
-0.466955 -0.047703 0.049728
-0.466955 0.070431 0.020428
-0.466955 -0.067524 -0.021763
-0.466955 0.009580 -0.032220
-0.466955 0.074269 0.057415
-0.466955 -0.017714 0.016730
-0.466955 -0.043847 -0.046409
-0.466955 -0.037557 -0.053899
-0.466955 0.048328 0.051602
-0.466955 -0.050991 -0.036691
-0.466955 -0.088434 0.024816
-0.466955 0.018832 -0.087582
-0.466955 0.009292 0.034010
-0.466955 -0.084940 -0.000880
-0.466955 0.084714 -0.003986
-0.466955 -0.023898 -0.057826
-0.466955 -0.037346 -0.009289
-0.466955 -0.094913 -0.007016
-0.466955 0.051614 0.024269
-0.466955 0.023387 -0.008270
-0.466955 -0.045354 0.064882
-0.466955 0.056996 -0.022965
-0.466955 0.021834 -0.000376
-0.466955 -0.046195 -0.005110
-0.466955 0.031728 -0.056653
-0.466955 -0.039323 -0.061413
-0.466955 0.024944 0.056481
-0.466955 0.067245 -0.042846
-0.466955 0.081526 -0.014408
-0.466955 -0.096582 0.009797
-0.466955 0.035651 0.058339
-0.466955 -0.036209 0.033426
-0.466955 0.015633 -0.058235
-0.466955 -0.039117 0.018069
-0.466955 0.009498 -0.091053
-0.466955 0.047237 -0.001929
-0.466955 0.005870 0.041666
-0.466955 0.038376 -0.076425
-0.466955 -0.068508 0.049169
-0.466955 0.082183 0.001014
-0.466955 0.001152 0.084754
-0.466955 0.041415 -0.053803
-0.466955 -0.009081 -0.076059
-0.466955 -0.000435 0.073967
-0.466955 0.076751 -0.029847
-0.466955 0.051218 -0.004842
-0.466955 0.018985 -0.048540
-0.466955 -0.065983 -0.051346
-0.466955 -0.010285 -0.069075
-0.466955 -0.077269 0.009608
-0.466955 0.038839 0.074911
-0.466955 0.069709 0.068426
-0.466955 0.082084 -0.003680
-0.466955 0.076779 -0.049466
-0.466955 -0.055764 -0.033533
-0.466955 -0.019042 0.040699
-0.466955 0.008228 0.070829
-0.466955 0.078945 -0.032568
-0.466955 0.018480 0.055266
-0.466955 0.010480 0.012683
-0.466955 0.089258 0.018496
-0.466955 -0.059982 -0.034541
-0.466955 -0.076636 -0.052251
-0.466955 0.080558 0.039238
-0.466955 -0.008327 -0.067909
-0.466955 0.019595 -0.052429
-0.466955 -0.058806 0.007808
-0.466955 -0.081707 -0.010440
-0.466955 0.006381 -0.056874
