0.465339 0.040645 -0.036071
0.465339 -0.019500 0.094760
0.465339 -0.053437 0.074732
0.465339 -0.002115 0.040847
0.465339 0.055492 0.080491
0.465339 0.082486 0.002591
0.465339 -0.068297 0.037115
0.465339 0.022648 0.096601
0.465339 0.008490 0.017046
0.465339 -0.051779 -0.080436
0.465339 -0.010024 -0.027772
0.465339 0.072482 -0.041984
0.465339 -0.059002 -0.073016
0.465339 -0.049938 -0.001698
0.465339 -0.009335 0.062323
0.465339 -0.001067 0.073573
0.465339 -0.020681 0.040801
0.465339 0.097405 -0.009348
0.465339 -0.065179 -0.069918
0.465339 0.074560 -0.035608
0.465339 -0.091290 -0.000264
0.465339 0.043220 0.031386
0.465339 -0.079597 -0.040272
0.465339 -0.037426 -0.036951
0.465339 0.032249 0.033389
0.465339 0.049466 -0.029587
0.465339 0.046705 0.011494
0.465339 0.068330 0.046137
0.465339 -0.065611 0.007383
0.465339 -0.025397 0.017535
0.465339 -0.080154 -0.013795
0.465339 0.042352 -0.088117
0.465339 0.029709 0.081966
0.465339 0.005915 0.052653
0.465339 0.000811 0.013088
0.465339 -0.020057 0.088848
0.465339 0.049605 0.082162
0.465339 -0.042003 0.088175
0.465339 0.067569 0.051870
0.465339 -0.011663 -0.037450
0.465339 -0.025004 -0.062255
0.465339 0.056120 0.038040
0.465339 -0.063773 -0.064615
0.465339 -0.023440 0.026342
0.465339 -0.083117 0.000549
0.465339 -0.011530 0.092306
0.465339 0.063809 -0.042450
0.465339 -0.095971 -0.007000
0.465339 -0.065777 0.063383
0.465339 -0.002604 0.016070
0.465339 0.071060 0.011963
0.465339 -0.027135 -0.014006
0.465339 -0.025466 0.027769
0.465339 0.080828 0.047612
0.465339 0.047523 -0.018004
0.465339 0.044517 0.005561
0.465339 0.082552 -0.000376
0.465339 -0.002558 0.030522
0.465339 -0.077143 -0.012114
0.465339 0.059267 0.077233
0.465339 -0.025237 0.011520
0.465339 -0.002108 0.096471
0.465339 0.009520 -0.021212
0.465339 -0.035422 0.087672
0.465339 -0.045855 0.080783
0.465339 0.045567 0.001311
0.465339 0.072400 -0.002859
0.465339 0.053080 -0.010445
0.465339 0.073084 0.021768
0.465339 -0.070937 0.034342
0.465339 0.007097 0.065831
0.465339 0.018113 0.035274
0.465339 -0.018228 -0.020093
0.465339 -0.004670 -0.061485
0.465339 -0.014279 0.087048
0.465339 -0.025774 -0.047594
0.465339 -0.082519 -0.031620
0.465339 0.025683 -0.077208
0.465339 0.009087 0.090672
0.465339 0.013328 -0.064919
0.465339 0.056075 -0.027513
0.465339 -0.018297 -0.000838
0.465339 0.002421 0.076240
0.465339 -0.028629 0.005960
0.465339 0.050960 0.044777
0.465339 0.015695 0.039243
0.465339 -0.011766 -0.098637
0.465339 -0.013586 0.062918
0.465339 0.034855 0.003846
0.465339 0.016501 0.040837
0.465339 0.074252 0.014889
0.465339 0.019712 -0.028626
0.465339 -0.027654 -0.084614
0.465339 -0.024246 -0.019297
0.465339 -0.061930 0.061104
0.465339 0.003118 0.014937
0.465339 -0.011626 0.074283
0.465339 -0.029018 -0.041790
0.465339 -0.094377 -0.013089
0.465339 0.057033 -0.044756
0.465339 0.014821 -0.038576
0.465339 -0.058884 -0.058310
0.465339 -0.030113 -0.037108
0.465339 -0.053088 -0.062107
0.465339 0.066069 -0.017421
0.465339 -0.077230 0.054366
0.465339 0.073670 -0.002052
0.465339 -0.000641 0.100033
0.465339 0.023445 0.069577
0.465339 -0.042130 0.010002
0.465339 -0.081277 -0.042704
0.465339 -0.083368 0.019716
0.465339 0.025035 0.010813
0.465339 0.022825 0.039644
0.465339 0.053391 0.021325
0.465339 -0.047378 -0.015221
0.465339 0.024100 -0.031256
0.465339 -0.089071 -0.022495
0.465339 -0.068482 0.056655
0.465339 0.027030 -0.003839
0.465339 -0.007993 0.034841
0.465339 -0.066038 0.029072
0.465339 0.070308 0.013356
0.465339 0.005576 0.095806
0.465339 0.035411 0.021604
0.465339 0.064311 0.043531
0.465339 0.083950 -0.046207
0.465339 -0.059779 0.045564
0.465339 -0.022508 -0.039406
0.465339 -0.062574 0.026784
0.465339 0.035504 0.057382
0.465339 0.013497 -0.035171
0.465339 -0.069403 -0.060898
0.465339 0.033993 -0.042909
0.465339 -0.027251 0.056205
0.465339 -0.008943 0.067401
0.465339 0.040693 0.064806
0.465339 -0.018748 -0.037973
0.465339 -0.034778 -0.041424
0.465339 0.037972 0.017350
0.465339 -0.081192 0.021761
0.465339 0.019855 -0.018393
0.465339 0.076817 0.006356
0.465339 -0.085207 -0.036994
0.465339 0.001750 0.074275
0.465339 0.037096 0.008886
0.465339 0.064737 0.022231
0.465339 0.002594 -0.064269
0.465339 0.092689 -0.030411
0.465339 -0.012995 0.010511
0.465339 0.012703 0.016934
0.465339 0.072229 0.018699
0.465339 -0.020369 -0.043308
0.465339 -0.081176 -0.053329
0.465339 -0.016209 0.043776
0.465339 -0.076066 0.055962
0.465339 -0.063489 0.066430
0.465339 0.008183 -0.017036
0.465339 0.003037 -0.068743
0.465339 0.019618 0.088742
0.465339 -0.081665 0.007358
0.465339 0.020448 0.025821
0.465339 -0.040493 0.065153
0.465339 0.055691 0.014301
0.465339 0.082630 0.048009
0.465339 0.075651 -0.021719
0.465339 0.096771 -0.018215
0.465339 -0.029523 0.031565
0.465339 0.049081 0.014416
0.465339 -0.070689 -0.040248
0.465339 -0.004514 -0.057209
0.465339 0.035073 0.049261
0.465339 -0.033154 -0.049930
0.465339 0.014619 0.011401
0.465339 -0.067954 -0.005684
0.465339 0.048364 0.085065
0.465339 0.006434 0.096985
0.465339 -0.015484 0.053591
0.465339 -0.008672 0.079736
0.465339 -0.047892 -0.011757
0.465339 -0.085812 0.010451
0.465339 0.039381 -0.036666
0.465339 0.014885 0.073465
0.465339 0.004372 -0.009248
0.465339 -0.016088 -0.028255
0.465339 0.043779 0.074422
0.465339 0.090810 0.017591
0.465339 0.029775 -0.053520
0.465339 0.060892 0.029384
0.465339 0.028532 -0.026067
0.465339 0.013907 -0.068384
0.465339 0.043003 -0.072655
0.465339 0.019028 -0.036200
0.465339 0.057472 -0.017668
0.465339 0.048752 -0.009898
0.465339 0.084445 0.052995
0.465339 0.012455 -0.076548
0.465339 0.027921 0.051986
0.465339 0.041703 -0.006228
0.465339 -0.018127 0.078626
0.465339 -0.008528 -0.095263
0.465339 -0.032422 0.064063
0.465339 -0.090703 0.021428
0.465339 0.089975 -0.019130
0.465339 -0.008122 -0.098161
0.465339 -0.060549 0.042321
0.465339 0.048464 0.013196
0.465339 0.028557 0.058699
0.465339 0.000076 -0.078923
0.465339 0.058962 -0.034075
0.465339 0.031328 0.081545
0.465339 -0.019714 0.077706
0.465339 0.000895 -0.094842
0.465339 -0.010815 -0.040311
0.465339 -0.009730 -0.096632
0.465339 0.046825 0.013426
0.465339 -0.040445 0.058796
0.465339 0.036704 -0.078793
0.465339 -0.056787 0.066994
0.465339 0.074961 -0.046651
0.465339 0.000677 -0.045129
0.465339 -0.030117 0.030264
0.465339 -0.060963 0.059769
0.465339 0.022110 0.021166
0.465339 -0.000263 -0.000512
0.465339 -0.000894 -0.097095
0.465339 0.057522 0.019308
0.465339 0.057318 -0.065489
0.465339 0.046570 0.002439
0.465339 -0.043266 -0.070876
0.465339 -0.063966 -0.007616
0.465339 -0.093955 -0.021266
0.465339 0.080569 0.000432
0.465339 -0.089583 -0.010173
0.465339 -0.017030 -0.022974
0.465339 0.035646 -0.040613
0.465339 0.067038 -0.004778
0.465339 -0.040354 -0.027294
0.465339 0.096525 -0.006214
0.465339 0.011531 -0.043850
0.465339 -0.071028 0.029112
0.465339 -0.008125 0.074103
0.465339 -0.027214 -0.058757
0.465339 -0.020818 -0.066028
0.465339 -0.008581 -0.006683
0.465339 -0.050960 -0.041688
0.465339 0.047913 0.065200
0.465339 -0.024939 -0.092591
0.465339 0.056675 -0.073570
0.465339 -0.025982 0.006419
0.465339 0.076830 -0.006040
0.465339 -0.023460 0.001259
0.465339 -0.005795 0.068044
0.465339 0.025763 -0.037965
0.465339 0.086149 0.005599
0.465339 0.092511 0.030722
0.465339 -0.021327 0.062576
0.465339 0.043157 0.069965
0.465339 0.028294 -0.091412
0.465339 -0.016066 0.016739
0.465339 0.076548 0.029652
0.465339 -0.070274 0.041889
0.465339 -0.057042 0.029890
0.465339 0.013756 -0.031506
0.465339 -0.013655 -0.030305
0.465339 -0.049255 0.070535
0.465339 0.033929 -0.084749
0.465339 -0.065688 0.061337
0.465339 -0.070000 -0.068150
0.465339 0.049172 -0.084402
0.465339 0.023331 0.033718
0.465339 -0.021275 0.088084
0.465339 -0.051465 0.072801
0.465339 -0.004126 -0.005079
0.465339 0.061913 0.044387
0.465339 -0.019202 0.029158
0.465339 0.023190 -0.001528
0.465339 -0.003101 -0.078276
0.465339 -0.009543 0.015537
0.465339 -0.008263 0.038230
0.465339 -0.011119 -0.090352
0.465339 0.024743 -0.066414
0.465339 -0.035712 -0.071306
0.465339 -0.066445 -0.050101
0.465339 0.010138 -0.052193
0.465339 -0.046304 0.086340
0.465339 0.039039 -0.028692
0.465339 0.047039 0.028842
0.465339 -0.002736 0.027284
0.465339 0.021925 0.044616
0.465339 0.070697 -0.027542
0.465339 0.052005 -0.076148
0.465339 -0.027871 0.069816
0.465339 -0.079193 -0.017673
0.465339 0.064019 0.074061
0.465339 0.083507 0.035573
0.465339 0.051445 0.033024
0.465339 -0.057104 0.005156
0.465339 -0.001058 0.029478
0.465339 0.013426 -0.021559
0.465339 -0.065481 0.065947
0.465339 -0.050900 0.001836
0.465339 0.016441 -0.085875
0.465339 0.011988 0.046641
0.465339 -0.022638 -0.012535
0.465339 0.060264 -0.044827
0.465339 -0.074272 -0.003492
0.465339 0.028595 -0.022769
0.465339 0.053387 0.057972
0.465339 -0.035781 -0.074195
0.465339 -0.071413 0.017531
0.465339 0.045046 -0.056548
0.465339 0.085366 0.001992
0.465339 -0.054849 -0.038586
0.465339 0.064350 -0.011480
0.465339 -0.051085 0.040425
0.465339 -0.026877 -0.011359
0.465339 -0.043766 0.046683
0.465339 0.073503 0.024780
0.465339 0.023364 0.073297
0.465339 -0.055080 0.040923
0.465339 0.064646 -0.043702
0.465339 0.058668 0.009757
0.465339 -0.032285 -0.094126
0.465339 -0.029396 -0.063786
0.465339 0.089586 -0.016403
0.465339 0.043874 -0.006599
0.465339 0.080560 -0.044791
0.465339 0.079606 0.009834
0.465339 -0.008166 -0.066294
0.465339 -0.024402 0.030463
0.465339 -0.049543 0.073282
0.465339 0.057773 -0.001242
0.465339 0.002001 -0.071305
0.465339 0.069990 -0.024843
0.465339 -0.002646 -0.051070
0.465339 -0.063610 -0.067686
0.465339 -0.006742 0.093347
0.465339 0.054251 0.025816
0.465339 0.038901 -0.010798
0.465339 -0.002010 -0.076693
0.465339 0.043847 -0.046917
0.465339 0.056210 0.048199
0.465339 -0.001426 -0.056064
0.465339 0.040304 -0.063431
0.465339 0.019557 -0.001755
0.465339 -0.096848 0.009946
0.465339 -0.031051 -0.055727
0.465339 -0.052952 -0.015345
0.465339 -0.095281 0.018223
0.465339 -0.033682 -0.006348
0.465339 0.039238 0.025719
0.465339 0.008738 -0.023840
0.465339 -0.038029 -0.054247
0.465339 0.063849 0.030979
0.465339 0.059839 0.013985
0.465339 0.030701 -0.036519
0.465339 0.008381 -0.043220
0.465339 -0.074379 0.043170
0.465339 -0.040563 0.020638
0.465339 0.050300 -0.051898
0.465339 0.004954 -0.098988
0.465339 0.035773 -0.057403
0.465339 0.050022 0.046897
0.465339 -0.042513 -0.032292
0.465339 0.027977 -0.024241
0.465339 0.027755 -0.094898
0.465339 0.057809 -0.053732
0.465339 0.021263 0.023047
0.465339 -0.096737 0.008462
0.465339 0.072835 -0.015053
0.465339 0.071022 -0.010372
0.465339 0.075721 0.025411
0.465339 0.004685 -0.075358
0.465339 0.022240 0.068087
0.465339 0.030504 0.070886
0.465339 0.021521 -0.029517
0.465339 0.006790 0.001642
0.465339 -0.067549 0.029017
0.465339 -0.054318 0.057985
0.465339 0.082768 -0.049989
0.465339 0.016757 0.003025
0.465339 -0.027913 -0.041021
0.465339 -0.019366 0.050414
0.465339 -0.046009 0.088571
0.465339 0.036404 -0.070384
0.465339 0.017943 -0.048748
0.465339 0.082261 0.017464
0.465339 0.021241 -0.047455
0.465339 -0.018724 -0.049058
0.465339 -0.058774 0.027684
0.465339 0.028252 -0.073279
0.465339 -0.020863 0.001017
0.465339 0.038330 0.015675
0.465339 -0.046847 -0.071863
0.465339 0.012139 -0.005140
0.465339 0.015428 -0.055765
0.465339 0.098084 -0.004159
0.465339 -0.073387 0.044830
0.465339 0.003751 0.061703
0.465339 0.013638 0.022176
0.465339 -0.014443 0.035646
0.465339 -0.009096 -0.009576
0.465339 -0.065981 -0.016822
0.465339 0.076601 0.039286
0.465339 -0.026160 -0.008359
0.465339 -0.085306 -0.040179
0.465339 -0.042103 -0.059238
0.465339 0.039946 -0.059309
0.465339 -0.012954 -0.020277
0.465339 -0.025072 -0.056700
0.465339 -0.086033 0.033778
0.465339 -0.010514 -0.055572
0.465339 0.051983 0.028130
0.465339 -0.043884 -0.068813
0.465339 -0.094617 0.010000
0.465339 0.019695 0.096812
0.465339 -0.034160 -0.074760
0.465339 -0.076007 -0.045416
0.465339 -0.079362 -0.030916
0.465339 -0.039093 0.038646
0.465339 0.058013 0.049408
0.465339 0.023136 0.055866
0.465339 0.077643 0.037978
0.465339 -0.080905 -0.015577
0.465339 0.093562 -0.032619
0.465339 0.017917 0.010661
0.465339 0.068956 -0.001111
0.465339 0.098267 0.004555
0.465339 0.068414 -0.004014
0.465339 -0.057370 0.028124
0.465339 0.001833 0.088971
0.465339 0.040036 0.031103
0.465339 0.017583 -0.015305
0.465339 0.025708 -0.082893
0.465339 -0.023809 0.070176
0.465339 0.066491 0.021960
0.465339 0.033781 0.038252
0.465339 -0.041215 -0.003791
0.465339 0.057648 0.076785
0.465339 0.024964 0.070634
0.465339 -0.047330 0.059593
0.465339 -0.045969 0.038869
0.465339 0.036285 0.087971
0.465339 0.097637 0.011049
0.465339 -0.006296 -0.082509
0.465339 0.065278 0.048187
0.465339 0.008203 0.061771
0.465339 0.045365 -0.084196
0.465339 0.025966 0.032847
0.465339 -0.008977 0.006244
0.465339 0.002991 -0.090020
0.465339 0.078426 -0.004127
0.465339 0.028649 0.095126
0.465339 0.005554 -0.063829
0.465339 0.017437 -0.042566
0.465339 -0.010377 -0.086915
0.465339 0.089489 -0.021590
0.465339 -0.045767 0.003677
0.465339 0.061213 -0.002500
0.465339 -0.048842 -0.026486
0.465339 0.074384 0.061124
0.465339 0.028894 -0.034662
0.465339 -0.065063 -0.058156
0.465339 -0.084062 0.009843
0.465339 0.006138 -0.058439
0.465339 -0.041013 0.028490
0.465339 -0.085987 0.002713
0.465339 -0.075098 0.033674
0.465339 -0.074931 -0.030521
0.465339 -0.005245 -0.095948
0.465339 -0.087482 0.026495
0.465339 0.015557 -0.061708
0.465339 0.044252 0.063299
0.465339 0.048490 -0.035488
0.465339 -0.033386 -0.037847
0.465339 0.003678 0.039635
0.465339 -0.000291 0.079054
0.465339 -0.050430 -0.085580
0.465339 0.064465 -0.035356
0.465339 0.042790 -0.020272
0.465339 0.045108 -0.061177
0.465339 -0.018204 0.093371
0.465339 -0.083519 -0.005527
0.465339 -0.070035 -0.016183
0.465339 0.016418 0.035527
0.465339 0.078371 -0.032174
0.465339 0.052699 -0.031791
0.465339 0.088638 -0.037420
0.465339 0.069489 0.000142
0.465339 -0.047462 -0.032335
0.465339 -0.072682 -0.010052
0.465339 -0.028197 -0.052219
0.465339 0.041042 0.079160
0.465339 0.047463 -0.006408
0.465339 0.056970 0.063444
0.465339 -0.020687 0.097409
0.465339 0.020978 -0.080865
0.465339 -0.080587 -0.017221
0.465339 -0.016318 0.023876
0.465339 -0.047765 0.042539
0.465339 0.029054 -0.016540
0.465339 -0.016067 -0.098314
0.465339 -0.041635 0.077991
0.465339 -0.032549 0.073232
0.465339 0.031641 0.073321
0.465339 -0.040234 -0.082645
0.465339 -0.001209 0.022807
0.465339 0.001283 0.010989
0.465339 0.038640 -0.058569
0.465339 0.085226 -0.015233
0.465339 0.037902 0.088780
0.465339 0.019879 -0.073073
0.465339 -0.062634 -0.016950
0.465339 -0.077723 0.009109
0.465339 -0.077176 -0.013479
0.465339 -0.034969 -0.006714
0.465339 0.008345 0.015567
0.465339 0.049235 -0.015016
0.465339 0.022149 -0.020652
0.465339 -0.044802 0.073307
0.465339 0.034716 -0.076844
0.465339 0.095543 0.025424
0.465339 -0.082981 0.055373
0.465339 0.087493 0.037214
0.465339 0.037750 0.066332
0.465339 -0.015211 0.058384
0.465339 -0.043711 0.026519
0.465339 -0.014654 -0.064748
0.465339 0.023651 0.009991
0.465339 0.034531 0.040141
0.465339 0.043998 0.050152
0.465339 -0.079292 -0.055330
0.465339 -0.021199 0.079038
0.465339 0.062955 -0.069093
0.465339 0.075043 0.036388
0.465339 -0.035333 -0.078458
0.465339 -0.057480 -0.058628
0.465339 -0.012206 0.020017
0.465339 -0.006790 -0.076979
0.465339 0.069561 -0.015022
0.465339 -0.057578 0.026177
0.465339 -0.040714 0.075027
0.465339 -0.068656 -0.033739
0.465339 0.048350 -0.033835
0.465339 0.069108 0.021312
0.465339 0.039248 0.056690
0.465339 0.070932 -0.051653
0.465339 0.006512 -0.050407
0.465339 -0.027866 0.073289
0.465339 -0.027583 -0.067685
0.465339 0.054262 -0.040435
0.465339 0.064199 0.019581
0.465339 -0.042583 -0.036773
0.465339 -0.047319 -0.045333
0.465339 -0.073746 0.000653
0.465339 0.041764 -0.019303
0.465339 0.059116 0.015458
0.465339 -0.048424 -0.085222
0.465339 -0.030621 -0.050179
0.465339 0.009515 -0.074355
0.465339 0.069869 -0.004389
0.465339 -0.031505 0.000375
0.465339 0.003872 -0.017446
0.465339 0.088863 0.010985
0.465339 0.025619 0.047442
0.465339 0.090527 -0.012383
0.465339 -0.005452 -0.041389
0.465339 -0.075862 0.011203
0.465339 0.010003 0.045654
0.465339 0.052916 -0.042196
0.465339 0.014401 -0.083085
0.465339 -0.025055 -0.086747
0.465339 -0.041117 -0.080854
0.465339 0.013814 0.092633
0.465339 0.094557 -0.003813
0.465339 0.026282 0.046067
0.465339 0.078841 -0.061147
0.465339 0.024849 -0.050585
0.465339 0.012032 -0.037504
0.465339 -0.062881 0.010560
0.465339 0.002589 -0.005444
0.465339 0.027434 0.020257
0.465339 0.026081 0.000311
0.465339 -0.038287 0.016025
0.465339 0.038008 -0.065681
0.465339 -0.079541 -0.015190
0.465339 0.006998 0.085456
0.465339 0.063505 0.023026
0.465339 0.001882 -0.087926
0.465339 0.031727 0.094752
0.465339 -0.000506 -0.011806
0.465339 -0.093778 0.018359
0.465339 0.091343 0.035286
0.465339 0.085766 0.046448
0.465339 0.048350 -0.044358
0.465339 0.080561 -0.053857
0.465339 -0.048506 0.044718
0.465339 -0.004339 -0.008477
0.465339 0.027787 -0.085857
0.465339 0.033440 -0.062828
0.465339 0.099340 -0.008460
0.465339 0.086907 0.030569
0.465339 0.077799 -0.022867
0.465339 -0.076200 -0.049658
0.465339 -0.015924 0.036178
0.465339 0.024768 -0.000791
0.465339 -0.014883 0.094226
0.465339 0.014685 -0.084916
0.465339 -0.000088 0.045283
0.465339 -0.066973 0.012788
0.465339 -0.024378 -0.080014
0.465339 0.009799 0.035606
0.465339 -0.037673 0.010142
0.465339 0.024760 0.031453
0.465339 -0.022718 0.077842
0.465339 -0.076187 -0.010413
0.465339 0.010714 -0.073284
0.465339 0.089561 -0.039915
0.465339 -0.001559 -0.043028
0.465339 0.028850 0.063534
0.465339 0.038764 0.022645
0.465339 0.026186 -0.085990
0.465339 -0.093524 -0.031565
0.465339 -0.079872 -0.018937
0.465339 -0.068269 0.032297
0.465339 0.037656 -0.034048
0.465339 -0.011345 -0.073916
0.465339 0.073525 0.044957
0.465339 0.018675 0.000347
0.465339 -0.035741 0.070669
0.465339 -0.040565 0.015268
0.465339 0.082722 0.045325
0.465339 -0.055755 -0.076866
0.465339 -0.008610 0.028931
0.465339 -0.066505 -0.043822
0.465339 -0.013319 -0.039709
0.465339 -0.042678 -0.051578
0.465339 -0.069835 0.061870
0.465339 -0.012023 -0.079734
0.465339 0.078335 -0.049569
0.465339 -0.047359 -0.025693
0.465339 -0.046151 0.077692
0.465339 -0.062804 -0.002940
0.465339 -0.067675 -0.010323
0.465339 -0.031732 -0.028249
0.465339 0.002306 0.012502
0.465339 -0.032677 -0.024666
0.465339 0.007868 0.086692
0.465339 -0.007844 0.095824
0.465339 -0.004744 -0.074672
0.465339 -0.024206 -0.059405
0.465339 -0.091716 -0.027177
0.465339 -0.043445 0.001764
0.465339 0.009014 -0.028877
0.465339 0.044988 -0.008073
0.465339 0.092618 -0.016157
0.465339 -0.054311 0.014901
0.465339 -0.093848 0.003235
0.465339 -0.019517 -0.081902
0.465339 -0.019982 0.015911
0.465339 0.039050 0.037188
0.465339 0.084116 0.021331
0.465339 -0.022517 0.094086
0.465339 0.031663 0.018449
0.465339 0.056392 -0.059676
0.465339 0.028341 0.003484
0.465339 0.075916 0.060235
0.465339 0.080201 0.054882
0.465339 -0.030914 -0.085289
0.465339 -0.005419 0.066524
0.465339 0.033894 -0.047646
0.465339 0.052523 0.073024
0.465339 -0.024361 -0.016410
0.465339 -0.064424 0.053336
0.465339 -0.019615 -0.002703
0.465339 0.014381 -0.025657
0.465339 -0.041918 -0.008664
0.465339 0.046542 -0.061935
0.465339 0.084288 0.000107
0.465339 0.030518 -0.028878
0.465339 -0.025958 0.037205
0.465339 -0.010003 0.078585
0.465339 0.033917 -0.052246
0.465339 -0.077513 -0.054528
0.465339 -0.079102 0.037724
0.465339 0.083239 0.015507
0.465339 -0.014025 -0.027410
0.465339 0.065094 -0.058800
0.465339 -0.012057 -0.030174
0.465339 0.079740 0.019324
0.465339 -0.019919 -0.018666
0.465339 -0.029797 0.046798
0.465339 0.094416 0.001196
0.465339 0.001072 0.041439
0.465339 -0.057336 0.039377
0.465339 -0.030138 -0.040598
0.465339 0.026526 0.043239
0.465339 0.025492 0.035512
0.465339 -0.064311 0.007915
0.465339 0.033608 0.071800
0.465339 0.008151 -0.095479
0.465339 -0.039257 -0.024479
0.465339 -0.055106 -0.050418
0.465339 -0.088939 0.031484
0.465339 -0.078570 -0.032759
0.465339 0.070000 0.003292
0.465339 -0.005314 -0.029804
0.465339 -0.058714 0.015563
0.465339 0.081935 0.021181
0.465339 -0.027613 -0.072902
0.465339 -0.054221 -0.049141
0.465339 -0.013874 -0.083140
0.465339 0.057213 -0.079488
0.465339 -0.072323 -0.060233
0.465339 -0.053213 0.054077
0.465339 0.016887 0.075083
0.465339 -0.020732 0.006654
0.465339 -0.016680 0.048398
0.465339 -0.016443 -0.036314
0.465339 0.064556 0.060132
0.465339 0.091970 -0.022994
0.465339 -0.079595 -0.000975
0.465339 0.077472 -0.021332
0.465339 0.067677 0.058532
0.465339 0.005037 -0.056333
0.465339 0.065827 -0.049588
0.465339 0.023962 -0.041547
0.465339 0.047430 0.051577
0.465339 0.048416 -0.016991
0.465339 0.018155 -0.013817
0.465339 0.004954 -0.073452
0.465339 0.042910 0.044501
0.465339 0.086690 -0.033490
0.465339 0.085416 0.020637
0.465339 -0.077265 -0.023870
0.465339 0.000697 0.060232
0.465339 -0.052093 0.083147
0.465339 -0.085805 -0.033388
0.465339 -0.049188 -0.045865
0.465339 -0.099129 0.003819
0.465339 0.062462 0.051185
0.465339 0.037080 -0.002013
0.465339 -0.017632 -0.029232
0.465339 -0.073465 -0.014777
0.465339 -0.003154 0.022278
0.465339 -0.002881 -0.062671
0.465339 -0.033548 0.028171
0.465339 -0.057969 0.040882
0.465339 0.093789 0.022710
0.465339 -0.003851 -0.071115
0.465339 0.041181 -0.064975
0.465339 -0.077640 -0.017877
0.465339 -0.098681 -0.006262
0.465339 -0.071539 -0.004676
0.465339 -0.061093 -0.066608
0.465339 -0.038891 0.011696
0.465339 0.059638 0.004063
0.465339 -0.049383 -0.071239
0.465339 -0.061770 -0.061854
0.465339 0.005375 0.027940
0.465339 0.027162 0.041672
0.465339 0.003261 0.046169
0.465339 0.088723 0.030426
0.465339 -0.052673 -0.053048
0.465339 0.026466 0.007561
0.465339 -0.001482 -0.083441
0.465339 0.025947 -0.025606
0.465339 0.037482 -0.068504
0.465339 -0.010493 0.054558
0.465339 -0.018807 0.060008
0.465339 0.035279 0.077552
0.465339 0.024687 0.083386
0.465339 -0.015462 -0.094769
0.465339 -0.026881 0.091333
0.465339 -0.049901 -0.022364
0.465339 0.039849 0.089801
0.465339 -0.030793 -0.076505
0.465339 -0.026686 -0.063164
0.465339 0.026743 0.075078
0.465339 -0.087195 0.048358
0.465339 -0.039807 0.022468
0.465339 -0.084049 0.050166
0.465339 0.039903 0.068483
0.465339 0.033798 0.073176
0.465339 0.062671 0.055258
0.465339 0.095839 -0.019380
0.465339 -0.008756 -0.086413
0.465339 -0.009852 -0.075888
0.465339 0.040699 -0.049981
0.465339 0.013752 -0.037052
0.465339 0.017805 -0.034350
0.465339 0.047261 0.033911
0.465339 -0.048264 0.085692
0.465339 -0.083597 -0.042942
0.465339 -0.083000 0.017852
0.465339 0.026300 0.017560
0.465339 -0.040338 0.062044
0.465339 0.038206 0.047867
0.465339 -0.022280 -0.046669
0.465339 -0.074097 -0.008442
0.465339 0.028999 -0.019319
0.465339 0.009636 0.013085
0.465339 -0.054929 0.042743
0.465339 -0.036962 -0.028719
0.465339 0.004237 -0.015961
0.465339 -0.030458 -0.013385
0.465339 -0.004508 -0.090600
0.465339 0.030834 0.057057
0.465339 0.093648 -0.002593
0.465339 -0.057862 0.061429
0.465339 0.051250 -0.043007
0.465339 0.039198 0.018842
0.465339 0.039298 0.039715
0.465339 0.010471 -0.057851
0.465339 -0.010647 -0.008758
0.465339 0.043291 0.018495
0.465339 -0.064203 0.022696
0.465339 -0.015796 0.070656
0.465339 0.016711 0.032389
0.465339 -0.086405 -0.019609
0.465339 -0.054201 -0.077060
0.465339 0.078408 -0.008702
0.465339 -0.042042 -0.027927
0.465339 -0.036473 0.012769
0.465339 -0.080018 -0.020697
0.465339 0.039012 -0.043537
0.465339 0.080892 -0.021067
0.465339 0.083960 -0.014723
0.465339 0.017915 0.077679
0.465339 0.072918 0.008003
0.465339 -0.057118 -0.011470
0.465339 0.075765 0.012601
0.465339 0.043772 0.001191
0.465339 0.064667 0.065152
0.465339 -0.007516 -0.008012
0.465339 -0.017851 -0.069238
0.465339 0.018233 -0.051349
0.465339 0.075245 -0.003014
0.465339 -0.031111 0.086975
0.465339 0.012987 -0.071007
0.465339 0.069883 -0.021078
0.465339 0.078036 0.010214
0.465339 -0.046886 -0.036446
0.465339 -0.010528 -0.083588
0.465339 -0.010569 -0.060308
0.465339 -0.056948 0.059017
0.465339 0.018787 -0.066374
0.465339 0.006355 -0.019257
0.465339 0.014881 -0.049304
0.465339 0.013103 -0.019999
0.465339 0.049872 -0.016625
0.465339 0.041595 -0.060109
0.465339 -0.041120 0.012282
0.465339 0.023044 0.064394
0.465339 -0.006365 -0.093490
0.465339 0.083441 -0.032625
0.465339 -0.031658 0.069996
0.465339 0.039582 0.091558
0.465339 0.083920 -0.009761
0.465339 -0.071265 -0.053765
0.465339 -0.052028 -0.084919
0.465339 -0.041483 0.081323
0.465339 -0.050913 0.028780
0.465339 0.023919 0.020190
0.465339 0.068199 -0.033339
0.465339 -0.007874 0.058906
0.465339 -0.018340 -0.004634
0.465339 0.029283 -0.013298
0.465339 -0.044620 -0.001529
0.465339 0.006710 -0.083015
0.465339 -0.073590 -0.054217
0.465339 -0.012160 0.082533
0.465339 -0.031100 -0.010022
0.465339 -0.059207 0.047386
0.465339 -0.000804 0.067732
0.465339 -0.052831 0.042815
0.465339 0.048652 0.034210
0.465339 0.046143 0.015791
0.465339 -0.011586 0.070716
0.465339 0.010396 -0.088805
0.465339 -0.000047 -0.064654
0.465339 -0.064052 0.031757
0.465339 0.008616 0.069918
0.465339 -0.010169 0.030019
0.465339 -0.007972 -0.093603
0.465339 -0.040063 -0.064983
0.465339 -0.053661 0.069002
0.465339 0.074868 0.065833
0.465339 -0.041512 -0.090478
0.465339 -0.020153 0.038650
0.465339 -0.009220 0.047467
0.465339 -0.072687 -0.007438
0.465339 0.004767 0.091948
0.465339 -0.084593 -0.000372
0.465339 -0.044645 -0.084175
0.465339 0.034409 -0.072897
0.465339 0.044391 0.048816
0.465339 -0.060128 0.032843
0.465339 0.016491 -0.094380
0.465339 -0.019762 -0.000469
0.465339 -0.027203 0.044605
0.465339 -0.016298 0.040704
0.465339 0.015548 0.016308
0.465339 0.027854 -0.078023
0.465339 -0.026126 -0.064613
0.465339 0.040333 -0.042348
0.465339 0.022306 0.035086
0.465339 0.071384 -0.061673
0.465339 0.009688 0.095449
0.465339 -0.017597 0.070925
0.465339 -0.041754 0.032369
0.465339 -0.043238 0.084341
0.465339 0.046532 -0.056465
0.465339 -0.025313 0.001417
0.465339 0.078043 0.042093
0.465339 0.020050 -0.054072
0.465339 0.005763 0.022876
0.465339 0.057820 0.029292
0.465339 0.052440 -0.018441
0.465339 0.050285 -0.049109
0.465339 -0.038385 0.013242
0.465339 -0.083384 0.030033
0.465339 -0.060232 0.001921
0.465339 0.072917 -0.039084
0.465339 -0.004610 0.096281
0.465339 -0.083841 -0.029323
0.465339 0.065001 0.042011
0.465339 -0.033131 0.010988
0.465339 -0.035082 0.057834
0.465339 -0.005947 -0.026545
0.465339 0.063792 0.008950
0.465339 0.037019 0.011737
0.465339 0.046300 -0.016501
0.465339 0.001647 0.014338
0.465339 0.056383 -0.046452
0.465339 0.087765 -0.022065
0.465339 0.008877 -0.075700
0.465339 -0.069670 0.020827
0.465339 0.069518 0.070178
0.465339 -0.054372 0.039539
0.465339 0.058213 -0.022839
0.465339 0.021216 -0.025846
0.465339 0.087635 -0.028345
0.465339 0.001892 -0.009512
0.465339 -0.051197 -0.052238
0.465339 0.058220 -0.069203
0.465339 -0.059365 0.049099
0.465339 -0.007381 -0.096208
0.465339 0.050910 -0.074395
0.465339 -0.022486 -0.088552
0.465339 -0.038928 -0.075753
0.465339 0.094543 -0.025768
0.465339 0.020629 0.074220
0.465339 0.061617 -0.025784
0.465339 -0.060082 -0.071389
0.465339 -0.023884 -0.045606
0.465339 -0.000747 0.063024
0.465339 -0.016756 -0.067971
0.465339 -0.087216 0.044590
0.465339 -0.066014 0.034161
0.465339 -0.071159 0.040379
0.465339 -0.048391 -0.034424
0.465339 0.059054 0.044602
0.465339 -0.000534 0.008926
0.465339 0.046349 0.042545
0.465339 0.058979 0.068794
0.465339 0.033644 -0.032750
0.465339 -0.006935 -0.012127
0.465339 -0.077418 -0.044423
0.465339 -0.094159 0.027553
0.465339 0.066783 -0.006843
0.465339 -0.010840 0.039667
0.465339 -0.080361 -0.032094
0.465339 -0.038217 0.076631
0.465339 0.091575 0.026683
0.465339 -0.069110 0.044584
0.465339 0.062404 0.068523
0.465339 0.024821 -0.017574
0.465339 0.022448 -0.066238
0.465339 0.076878 -0.002843
0.465339 -0.069831 -0.005762
0.465339 -0.004976 -0.023737
0.465339 -0.054564 0.006334
0.465339 0.015698 -0.045231
0.465339 0.008901 -0.036406
0.465339 0.052091 -0.020124
0.465339 -0.063103 0.072806
0.465339 -0.066666 -0.070090
0.465339 0.063832 -0.038680
0.465339 -0.060889 0.072887
0.465339 -0.038252 -0.032460
0.465339 -0.027103 0.002690
0.465339 -0.029376 0.078022
0.465339 -0.059931 0.064147
0.465339 0.027169 -0.076821
0.465339 -0.023950 0.022407
0.465339 -0.048260 0.012455
0.465339 -0.083892 -0.049284
0.465339 -0.040601 0.036697
0.465339 -0.035574 0.059455
0.465339 0.038163 0.076401
0.465339 -0.099510 0.002136
0.465339 -0.049432 -0.014741
0.465339 0.063025 0.075862
0.465339 -0.061387 -0.032374
0.465339 0.020464 0.021670
0.465339 -0.029081 -0.003344
0.465339 -0.050620 0.019567
0.465339 -0.021471 0.043374
0.465339 0.021218 -0.037251
0.465339 -0.097020 -0.014534
0.465339 -0.042400 0.025238
0.465339 0.055732 -0.038248
0.465339 0.066147 0.064533
0.465339 0.010462 -0.036044
0.465339 0.056761 0.072755
0.465339 -0.031709 0.033494
0.465339 0.079403 -0.010482
0.465339 -0.093379 -0.029440
0.465339 0.028100 0.056538
0.465339 0.084392 -0.018014
0.465339 -0.059009 -0.034880
0.465339 -0.037187 -0.006576
0.465339 0.010167 -0.022886
0.465339 -0.005245 0.082141
0.465339 0.015007 0.056500
0.465339 0.029307 0.015535
0.465339 -0.072366 -0.002536
0.465339 -0.050593 0.005504
0.465339 0.050449 0.014233
0.465339 -0.090095 0.028102
0.465339 0.067800 -0.067726
0.465339 -0.036694 0.079547
0.465339 0.097024 -0.011251
0.465339 -0.002949 0.085079
0.465339 0.035430 -0.005539
0.465339 -0.032077 0.083385
0.465339 -0.086950 -0.003533
0.465339 -0.033182 0.079029
0.465339 -0.054860 -0.053973
0.465339 0.093611 0.019500
0.465339 -0.063340 0.024935
0.465339 0.014549 0.086796
0.465339 0.006037 0.059122
0.465339 -0.081623 0.039490
0.465339 0.024222 0.096745
0.465339 0.061224 -0.012524
0.465339 -0.055287 -0.003978
0.465339 -0.023122 0.047803
0.465339 -0.007154 0.057629
0.465339 0.040918 0.002852
0.465339 0.020345 -0.033334
0.465339 -0.052231 0.035574
0.465339 0.073801 -0.029463
0.465339 -0.006854 0.015505
0.465339 0.053413 0.012275
0.465339 -0.040710 0.033986
0.465339 0.034103 0.056114
0.465339 0.018598 -0.080419
0.465339 -0.041769 -0.061693
0.465339 -0.042194 0.007709
0.465339 0.024798 0.013717
0.465339 -0.035448 0.028355
0.465339 0.095462 -0.014688
0.465339 -0.015790 0.051211
0.465339 0.028555 0.007351
0.465339 0.006455 -0.091446
0.465339 0.040282 -0.074274
0.465339 0.012564 -0.063519
0.465339 0.018068 0.004000
0.465339 -0.067784 -0.042990
0.465339 0.015931 0.045311
0.465339 0.010176 -0.030321
0.465339 0.049117 -0.070486
0.465339 0.000234 -0.027605
0.465339 -0.020449 -0.088636
0.465339 -0.075462 0.008179
0.465339 -0.012575 0.047941
0.465339 0.025733 0.053058
0.465339 0.051610 0.031311
0.465339 0.015587 0.006416
0.465339 -0.076244 -0.029696
0.465339 0.073299 0.062923
0.465339 -0.028869 0.076096
0.465339 0.005109 0.082858
0.465339 0.052013 0.002415
0.465339 0.041050 -0.039309
0.465339 0.019827 0.093509
0.465339 0.036351 0.042813
0.465339 -0.008027 -0.074616
0.465339 0.046664 0.060238
0.465339 0.049698 -0.062555
0.465339 0.050917 -0.041298
0.465339 -0.075277 0.025484
0.465339 -0.078745 -0.023320
0.465339 0.003764 0.033844
0.465339 0.033057 -0.009963
0.465339 -0.075964 -0.053495
0.465339 0.057960 0.056287
0.465339 -0.032108 -0.035148
0.465339 -0.036352 -0.025647
0.465339 -0.054687 0.055273
0.465339 0.066118 -0.057551
0.465339 0.093278 -0.004904
0.465339 0.022422 -0.052869
0.465339 0.059389 0.030442
0.465339 0.088353 0.001037
0.465339 0.077182 -0.052330
0.465339 -0.039618 -0.038694
0.465339 0.049220 0.023763
0.465339 -0.005095 0.034267
0.465339 0.086093 -0.035685
0.465339 -0.040376 -0.012996
0.465339 -0.078874 0.035821
0.465339 -0.056264 0.053563
0.465339 0.009179 0.040864
0.465339 -0.095140 -0.029037
0.465339 0.019540 -0.047995
0.465339 0.044287 0.013347
0.465339 -0.070675 -0.018779
0.465339 -0.044307 -0.028968
0.465339 -0.022442 0.036876
0.465339 -0.079168 0.008750
0.465339 0.092232 0.018694
0.465339 0.058877 0.002634
0.465339 0.062203 0.022051
0.465339 0.044994 0.018859
0.465339 -0.019741 -0.056786
0.465339 0.031876 0.025326
0.465339 -0.024339 0.056935
0.465339 -0.085884 0.040843
0.465339 -0.027931 -0.049224
0.465339 -0.043619 0.075768
0.465339 -0.006035 -0.054143
0.465339 0.070920 0.034918
0.465339 0.043551 0.043169
0.465339 -0.011160 0.026241
0.465339 -0.046439 -0.079497
0.465339 0.040312 -0.019350
0.465339 -0.005989 -0.035232
0.465339 -0.016343 0.085456
0.465339 -0.018465 0.011571
0.465339 -0.060327 0.066393
0.465339 0.070923 -0.070003
0.465339 -0.020367 0.042362
0.465339 -0.038028 -0.017249
0.465339 0.059603 0.023650
0.465339 -0.027379 0.084178
0.465339 0.047297 -0.032514
0.465339 0.019340 -0.097119
0.465339 0.013420 -0.098623
0.465339 0.025756 -0.070136
0.465339 -0.075005 0.022506
0.465339 -0.007314 -0.085353
0.465339 -0.046052 -0.055604
0.465339 -0.000487 -0.072403
0.465339 0.015019 -0.095423
0.465339 -0.009317 -0.072200
0.465339 -0.009887 0.049944
0.465339 -0.019196 0.040399
0.465339 0.053527 0.019404
0.465339 0.020846 -0.014137
0.465339 0.017075 0.064826
0.465339 0.032442 0.005525
0.465339 0.050067 0.000204
0.465339 -0.027573 -0.076918
0.465339 -0.012719 -0.010402
0.465339 0.016371 -0.048595
0.465339 -0.052122 -0.042809
0.465339 0.012637 -0.032602
0.465339 0.053541 -0.036346
0.465339 -0.033024 -0.026559
0.465339 0.037298 -0.042527
0.465339 0.011681 0.090011
0.465339 -0.003546 -0.011969
0.465339 -0.024217 -0.023864
0.465339 0.041546 -0.087044
0.465339 -0.070658 -0.042922
0.465339 -0.056251 -0.045262
0.465339 -0.032943 -0.007939
0.465339 -0.011940 -0.000221
0.465339 -0.038972 -0.070468
0.465339 -0.070837 -0.032461
0.465339 0.064229 -0.007843
0.465339 0.072984 -0.030908
0.465339 0.021881 -0.008004
0.465339 0.009978 0.010632
0.465339 -0.053629 0.077635
0.465339 0.046807 -0.078288
0.465339 0.007022 0.056003
0.465339 -0.032639 0.042381
0.465339 -0.030311 0.089440
0.465339 0.012479 0.050157
0.465339 0.010738 0.086653
0.465339 0.055895 -0.018374
0.465339 0.075092 -0.042561
0.465339 0.044151 0.034267
0.465339 0.012323 0.001496
0.465339 -0.004406 -0.080184
0.465339 0.044095 0.083185
0.465339 0.082658 0.026591
0.465339 -0.006807 0.082503
0.465339 -0.036176 -0.004564
0.465339 -0.013791 0.033520
0.465339 0.029799 0.054959
0.465339 0.037440 -0.015131
0.465339 -0.024248 0.077752
0.465339 -0.043805 -0.024624
0.465339 -0.001254 0.085329
0.465339 0.044826 0.042245
0.465339 0.053694 -0.078305
0.465339 -0.006959 -0.023611
0.465339 -0.007804 -0.022078
0.465339 -0.084576 0.038686
0.465339 0.036219 -0.014300
0.465339 0.058069 0.024782
0.465339 0.013060 0.048002
0.465339 0.052330 -0.007576
0.465339 0.032057 0.061546
0.465339 -0.036572 0.042027
0.465339 0.064850 -0.054606
0.465339 -0.061553 -0.056985
0.465339 0.013758 0.098768
0.465339 -0.063445 0.009147
0.465339 -0.000700 0.012911
0.465339 0.081625 0.025372
0.465339 -0.088989 -0.001046
0.465339 -0.023515 0.014565
0.465339 0.035078 0.023195
0.465339 -0.029938 -0.045884
0.465339 0.029477 -0.092783
0.465339 0.032461 -0.074421
0.465339 0.075881 -0.050248
0.465339 0.005938 0.005689
0.465339 0.008783 0.060068
0.465339 -0.027068 0.093966
0.465339 0.050720 -0.078979
0.465339 -0.082222 0.030890
0.465339 0.076929 0.057267
0.465339 0.073404 -0.062023
0.465339 0.032152 -0.019229
0.465339 -0.057818 -0.074105
0.465339 -0.080491 0.000279
0.465339 -0.006002 0.089608
0.465339 0.004317 -0.034864
0.465339 -0.011538 0.097679
0.465339 0.045170 0.069750
0.465339 -0.011272 -0.042039
0.465339 -0.034703 0.007790
0.465339 -0.076133 -0.017862
0.465339 0.011678 0.040035
0.465339 0.012415 -0.045355
0.465339 -0.017526 -0.021397
0.465339 -0.028575 0.015014
0.465339 -0.068803 -0.020597
0.465339 0.034736 0.015206
0.465339 -0.090239 0.037035
0.465339 -0.019252 0.008726
0.465339 -0.023093 0.057619
0.465339 0.001397 0.017925
0.465339 0.021648 0.028636
0.465339 -0.080274 0.024696
0.465339 0.035116 0.064603
0.465339 0.003319 -0.062325
0.465339 -0.087860 0.035927
0.465339 0.099441 0.007604
0.465339 0.039315 -0.050694
0.465339 0.033599 0.036527
0.465339 0.088108 -0.020524
0.465339 -0.055683 0.038776
0.465339 -0.045084 0.037020
0.465339 0.006901 -0.051853
0.465339 0.041498 0.070197
0.465339 0.088362 0.046749
0.465339 0.017543 -0.072743
0.465339 -0.033207 -0.034172
0.465339 -0.078232 -0.029658
0.465339 -0.025084 -0.088242
0.465339 -0.049962 -0.033999
0.465339 -0.046525 -0.052177
0.465339 0.020510 -0.056427
0.465339 -0.096916 0.021998
0.465339 0.095170 0.009485
0.465339 -0.071409 -0.063188
0.465339 0.083403 0.039746
0.465339 -0.075059 -0.041093
0.465339 -0.008331 0.060240
0.465339 0.023289 -0.096610
0.465339 0.032871 -0.043927
0.465339 0.027084 0.059171
0.465339 -0.055240 -0.068615
0.465339 0.086346 -0.017590
0.465339 -0.075591 -0.048319
0.465339 -0.003438 0.010598
0.465339 -0.009125 0.039477
0.465339 -0.072000 -0.064808
0.465339 -0.033373 0.022203
0.465339 -0.048522 -0.049776
0.465339 -0.020362 0.063622
0.465339 -0.004499 -0.067668
0.465339 0.073095 0.010848
0.465339 0.008710 0.028594
0.465339 0.054464 -0.042933
0.465339 0.002639 0.028059
0.465339 0.006695 0.063781
0.465339 -0.031758 0.074796
0.465339 0.005898 0.040749
0.465339 0.030210 -0.020151
0.465339 0.013937 -0.009178
0.465339 0.072506 -0.016898
0.465339 -0.058522 -0.039547
0.465339 0.020808 0.080101
0.465339 -0.036554 0.060560
0.465339 0.053207 0.032007
0.465339 -0.060380 -0.075157
0.465339 -0.056358 0.061702
0.465339 -0.047466 -0.050891
0.465339 0.021597 0.012287
0.465339 -0.031835 -0.012884
0.465339 0.024037 -0.032888
0.465339 -0.017419 0.039552
0.465339 0.084766 0.051317
0.465339 0.045312 0.050479
0.465339 0.077828 0.060745
0.465339 0.053113 -0.045085
0.465339 0.068223 0.071168
0.465339 -0.075742 -0.003973
0.465339 -0.073974 -0.060728
0.465339 0.060789 -0.056638
0.465339 0.098038 0.017998
0.465339 -0.015348 -0.051747
0.465339 0.024925 0.087333
0.465339 0.053251 0.049090
0.465339 -0.079364 -0.028747
0.465339 -0.033738 -0.057477
0.465339 -0.004373 0.020463
0.465339 -0.028904 -0.020306
0.465339 0.002751 0.038262
0.465339 -0.083407 0.003204
0.465339 0.011379 0.000058
0.465339 -0.085357 0.049209
0.465339 -0.009763 0.086474
0.465339 -0.032462 -0.041506
0.465339 0.001117 -0.012351
0.465339 -0.092241 0.031551
0.465339 -0.050197 -0.074497
0.465339 0.059317 0.059036
0.465339 -0.085211 0.024538
0.465339 0.048677 0.006366
0.465339 -0.080422 -0.033959
0.465339 0.057567 0.059424
0.465339 -0.046313 0.020497
0.465339 -0.041746 0.050311
0.465339 -0.057925 0.045483
0.465339 0.036471 0.053848
0.465339 -0.075470 -0.001871
0.465339 -0.036089 0.073692
0.465339 -0.026230 -0.061599
0.465339 -0.031786 -0.018640
0.465339 -0.075687 -0.044003
0.465339 0.003312 0.051225
0.465339 0.039012 -0.020856
0.465339 -0.050803 -0.070777
0.465339 -0.020184 0.052345
0.465339 -0.042289 -0.073921
0.465339 0.023377 0.082825
0.465339 -0.057002 -0.069907
0.465339 0.006989 0.083882
0.465339 0.050044 -0.010812
0.465339 0.069091 0.057370
0.465339 0.026323 0.065276
0.465339 -0.002349 0.025894
0.465339 0.024090 -0.077053
0.465339 0.042798 0.013267
0.465339 -0.036787 -0.055451
0.465339 0.035725 -0.045220
0.465339 0.071039 0.036777
0.465339 -0.034354 0.091311
0.465339 -0.048377 0.050812
0.465339 -0.069683 0.033210
0.465339 0.052111 0.011536
0.465339 -0.017405 -0.054664
0.465339 0.014921 0.025249
0.465339 0.051853 0.080801
0.465339 -0.030261 -0.002086
0.465339 -0.082554 0.032543
0.465339 -0.034683 -0.073224
0.465339 0.070128 -0.035721
0.465339 -0.023504 0.019841
0.465339 0.093187 -0.027447
0.465339 -0.078064 -0.041845
0.465339 0.015448 -0.002380
0.465339 -0.051537 -0.047829
0.465339 -0.033549 0.045388
0.465339 0.035047 0.066543
0.465339 0.012402 0.022876
0.465339 -0.002128 -0.094608
0.465339 0.017115 -0.004220
0.465339 -0.076124 0.034996
0.465339 -0.018838 -0.086186
0.465339 0.017061 0.027932
0.465339 0.032789 -0.077665
0.465339 0.050845 -0.065264
0.465339 0.026526 0.071236
0.465339 -0.040834 -0.076222
0.465339 0.076595 0.041380
0.465339 -0.001254 -0.045315
0.465339 0.058537 0.012998
0.465339 -0.074564 -0.051603
0.465339 0.064103 0.000966
0.465339 0.060421 0.036371
0.465339 -0.023593 -0.003086
0.465339 -0.098219 0.017221
0.465339 -0.070985 0.021652
0.465339 -0.053186 0.049090
0.465339 0.043037 -0.005420
0.465339 0.089654 0.035282
0.465339 0.008621 -0.053331
0.465339 -0.032931 -0.046243
0.465339 -0.010658 -0.080042
0.465339 0.002944 0.078321
0.465339 0.082359 -0.041677
0.465339 0.054788 0.021367
0.465339 0.061268 -0.067609
0.465339 -0.047821 -0.053208
0.465339 0.010781 0.004044
0.465339 0.001042 -0.092821
0.465339 0.094657 0.014520
0.465339 0.067852 -0.054924
0.465339 0.000608 0.024018
0.465339 -0.078673 -0.046355
0.465339 -0.022231 -0.028391
0.465339 -0.046082 0.034870
0.465339 0.020776 0.043538
0.465339 -0.039446 0.033389
0.465339 0.055177 -0.045291
0.465339 0.063154 -0.063676
0.465339 -0.028974 -0.009412
0.465339 0.042173 0.009743
0.465339 0.027084 0.053905
0.465339 -0.008309 0.065453
0.465339 -0.024845 -0.073845
0.465339 0.080914 0.023215
0.465339 -0.027134 0.035367
0.465339 0.047384 0.026247
0.465339 0.059696 0.053249
0.465339 0.042191 0.002136
0.465339 0.033643 -0.025518
0.465339 -0.027344 -0.081362
0.465339 -0.010652 0.052950
0.465339 0.025079 0.077952
0.465339 0.038077 -0.084177
0.465339 0.085977 -0.025218
0.465339 0.005813 -0.012758
0.465339 0.074049 0.000020
0.465339 0.002815 -0.034442
0.465339 -0.039158 0.014952
0.465339 0.016374 0.073244
0.465339 -0.031475 0.030063
0.465339 0.014971 -0.047522
0.465339 0.067966 -0.043994
0.465339 0.022135 -0.009916
0.465339 -0.066444 0.051387
0.465339 0.030198 0.051755
0.465339 -0.006273 0.005055
0.465339 0.028104 0.016728
0.465339 -0.058393 -0.056281
0.465339 -0.081346 0.036145
0.465339 -0.024849 0.080936
0.465339 0.024326 -0.062475
0.465339 -0.084440 0.021718
0.465339 -0.068606 0.030159
0.465339 -0.031358 0.068208
0.465339 0.092467 -0.018489
0.465339 0.008031 -0.061953
0.465339 0.019357 0.044091
0.465339 -0.009663 -0.090050
0.465339 -0.052272 0.041344
0.465339 0.029236 -0.027717
0.465339 -0.079742 0.010291
0.465339 0.043385 0.027208
0.465339 -0.040291 -0.000255
0.465339 0.057793 -0.028240
0.465339 0.091630 -0.037158
0.465339 0.089759 0.019727
0.465339 -0.041046 0.089146
0.465339 -0.027578 -0.024661
0.465339 0.080985 0.058782
0.465339 -0.052191 0.013203
0.465339 -0.056806 0.035440
0.465339 -0.038911 0.020695
0.465339 0.055630 -0.035394
0.465339 0.003643 0.009908
0.465339 -0.039923 0.025319
0.465339 -0.023369 -0.056023
0.465339 0.080641 -0.040236
0.465339 0.003249 0.018063
0.465339 -0.008321 0.022503
0.465339 0.031353 -0.062001
0.465339 -0.032432 -0.066212
0.465339 0.046417 -0.012234
0.465339 0.053567 -0.022176
0.465339 -0.016148 0.031132
0.465339 0.027954 -0.041981
0.465339 0.053702 -0.076950
0.465339 -0.044021 0.017270
0.465339 0.049114 0.074206
0.465339 0.015576 0.008481
0.465339 -0.029325 0.007474
0.465339 0.025619 0.079992
0.465339 0.080613 0.034991
0.465339 0.091016 -0.017706
0.465339 0.047972 -0.002793
0.465339 0.014032 0.009331
0.465339 -0.070129 -0.051248
0.465339 -0.025549 -0.053819
0.465339 -0.094823 0.011380
0.465339 -0.072698 -0.001200
0.465339 0.089118 0.027309
0.465339 0.028448 0.053414
0.465339 0.029183 0.070000
0.465339 -0.068856 0.006929
0.465339 -0.062227 0.056771
0.465339 0.013948 0.030352
0.465339 -0.058032 -0.022565
0.465339 0.071910 -0.059507
0.465339 0.040140 -0.012701
0.465339 -0.028505 0.085427
0.465339 -0.072748 0.016602
0.465339 0.086489 0.015189
0.465339 0.016814 -0.014018
0.465339 0.058562 -0.065025
0.465339 -0.072901 0.027111
0.465339 -0.036429 -0.031709
0.465339 0.004363 0.087081
0.465339 0.031445 0.054698
0.465339 -0.078586 -0.036149
0.465339 -0.068635 -0.064142
0.465339 -0.033652 -0.067110
0.465339 0.069782 0.038625
0.465339 -0.017182 -0.024850
0.465339 -0.072938 0.020505
0.465339 -0.008474 -0.042323
0.465339 0.022783 -0.056750
0.465339 0.003500 -0.047464
0.465339 0.039709 -0.030743
0.465339 -0.007660 -0.068148
0.465339 -0.041734 -0.071972
0.465339 -0.030348 0.059181
0.465339 0.036729 0.015828
0.465339 0.018583 -0.088138
0.465339 0.008307 -0.000142
0.465339 0.024992 0.043265
0.465339 0.016027 0.029579
0.465339 -0.042114 -0.063090
0.465339 0.043068 0.006307
0.465339 -0.046656 -0.007204
0.465339 -0.053308 -0.057846
0.465339 -0.081044 0.048839
0.465339 0.044705 -0.001614
0.465339 -0.042493 -0.053020
0.465339 0.025844 -0.011674
0.465339 0.004367 -0.070676
0.465339 0.082057 0.007738
0.465339 -0.004923 0.077669
0.465339 0.088200 0.018697
0.465339 0.051698 0.041683
0.465339 -0.096816 0.023873
0.465339 -0.061389 -0.021938
0.465339 -0.009501 -0.007943
0.465339 -0.018321 -0.036485
0.465339 -0.060468 -0.062484
0.465339 -0.009685 0.045787
0.465339 -0.033491 0.057321
0.465339 -0.016990 -0.080067
0.465339 0.040640 -0.051406
0.465339 -0.038659 0.059513
0.465339 0.084005 -0.044154
0.465339 -0.035793 0.036154
0.465339 -0.061237 0.078763
0.465339 0.040992 0.005918
0.465339 -0.039804 0.073668
0.465339 -0.040014 -0.021153
0.465339 0.029517 -0.064300
0.465339 0.031062 0.000904
0.465339 -0.075122 0.030359
0.465339 0.039305 -0.064602
0.465339 -0.077254 0.030940
0.465339 -0.087506 0.004013
0.465339 -0.047474 -0.024134
0.465339 -0.031099 0.073462
0.465339 -0.062156 0.076283
0.465339 0.007464 -0.027938
0.465339 -0.045371 -0.010136
0.465339 0.064042 0.024495
0.465339 -0.040844 -0.053132
0.465339 -0.096187 -0.001991
0.465339 0.001744 0.044767
0.465339 -0.026719 -0.015530
0.465339 0.066445 -0.024081
0.465339 -0.003844 -0.087971
0.465339 -0.012840 -0.018773
0.465339 -0.090246 0.032465
0.465339 0.051646 -0.009174
0.465339 0.057070 -0.003759
0.465339 0.044723 -0.070337
0.465339 -0.061870 0.008863
0.465339 -0.077656 0.019347
0.465339 0.028995 -0.084482
0.465339 -0.058565 -0.078045
0.465339 -0.096494 -0.012764
0.465339 -0.024639 -0.072020
0.465339 0.021694 0.094165
0.465339 -0.050919 -0.068745
0.465339 0.007144 0.047119
0.465339 -0.010407 0.019801
0.465339 0.052715 -0.057662
0.465339 0.090754 0.006309
0.465339 0.029761 -0.024299
0.465339 -0.013068 0.070057
0.465339 -0.028373 0.047552
0.465339 0.082878 0.052967
0.465339 -0.045559 -0.085643
0.465339 0.079752 0.056216
0.465339 -0.070996 -0.058372
0.465339 0.072267 0.062007
0.465339 -0.018662 -0.080687
0.465339 0.041978 -0.063735
0.465339 -0.075233 -0.015855
0.465339 -0.032938 -0.074161
0.465339 -0.021748 0.076315
0.465339 -0.018718 -0.053991
0.465339 -0.072660 0.018964
0.465339 -0.036152 -0.034256
0.465339 0.046553 0.052946
0.465339 -0.078710 0.056681
0.465339 -0.037560 -0.000208
0.465339 -0.092132 0.005624
0.465339 0.086209 0.009805
0.465339 0.084702 0.034727
0.465339 -0.042867 -0.064380
0.465339 0.006102 -0.027713
0.465339 -0.041744 0.029966
0.465339 -0.024869 -0.076032
0.465339 -0.009380 -0.041064
0.465339 0.063981 -0.066426
0.465339 0.016846 -0.066945
0.465339 -0.027238 0.090026
0.465339 -0.001568 0.011266
0.465339 0.003563 -0.074335
0.465339 0.060391 -0.028649
0.465339 -0.008649 0.043140
0.465339 -0.058486 0.059999
0.465339 -0.001465 -0.032016
0.465339 0.037283 -0.054648
0.465339 -0.074118 0.019487
0.465339 -0.067976 -0.065754
0.465339 0.034869 -0.044187
0.465339 -0.048525 -0.068295
0.465339 0.060115 0.046935
0.465339 0.026159 0.012467
0.465339 -0.052622 -0.066167
0.465339 -0.060819 -0.017980
0.465339 0.002321 0.022352
0.465339 0.074335 -0.055823
0.465339 0.032682 0.049488
0.465339 -0.044956 -0.059363
0.465339 0.047831 -0.046066
0.465339 0.077570 -0.045890
0.465339 0.049498 -0.076960
0.465339 0.004096 0.048436
0.465339 -0.001115 -0.099206
0.465339 -0.034030 0.009072
0.465339 -0.078862 -0.005200
0.465339 -0.083543 -0.016596
0.465339 0.036199 0.063123
0.465339 -0.080102 0.040170
0.465339 -0.055802 -0.064349
0.465339 0.054103 -0.024249
0.465339 -0.014007 -0.096116
0.465339 -0.012855 -0.026451
0.465339 -0.003734 -0.038572
0.465339 0.076439 0.028076
0.465339 -0.000387 0.054438
0.465339 -0.035753 -0.092877
0.465339 -0.041228 0.085681
0.465339 -0.057169 0.048968
0.465339 0.035796 -0.008250
0.465339 -0.023887 -0.039948
0.465339 0.054511 -0.082905
0.465339 0.077038 -0.055805
0.465339 -0.057572 -0.016612
0.465339 0.099622 -0.004003
0.465339 0.043502 -0.016137
0.465339 0.067383 -0.034558
0.465339 -0.052495 -0.001771
0.465339 -0.021044 0.050407
0.465339 0.022431 0.019576
0.465339 0.032589 0.063483
0.465339 0.047901 -0.012293
0.465339 -0.003740 0.025253
0.465339 -0.078222 -0.001225
0.465339 0.056693 0.004361
0.465339 -0.010725 -0.046968
0.465339 -0.013292 -0.002256
0.465339 -0.059580 -0.038051
0.465339 0.084325 0.026496
0.465339 -0.001251 -0.036725
0.465339 -0.065374 -0.054197
0.465339 -0.031281 0.080305
0.465339 -0.067158 -0.040450
0.465339 0.066671 -0.008693
0.465339 0.042886 -0.069763
