0.465339 -0.074649 0.020589
0.465339 0.078143 0.061574
0.465339 0.042254 -0.003331
0.465339 -0.018130 -0.082591
0.465339 -0.024128 0.026224
0.465339 -0.016495 -0.059027
0.465339 -0.046904 -0.040966
0.465339 -0.044525 -0.051296
0.465339 -0.005364 -0.086845
0.465339 -0.057891 0.006738
0.465339 0.087807 0.009118
0.465339 -0.039819 0.087657
0.465339 0.075799 -0.064786
0.465339 0.007391 -0.002816
0.465339 0.023422 -0.030963
0.465339 -0.004751 0.060235
0.465339 0.001016 -0.002562
0.465339 -0.056556 0.008031
0.465339 0.062691 -0.029007
0.465339 0.054316 -0.073138
0.465339 -0.072618 0.033036
0.465339 0.040317 -0.001650
0.465339 0.021641 0.025777
0.465339 0.039870 -0.080580
0.465339 0.047736 0.033094
0.465339 -0.044893 -0.013506
0.465339 -0.057836 0.015379
0.465339 -0.005841 0.095245
0.465339 0.090876 -0.015099
0.465339 0.061036 0.058752
0.465339 0.030804 0.073162
0.465339 0.044810 -0.051723
0.465339 0.015645 -0.064164
0.465339 0.018452 0.044991
0.465339 0.034884 0.086788
0.465339 0.092223 0.011295
0.465339 -0.036510 0.027406
0.465339 -0.006113 -0.076902
0.465339 0.097214 -0.014992
0.465339 0.045411 -0.018859
0.465339 0.020659 -0.078614
0.465339 -0.048896 0.005736
0.465339 0.015166 -0.014136
0.465339 0.027805 0.019477
0.465339 -0.031435 0.093179
0.465339 -0.023253 0.091696
0.465339 -0.095510 -0.011011
0.465339 -0.034951 0.017747
0.465339 0.063923 0.001135
0.465339 0.088696 -0.021351
0.465339 -0.003227 0.059887
0.465339 -0.047000 0.005979
0.465339 -0.027113 -0.060335
0.465339 -0.081436 0.002605
0.465339 0.084257 -0.049484
0.465339 -0.054468 -0.012420
0.465339 -0.023147 0.056627
0.465339 -0.031277 0.063161
0.465339 0.094048 -0.006245
0.465339 0.025367 -0.009994
0.465339 0.034581 -0.081810
0.465339 -0.000411 0.008392
0.465339 -0.043776 -0.035537
0.465339 -0.020335 0.072028
0.465339 -0.020388 0.019351
0.465339 -0.029156 0.078117
0.465339 0.016420 -0.088078
0.465339 -0.072197 -0.020891
0.465339 -0.020114 0.095524
0.465339 -0.010242 -0.019996
0.465339 -0.020466 0.041609
0.465339 0.001488 0.094837
0.465339 -0.025806 -0.070696
0.465339 0.098798 -0.014614
0.465339 0.069544 -0.049968
0.465339 0.020710 0.053048
0.465339 0.006351 -0.060406
0.465339 0.033893 -0.032736
0.465339 -0.022117 -0.005634
0.465339 0.007121 -0.091594
0.465339 0.071802 0.047099
0.465339 -0.008481 -0.005923
0.465339 -0.069313 0.063348
0.465339 -0.005175 -0.038131
0.465339 -0.077936 0.043947
0.465339 -0.011442 -0.064782
0.465339 0.079762 0.050930
0.465339 0.018927 -0.082007
0.465339 -0.004156 0.093329
0.465339 0.076400 -0.054675
0.465339 -0.055051 -0.042545
0.465339 0.074931 0.015678
0.465339 0.033718 0.005399
0.465339 0.051500 -0.048939
0.465339 0.075293 0.039576
0.465339 -0.048008 0.004586
0.465339 -0.060325 -0.064875
0.465339 -0.076107 -0.003149
0.465339 0.036887 -0.017690
0.465339 -0.006318 -0.092894
0.465339 -0.063957 -0.067174
0.465339 -0.022846 0.085966
0.465339 0.079893 0.007941
0.465339 0.045380 0.028357
0.465339 -0.007215 0.042083
0.465339 0.053105 -0.025705
0.465339 -0.051203 -0.039612
0.465339 0.074019 -0.009900
0.465339 -0.010218 0.061256
0.465339 0.045981 -0.059414
0.465339 -0.016553 0.051213
0.465339 -0.073920 -0.024577
0.465339 -0.011283 0.008456
0.465339 0.044373 -0.064962
0.465339 0.003357 -0.039834
0.465339 -0.032812 -0.075051
0.465339 -0.023472 0.089488
0.465339 0.021891 0.065904
0.465339 0.075888 0.056189
0.465339 -0.040435 -0.061791
0.465339 -0.058569 -0.019346
0.465339 0.023371 0.064955
0.465339 0.039502 -0.057499
0.465339 0.041584 -0.068691
0.465339 -0.033746 -0.027970
0.465339 -0.013660 0.067778
0.465339 0.017924 -0.018582
0.465339 0.013898 -0.023361
0.465339 -0.088356 -0.034364
0.465339 0.033616 -0.093072
0.465339 -0.016228 -0.034183
0.465339 -0.070750 -0.015675
0.465339 -0.008813 -0.030546
0.465339 -0.061987 0.067800
0.465339 -0.012160 0.054397
0.465339 -0.046202 0.072297
0.465339 -0.031011 -0.066973
0.465339 0.029760 -0.054170
0.465339 0.048203 0.007093
0.465339 0.065229 0.039979
0.465339 0.044236 0.071296
0.465339 -0.069185 0.060306
0.465339 0.094059 -0.018875
0.465339 0.020586 0.059680
0.465339 -0.047332 -0.031114
0.465339 -0.072671 -0.056029
0.465339 0.036059 -0.044008
0.465339 0.043842 -0.086234
0.465339 -0.035853 0.087438
0.465339 0.071986 0.062833
0.465339 0.007667 -0.087823
0.465339 0.086294 -0.001833
0.465339 -0.056180 -0.066868
0.465339 0.074315 0.060144
0.465339 0.011661 -0.008214
0.465339 -0.037363 -0.024317
0.465339 -0.044581 0.084349
0.465339 -0.080418 0.027380
0.465339 -0.043100 0.081698
0.465339 0.030854 0.034320
0.465339 0.081335 -0.027338
0.465339 -0.047847 -0.058917
0.465339 0.094622 0.008985
0.465339 0.072147 -0.021677
0.465339 0.033320 0.029374
0.465339 -0.037290 0.083762
0.465339 0.053440 -0.077846
0.465339 0.036415 0.056545
0.465339 0.033320 -0.062611
0.465339 0.084840 -0.004353
0.465339 -0.047143 -0.014668
0.465339 0.050770 0.075088
0.465339 -0.027019 0.069517
0.465339 0.065154 0.025196
0.465339 0.047415 0.029514
0.465339 -0.088889 0.002137
0.465339 -0.049373 -0.081871
0.465339 0.040289 -0.085687
0.465339 0.040415 0.057423
0.465339 -0.018307 0.089700
0.465339 -0.061221 -0.003152
0.465339 0.017668 -0.007790
0.465339 0.002839 -0.063425
0.465339 0.097188 0.012394
0.465339 -0.007538 -0.020993
0.465339 0.059243 0.000894
0.465339 0.060610 0.053074
0.465339 0.073529 0.017268
0.465339 -0.088535 -0.029587
0.465339 0.001847 0.034734
0.465339 -0.014511 0.002926
0.465339 0.026438 0.095318
0.465339 0.000066 -0.018280
0.465339 -0.069624 0.010339
0.465339 -0.094647 0.008687
0.465339 0.064046 0.056049
0.465339 -0.080541 -0.002421
0.465339 -0.089294 0.008342
0.465339 0.069446 0.066572
0.465339 0.021317 0.039762
0.465339 0.081191 -0.024308
0.465339 0.036746 0.077792
0.465339 0.036125 -0.088009
0.465339 -0.008710 0.041958
0.465339 0.024178 -0.048131
0.465339 -0.081876 -0.046486
0.465339 -0.022523 -0.079378
0.465339 -0.043557 -0.070674
0.465339 -0.036216 0.005773
0.465339 -0.036399 0.024600
0.465339 -0.034173 -0.063736
0.465339 0.067213 0.045367
0.465339 0.014998 0.041425
0.465339 0.042101 0.065050
0.465339 0.011060 0.009450
0.465339 0.002340 0.073810
0.465339 0.099870 -0.002774
0.465339 -0.028625 0.037487
0.465339 0.037832 -0.046172
0.465339 0.096496 0.001188
0.465339 0.007375 -0.019658
0.465339 -0.011224 -0.044746
0.465339 -0.030580 -0.001637
0.465339 -0.086842 -0.048798
0.465339 -0.035159 -0.034978
0.465339 0.045368 0.016119
0.465339 0.062821 0.030746
0.465339 -0.036285 -0.050535
0.465339 0.053852 0.059822
0.465339 -0.082515 0.003778
0.465339 0.038440 -0.056229
0.465339 0.057011 -0.069627
0.465339 0.087214 -0.041433
0.465339 -0.085210 -0.019993
0.465339 -0.015087 0.029871
0.465339 0.056767 -0.042935
0.465339 0.095968 -0.018488
0.465339 -0.004687 -0.000725
0.465339 0.024427 0.069040
0.465339 -0.047180 -0.053725
0.465339 0.091191 -0.025084
0.465339 0.026947 -0.063814
0.465339 -0.051392 -0.061221
0.465339 0.057945 0.045648
0.465339 -0.014503 0.083199
0.465339 0.039367 0.048282
0.465339 0.087529 0.030278
0.465339 -0.072176 -0.051339
0.465339 0.028620 0.088799
0.465339 -0.061957 0.035387
0.465339 0.077016 -0.063403
0.465339 -0.042832 0.017343
0.465339 0.030776 -0.006612
0.465339 -0.037445 0.001329
0.465339 0.041045 -0.087200
0.465339 -0.009707 -0.045330
0.465339 0.084400 0.042138
0.465339 -0.030493 0.040594
0.465339 -0.047572 -0.016449
0.465339 -0.033450 0.068925
0.465339 -0.095990 0.000295
0.465339 -0.025273 -0.048767
0.465339 -0.045024 -0.015127
0.465339 0.007362 -0.009290
0.465339 0.072028 0.036528
0.465339 0.032016 -0.030781
0.465339 0.048980 -0.081092
0.465339 0.024801 -0.012589
0.465339 0.064232 0.020357
0.465339 0.083658 -0.033986
0.465339 0.086410 -0.006518
0.465339 -0.008065 0.040469
0.465339 -0.033824 0.003562
0.465339 -0.078315 -0.004280
0.465339 -0.080286 0.020381
0.465339 0.006379 0.090309
0.465339 -0.044578 0.003985
0.465339 0.074489 -0.052337
0.465339 -0.024119 0.096971
0.465339 0.054073 0.040873
0.465339 0.015400 0.087512
0.465339 -0.027618 0.040535
0.465339 -0.062227 -0.058515
0.465339 0.074253 0.051192
0.465339 0.074472 0.007620
0.465339 -0.011312 0.025992
0.465339 -0.050604 -0.072739
0.465339 0.005988 -0.058513
0.465339 -0.002359 -0.056458
0.465339 0.075928 -0.061672
0.465339 0.051629 -0.001393
0.465339 -0.004467 0.035623
0.465339 0.032409 -0.010406
0.465339 -0.007983 -0.093541
0.465339 -0.006974 0.023454
0.465339 0.037853 -0.039358
0.465339 0.019254 0.076480
0.465339 0.052277 -0.081937
0.465339 0.053197 0.045526
0.465339 -0.077355 0.031592
0.465339 0.061710 0.029143
0.465339 -0.002183 0.048740
0.465339 0.053761 0.074355
0.465339 0.018925 -0.075494
0.465339 0.076725 0.000997
0.465339 -0.027786 0.074953
0.465339 0.004423 0.096791
0.465339 -0.011632 -0.059685
0.465339 -0.065019 0.036837
0.465339 -0.019657 0.076382
0.465339 0.033160 -0.081203
0.465339 -0.035961 0.035484
0.465339 0.025043 -0.005632
0.465339 0.003315 -0.034777
0.465339 0.003955 0.074599
0.465339 -0.082042 0.049309
0.465339 0.016930 0.056220
0.465339 0.021938 -0.095898
0.465339 0.024562 -0.089908
0.465339 -0.020446 0.000339
0.465339 -0.038402 -0.058440
0.465339 -0.092627 -0.033182
0.465339 -0.038991 -0.024596
0.465339 -0.082902 -0.029692
0.465339 -0.014616 0.025957
0.465339 0.001447 0.054236
0.465339 0.019367 0.071303
0.465339 0.036062 0.062300
0.465339 -0.045980 -0.052612
0.465339 -0.002409 0.055620
0.465339 -0.047368 -0.035713
0.465339 -0.076829 -0.024038
0.465339 -0.033664 0.061198
0.465339 -0.080857 0.040615
0.465339 0.029399 0.024606
0.465339 0.014033 0.084638
0.465339 -0.094744 -0.027224
0.465339 -0.048699 0.010622
0.465339 -0.001653 -0.047888
0.465339 0.078012 -0.014704
0.465339 -0.031221 -0.065093
0.465339 0.062360 0.048086
0.465339 -0.037714 0.066034
0.465339 -0.004234 -0.005536
0.465339 -0.067428 -0.065528
0.465339 0.041873 0.023877
0.465339 -0.068761 -0.057790
0.465339 -0.034533 0.059687
0.465339 0.084428 0.010655
0.465339 0.005168 0.089518
0.465339 -0.050499 0.080906
0.465339 0.006805 0.024524
0.465339 0.068658 0.007622
0.465339 -0.018135 0.020446
0.465339 0.033925 -0.021652
0.465339 0.046448 -0.036249
0.465339 -0.029614 0.020035
0.465339 -0.070503 0.038135
0.465339 -0.026185 -0.010219
0.465339 0.056067 0.013850
0.465339 0.008704 -0.058327
0.465339 -0.021605 -0.016524
0.465339 -0.015267 -0.082089
0.465339 -0.086850 0.002507
0.465339 -0.018638 -0.011377
0.465339 0.061641 0.007906
0.465339 -0.091859 0.020129
0.465339 0.033941 -0.087264
0.465339 0.068000 0.057215
0.465339 0.003744 -0.023770
0.465339 0.036828 -0.008281
0.465339 0.076832 0.039525
0.465339 0.039869 -0.064008
0.465339 0.071058 -0.050610
0.465339 0.014594 -0.051257
0.465339 0.047801 0.023787
0.465339 -0.072319 0.024345
0.465339 -0.094671 0.001459
0.465339 -0.022970 0.015572
0.465339 -0.069007 -0.012059
0.465339 -0.007818 0.005087
0.465339 -0.075944 -0.015362
0.465339 0.063157 -0.057904
0.465339 0.035663 -0.075172
0.465339 -0.019846 0.086417
0.465339 0.016863 -0.073205
0.465339 0.012746 0.085580
0.465339 0.089007 0.016475
0.465339 0.046446 -0.012876
0.465339 0.001993 -0.009784
0.465339 -0.023963 -0.003203
0.465339 -0.056134 -0.017423
0.465339 0.057565 0.043964
0.465339 0.040997 0.063564
0.465339 0.018704 0.054973
0.465339 0.040986 0.083912
0.465339 0.024108 -0.034036
0.465339 0.080631 0.018589
0.465339 -0.056037 0.034122
0.465339 -0.028995 0.026780
0.465339 -0.016301 -0.028122
0.465339 0.050209 -0.074448
0.465339 -0.027134 0.086862
0.465339 0.023782 -0.007069
0.465339 0.030688 0.040929
0.465339 -0.051483 0.033922
0.465339 -0.021390 0.023643
0.465339 -0.055619 -0.008222
0.465339 0.021357 -0.058606
0.465339 0.054155 -0.076333
0.465339 -0.021396 0.094301
0.465339 -0.008446 0.052293
0.465339 0.011305 -0.073013
0.465339 -0.056941 0.009697
0.465339 -0.097768 -0.018099
0.465339 -0.051395 -0.036871
0.465339 0.038874 0.017472
0.465339 -0.024603 -0.082210
0.465339 -0.088015 -0.042146
0.465339 -0.071869 0.053427
0.465339 -0.076928 -0.063286
0.465339 0.072416 -0.029304
0.465339 -0.046064 -0.016849
0.465339 -0.084875 0.045308
0.465339 0.007674 0.065618
0.465339 0.068614 -0.027537
0.465339 -0.014187 0.046582
0.465339 -0.021743 0.067124
0.465339 0.043401 -0.066349
0.465339 0.048908 0.047067
0.465339 -0.013143 0.042809
0.465339 -0.008695 -0.096156
0.465339 -0.040344 0.086131
0.465339 -0.014175 0.096551
0.465339 -0.003685 0.065320
0.465339 0.031859 -0.053537
0.465339 -0.088317 0.019700
0.465339 0.020761 -0.013731
0.465339 0.041790 0.086608
0.465339 0.000999 0.056347
0.465339 -0.030504 0.054533
0.465339 0.007217 -0.039920
0.465339 0.018282 0.074384
0.465339 -0.050505 -0.018552
0.465339 0.021382 -0.084191
0.465339 -0.079057 0.013900
0.465339 0.079872 -0.003473
0.465339 -0.083704 0.037026
0.465339 -0.019273 -0.065103
0.465339 -0.019400 -0.094069
0.465339 -0.039194 0.038734
0.465339 0.013552 -0.078097
0.465339 -0.040390 -0.084227
0.465339 -0.057964 -0.050105
0.465339 -0.010006 0.054475
0.465339 0.038231 0.070378
0.465339 0.091163 -0.004640
0.465339 0.016829 0.025415
0.465339 -0.073756 -0.054066
0.465339 -0.052966 -0.046265
0.465339 -0.077489 -0.061174
0.465339 -0.025280 0.016656
0.465339 -0.015771 -0.064210
0.465339 -0.088310 0.030743
0.465339 0.002678 -0.096705
0.465339 -0.088043 0.032072
0.465339 -0.087567 0.001050
0.465339 -0.043000 0.039759
0.465339 0.018921 -0.038567
0.465339 -0.072247 0.003476
0.465339 0.019362 -0.024914
0.465339 0.094797 -0.017261
0.465339 0.088212 -0.010662
0.465339 -0.085114 0.030667
0.465339 -0.024491 -0.026617
0.465339 0.053384 0.029038
0.465339 -0.060418 -0.053585
0.465339 0.002307 0.067207
0.465339 -0.015833 0.074428
0.465339 0.023081 -0.073879
0.465339 0.038493 -0.042578
0.465339 0.086292 -0.022158
0.465339 -0.039759 0.024822
0.465339 0.016654 -0.059417
0.465339 0.069837 0.037700
0.465339 0.039248 -0.033682
0.465339 -0.078423 0.020470
0.465339 0.000555 -0.072490
0.465339 0.010614 -0.028420
0.465339 0.013111 0.018729
0.465339 -0.064172 -0.072673
0.465339 -0.042948 -0.083855
0.465339 -0.052574 -0.021631
0.465339 -0.093612 0.018929
0.465339 -0.007221 -0.086193
0.465339 -0.014956 0.068630
0.465339 -0.035239 0.029338
0.465339 -0.029765 0.050429
0.465339 0.047756 0.049885
0.465339 -0.019164 -0.091419
0.465339 -0.087554 -0.017088
0.465339 -0.031892 0.079577
0.465339 0.059759 -0.058591
0.465339 -0.086543 -0.028674
0.465339 -0.092151 -0.008540
0.465339 -0.016844 0.046445
0.465339 -0.041416 0.020726
0.465339 -0.047386 -0.070565
0.465339 -0.041505 -0.010459
0.465339 -0.064789 0.064469
0.465339 -0.088325 0.017843
0.465339 -0.087852 -0.012285
0.465339 -0.078460 0.008176
0.465339 -0.029375 -0.066638
0.465339 -0.060149 0.024383
0.465339 -0.052139 0.081198
0.465339 -0.081561 0.050756
0.465339 0.064062 0.074674
0.465339 0.067779 0.046958
0.465339 -0.038229 0.002861
0.465339 -0.007620 0.032065
0.465339 0.018793 0.041329
0.465339 -0.054561 -0.066368
0.465339 -0.001747 -0.089551
0.465339 0.078304 -0.060204
0.465339 0.071707 0.003326
0.465339 -0.057827 0.069373
0.465339 0.025924 0.065191
0.465339 -0.005946 0.080823
0.465339 -0.011786 0.078212
0.465339 -0.053072 -0.050497
0.465339 0.082001 -0.011035
0.465339 -0.095241 -0.012964
0.465339 0.005323 0.013323
0.465339 0.062391 -0.041595
0.465339 0.073626 0.022128
0.465339 -0.095424 -0.024451
0.465339 0.015455 0.047956
0.465339 0.074480 0.001317
0.465339 -0.069200 -0.004183
0.465339 0.036420 0.013640
0.465339 0.027788 -0.083183
0.465339 0.010937 -0.067577
0.465339 -0.084612 0.000148
0.465339 -0.010984 0.063330
0.465339 0.030440 -0.003411
0.465339 0.025072 -0.008218
0.465339 0.042738 0.035362
0.465339 0.004000 -0.022206
0.465339 0.043357 0.034015
0.465339 0.016236 0.032048
0.465339 -0.026643 -0.052297
0.465339 0.074604 0.032359
0.465339 0.031879 -0.068852
0.465339 0.028078 0.027406
0.465339 0.018002 0.011988
0.465339 0.029215 0.005802
0.465339 0.007064 -0.047118
0.465339 0.077628 -0.012170
0.465339 0.020218 -0.055365
0.465339 0.029982 0.055484
0.465339 -0.018904 -0.029985
0.465339 -0.053132 0.007484
0.465339 0.051375 -0.067994
0.465339 -0.025491 0.085978
0.465339 -0.024419 0.075023
0.465339 0.036930 -0.026453
0.465339 0.008428 0.054271
0.465339 0.023831 0.022848
0.465339 0.075491 -0.011710
0.465339 -0.003949 -0.043065
0.465339 0.052678 0.054412
0.465339 0.013810 0.043323
0.465339 -0.026502 0.015449
0.465339 0.035248 0.057721
0.465339 -0.099222 -0.007099
0.465339 0.094776 0.030593
0.465339 -0.003781 0.002077
0.465339 -0.092677 0.016662
0.465339 -0.056143 0.010791
0.465339 0.048474 0.022356
0.465339 0.041449 -0.013651
0.465339 -0.062674 0.002488
0.465339 0.039583 0.084448
0.465339 -0.013394 -0.004318
0.465339 -0.073525 -0.035643
0.465339 0.015139 0.068802
0.465339 -0.052488 0.045906
0.465339 0.048228 0.031586
0.465339 0.077040 -0.033925
0.465339 0.010111 0.074158
0.465339 -0.001137 -0.074659
0.465339 0.027579 -0.018264
0.465339 0.095906 -0.019992
0.465339 -0.060935 0.059917
0.465339 0.066885 0.017608
0.465339 -0.024970 0.062628
0.465339 -0.040747 0.006561
0.465339 -0.035156 0.015957
0.465339 0.024449 -0.066018
0.465339 0.021986 0.064176
0.465339 -0.053921 0.051901
0.465339 0.072474 0.050024
0.465339 0.080982 -0.004522
0.465339 0.074129 0.040978
0.465339 -0.029706 0.033023
0.465339 0.006662 -0.093255
0.465339 0.058450 0.056167
0.465339 0.060492 0.069014
0.465339 -0.009279 0.089652
0.465339 0.017920 0.093969
0.465339 -0.066460 0.005762
0.465339 0.037574 -0.014138
0.465339 -0.047474 0.030581
0.465339 0.087007 -0.038781
0.465339 0.024424 0.029518
0.465339 -0.076492 -0.004452
0.465339 -0.028205 0.047989
0.465339 0.031812 0.036568
0.465339 0.013017 -0.035282
0.465339 -0.003100 -0.008270
0.465339 0.039960 0.067205
0.465339 0.025407 0.015646
0.465339 0.013206 0.086832
0.465339 -0.057429 -0.043282
0.465339 -0.027138 0.022876
0.465339 -0.066509 0.044176
0.465339 0.046299 -0.023764
0.465339 0.017130 -0.063445
0.465339 -0.027023 -0.042537
0.465339 -0.091341 -0.003137
0.465339 0.068048 0.073321
0.465339 -0.042925 0.047823
0.465339 0.091937 0.003096
0.465339 0.023397 -0.046397
0.465339 -0.010176 0.039287
0.465339 0.025285 0.034430
0.465339 -0.017694 -0.038694
0.465339 0.077370 0.057478
0.465339 -0.071755 -0.001253
0.465339 0.089621 0.006010
0.465339 0.014186 -0.001785
0.465339 -0.087298 0.047750
0.465339 0.070280 0.010199
0.465339 0.063330 -0.026068
0.465339 0.081443 0.015687
0.465339 0.065247 0.075850
0.465339 -0.060374 0.046758
0.465339 0.018017 0.065814
0.465339 0.035741 0.051296
0.465339 -0.051250 -0.029532
0.465339 0.084500 0.017045
0.465339 -0.014852 -0.079963
0.465339 -0.046275 -0.019242
0.465339 -0.071875 -0.049510
0.465339 0.065586 0.038498
0.465339 0.054105 0.056045
0.465339 0.083806 0.018524
0.465339 -0.030336 0.071107
0.465339 0.023246 0.044876
0.465339 0.054446 -0.036975
0.465339 0.042220 0.006415
0.465339 -0.069740 0.019391
0.465339 -0.069044 -0.033278
0.465339 -0.068862 0.071632
0.465339 0.067864 -0.039221
0.465339 -0.028059 -0.058252
0.465339 -0.015105 -0.084691
0.465339 -0.055025 -0.022333
0.465339 -0.005002 -0.011769
0.465339 -0.073475 0.043519
0.465339 0.092318 -0.000671
0.465339 -0.045757 0.030743
0.465339 0.003115 0.081372
0.465339 -0.042508 -0.043488
0.465339 -0.039477 -0.022240
0.465339 -0.046255 0.075945
0.465339 -0.027563 0.058271
0.465339 0.010381 -0.051364
0.465339 -0.035762 0.009121
0.465339 0.074117 -0.044028
0.465339 -0.009358 -0.050284
0.465339 -0.032158 0.003161
0.465339 -0.073803 -0.043658
0.465339 -0.040255 -0.064659
0.465339 -0.032385 0.023571
0.465339 0.032332 0.085584
0.465339 -0.078828 0.031974
0.465339 0.057165 -0.056370
0.465339 0.022454 -0.001556
0.465339 -0.067264 -0.016221
0.465339 -0.070765 0.009104
0.465339 0.056957 -0.026429
0.465339 0.080060 -0.010608
0.465339 -0.026465 0.062443
0.465339 0.000122 -0.061022
0.465339 -0.023601 0.070272
0.465339 -0.034059 -0.068181
0.465339 0.072719 -0.035544
0.465339 -0.011553 -0.025241
0.465339 0.017954 -0.056649
0.465339 0.012141 -0.040168
0.465339 0.016711 0.007763
0.465339 0.037508 0.027446
0.465339 -0.078009 0.012422
0.465339 0.063349 0.059652
0.465339 0.046401 0.088509
0.465339 0.070391 0.046771
0.465339 0.028531 0.016744
0.465339 -0.008615 -0.086904
0.465339 -0.055190 -0.039938
0.465339 -0.007611 0.099261
0.465339 0.085804 -0.008214
0.465339 -0.013260 0.063132
0.465339 -0.011734 0.046761
0.465339 0.033703 0.020901
0.465339 -0.079585 0.010666
0.465339 0.029388 -0.007685
0.465339 0.080920 0.022945
0.465339 0.027248 -0.078488
0.465339 -0.085011 0.018136
0.465339 -0.034374 0.070150
0.465339 -0.032067 0.088492
0.465339 0.064394 -0.052507
0.465339 -0.033109 0.033104
0.465339 0.054115 0.061623
0.465339 -0.028997 -0.077497
0.465339 -0.094900 0.011595
0.465339 -0.028968 0.034277
0.465339 0.064692 -0.024805
0.465339 -0.029837 -0.016798
0.465339 0.050449 0.048394
0.465339 0.008963 0.076649
0.465339 -0.034193 0.047813
0.465339 -0.057918 -0.078286
0.465339 0.069041 0.001074
0.465339 0.010781 -0.042936
0.465339 0.073354 0.033570
0.465339 0.036663 -0.058387
0.465339 0.058497 -0.022207
0.465339 -0.010091 -0.023186
0.465339 0.056274 0.060050
0.465339 0.030919 -0.067644
0.465339 0.006588 -0.029687
0.465339 0.027870 -0.058678
0.465339 -0.053015 -0.052109
0.465339 -0.023680 -0.084148
0.465339 -0.019230 -0.077085
0.465339 -0.083018 0.009181
0.465339 -0.051425 -0.071249
0.465339 0.027555 -0.092592
0.465339 0.047391 -0.055628
0.465339 -0.030693 -0.079198
0.465339 0.026546 -0.072787
0.465339 0.007689 0.035802
0.465339 0.026525 -0.070251
0.465339 -0.038290 0.022053
0.465339 0.007427 -0.063284
0.465339 0.027186 0.016143
0.465339 -0.055409 -0.056865
0.465339 0.094055 -0.012530
0.465339 -0.076043 -0.025265
0.465339 -0.053238 -0.019845
0.465339 -0.010414 0.058650
0.465339 -0.001260 -0.027194
0.465339 0.071939 -0.015745
0.465339 -0.051819 0.073307
0.465339 -0.009761 0.009183
0.465339 0.040511 0.069426
0.465339 0.066526 0.026043
0.465339 -0.002562 0.093123
0.465339 -0.044333 0.016940
0.465339 -0.048076 0.036577
0.465339 0.027256 -0.020951
0.465339 -0.048314 -0.084710
0.465339 0.068408 0.019087
0.465339 -0.055779 -0.065415
0.465339 -0.081928 0.056681
0.465339 -0.038790 0.051961
0.465339 0.012282 0.040510
0.465339 -0.011202 -0.033518
0.465339 0.044049 0.031083
0.465339 -0.003964 0.074028
0.465339 -0.024050 -0.077809
0.465339 -0.020773 -0.012684
0.465339 0.038786 0.026682
0.465339 0.034687 -0.034764
0.465339 -0.084787 -0.040297
0.465339 0.038183 -0.062359
0.465339 0.077070 -0.021561
0.465339 -0.050782 0.019132
0.465339 -0.067638 0.028104
0.465339 0.018707 0.027944
0.465339 -0.067461 -0.045927
0.465339 -0.065410 0.050482
0.465339 -0.090009 -0.025270
0.465339 -0.055640 -0.055314
0.465339 -0.035917 -0.002665
0.465339 -0.026084 0.021226
0.465339 -0.005789 -0.057544
0.465339 0.042184 -0.040283
0.465339 -0.013268 0.049408
0.465339 -0.077615 0.021949
0.465339 -0.034296 -0.071496
0.465339 0.029529 -0.005886
0.465339 -0.002599 -0.087060
0.465339 -0.000201 0.047741
0.465339 0.017668 -0.006377
0.465339 0.094038 -0.002499
0.465339 -0.077637 -0.045129
0.465339 0.048703 -0.063674
0.465339 0.052568 -0.071531
0.465339 0.035152 0.061090
0.465339 -0.036736 -0.061576
0.465339 -0.003398 -0.022188
0.465339 0.099829 0.004578
0.465339 0.048480 0.025918
0.465339 0.061815 -0.026722
0.465339 -0.066314 0.011325
0.465339 -0.067612 0.023570
0.465339 -0.031079 -0.024992
0.465339 0.049644 0.074088
0.465339 -0.020671 0.030831
0.465339 -0.045296 -0.076521
0.465339 -0.064833 0.005320
0.465339 0.033844 0.003420
0.465339 0.063426 0.026495
0.465339 -0.066666 0.066123
0.465339 -0.001735 0.013257
0.465339 -0.050894 0.043620
0.465339 0.022308 -0.052793
0.465339 0.021801 -0.055609
0.465339 -0.000382 0.078363
0.465339 -0.002927 0.018939
0.465339 0.009474 -0.072783
0.465339 0.025223 0.028277
0.465339 0.016378 -0.038052
0.465339 0.034319 -0.088778
0.465339 0.084666 0.047854
0.465339 0.003535 0.073001
0.465339 -0.051703 0.059874
0.465339 -0.027039 0.089445
0.465339 0.095172 0.020272
0.465339 -0.012583 0.082160
0.465339 -0.058432 -0.072877
0.465339 0.042697 0.072251
0.465339 -0.052213 -0.033599
0.465339 0.022172 -0.047315
0.465339 0.012642 0.072557
0.465339 -0.000527 -0.068680
0.465339 0.020944 0.071801
0.465339 0.026547 0.052651
0.465339 -0.000287 0.065866
0.465339 -0.020849 0.097254
0.465339 0.046807 0.032006
0.465339 0.040285 -0.006871
0.465339 -0.045764 -0.030668
0.465339 0.057697 -0.061122
0.465339 -0.018734 -0.060710
0.465339 0.031470 -0.011879
0.465339 0.008666 -0.079037
0.465339 0.010155 0.091296
0.465339 0.013425 -0.041711
0.465339 0.093074 0.017643
0.465339 -0.074728 -0.023023
0.465339 -0.015885 -0.003794
0.465339 -0.023791 0.016884
0.465339 0.026400 0.058225
0.465339 0.020432 0.012422
0.465339 -0.082672 -0.032397
0.465339 -0.060771 -0.040084
0.465339 -0.010419 0.094686
0.465339 -0.021186 0.006431
0.465339 -0.090097 -0.005923
0.465339 -0.048487 -0.086223
0.465339 -0.067197 -0.020027
0.465339 0.004952 0.098542
0.465339 -0.071374 0.059819
0.465339 -0.016709 -0.016947
0.465339 -0.018263 -0.096391
0.465339 0.019415 -0.071477
0.465339 -0.005358 0.088271
0.465339 0.040471 0.037924
0.465339 0.038856 -0.050250
0.465339 -0.050525 -0.030811
0.465339 -0.000864 0.020666
0.465339 0.028622 0.002885
0.465339 0.005442 0.093412
0.465339 -0.015433 0.047173
0.465339 -0.062444 -0.006767
0.465339 -0.016108 0.060397
0.465339 0.021109 -0.039562
0.465339 -0.075480 -0.019627
0.465339 -0.038596 0.008767
0.465339 -0.009634 -0.091575
0.465339 0.019354 -0.095815
0.465339 0.009362 -0.067662
0.465339 -0.013711 -0.022164
0.465339 0.000841 0.096042
0.465339 -0.021050 -0.025050
0.465339 -0.065074 0.000145
0.465339 -0.050897 0.017383
0.465339 -0.039510 -0.055097
0.465339 0.074732 -0.025578
0.465339 -0.033714 0.063896
0.465339 -0.047858 0.052220
0.465339 -0.035157 0.077974
0.465339 0.058677 -0.066676
0.465339 0.045265 0.072259
0.465339 -0.031910 -0.026447
0.465339 -0.039403 -0.077916
0.465339 0.071515 0.040479
0.465339 0.019969 0.014093
0.465339 -0.086161 0.010586
0.465339 -0.074276 0.000359
0.465339 -0.093501 -0.025528
0.465339 -0.037433 0.036064
0.465339 0.017437 0.029353
0.465339 -0.047092 0.050920
0.465339 -0.030283 -0.039992
0.465339 0.032721 -0.077819
0.465339 0.055798 0.043801
0.465339 0.016935 -0.096364
0.465339 0.047196 -0.052977
0.465339 0.082550 -0.037399
0.465339 0.019160 0.048666
0.465339 0.017592 0.084945
0.465339 -0.039885 0.003106
0.465339 -0.084700 0.048538
0.465339 -0.011646 -0.020240
0.465339 0.053900 0.067656
0.465339 -0.005386 0.091197
0.465339 0.089617 -0.024212
0.465339 0.051898 0.034576
0.465339 0.034729 0.055673
0.465339 -0.012703 0.090333
0.465339 -0.084088 -0.028284
0.465339 0.000060 -0.022867
0.465339 0.050525 -0.031645
0.465339 0.028152 -0.011924
0.465339 -0.049008 0.014243
0.465339 -0.000337 0.067629
0.465339 -0.072904 0.036323
0.465339 -0.037270 0.052658
0.465339 -0.035273 0.093105
0.465339 -0.051954 -0.017086
0.465339 -0.067544 0.051950
0.465339 -0.041002 -0.034379
0.465339 -0.022249 -0.003194
0.465339 -0.028660 -0.064823
0.465339 -0.067576 0.014818
0.465339 0.045185 0.006644
0.465339 0.014837 0.080789
0.465339 0.009525 0.035827
0.465339 0.017207 -0.025557
0.465339 -0.049322 -0.056389
0.465339 -0.096781 0.013074
0.465339 0.095737 0.007216
0.465339 0.032266 -0.029380
0.465339 0.081940 0.056934
0.465339 -0.063082 -0.002832
0.465339 -0.031787 -0.015681
0.465339 -0.012138 -0.049289
0.465339 -0.066173 0.019633
0.465339 0.072957 -0.050136
0.465339 -0.039741 0.010019
0.465339 -0.042811 0.003630
0.465339 -0.097831 -0.008759
0.465339 0.057635 -0.023381
0.465339 0.006709 0.058948
0.465339 -0.056744 -0.074698
0.465339 0.048603 -0.044152
0.465339 0.036366 -0.065396
0.465339 0.063579 -0.049162
0.465339 -0.045196 0.020264
0.465339 -0.052365 0.066931
0.465339 0.035322 0.093135
0.465339 -0.068477 0.042788
0.465339 -0.049976 -0.019915
0.465339 -0.030484 -0.046633
0.465339 -0.012270 0.067263
0.465339 -0.028369 -0.029295
0.465339 -0.093951 -0.028857
0.465339 -0.015930 0.071443
0.465339 -0.019616 -0.005023
0.465339 0.046403 0.034555
0.465339 0.000993 0.076665
0.465339 0.085669 -0.040117
0.465339 -0.011454 -0.094529
0.465339 0.034751 -0.012611
0.465339 -0.075577 -0.010982
0.465339 -0.018507 -0.062203
0.465339 0.044654 0.024194
0.465339 -0.070827 0.034179
0.465339 -0.007883 0.061913
0.465339 -0.003156 -0.006541
0.465339 -0.066767 -0.052817
0.465339 0.013973 0.070942
0.465339 -0.032835 0.070187
0.465339 -0.010481 0.024452
0.465339 -0.056816 -0.034258
0.465339 -0.082323 -0.040886
0.465339 0.043184 0.024883
0.465339 0.079507 0.054041
0.465339 0.005784 0.096724
0.465339 -0.042130 -0.076846
0.465339 0.094447 0.013000
0.465339 -0.051101 -0.059462
0.465339 0.091554 -0.016715
0.465339 0.004497 -0.062322
0.465339 0.043107 -0.026737
0.465339 -0.076981 -0.010626
0.465339 0.056441 0.035499
0.465339 -0.033148 0.006577
0.465339 -0.072588 0.056876
0.465339 0.025000 0.004078
0.465339 0.092469 0.026639
0.465339 -0.041131 0.084110
0.465339 -0.021136 -0.066241
0.465339 0.055454 -0.008222
0.465339 -0.024238 -0.001747
0.465339 0.019273 -0.091718
0.465339 -0.039242 -0.056733
0.465339 0.026866 0.089176
0.465339 -0.075376 -0.050590
0.465339 0.046446 0.079268
0.465339 0.084132 0.049316
0.465339 0.019725 -0.049729
0.465339 -0.064879 -0.022761
0.465339 0.072955 0.031753
0.465339 0.015347 -0.072840
0.465339 -0.082500 0.037926
0.465339 -0.041896 0.082501
0.465339 -0.036207 0.062163
0.465339 0.014488 0.044833
0.465339 0.062314 0.057746
0.465339 -0.011702 -0.022890
0.465339 -0.032319 -0.078735
0.465339 -0.085807 -0.024528
0.465339 -0.043650 0.005089
0.465339 0.007321 0.037955
0.465339 -0.058237 0.053718
0.465339 -0.027016 0.053393
0.465339 0.025121 -0.080822
0.465339 -0.077129 0.033189
0.465339 -0.020692 -0.087247
0.465339 -0.031524 -0.045192
0.465339 -0.009805 0.042863
0.465339 -0.035368 0.022993
0.465339 -0.026665 0.042680
0.465339 0.061046 -0.053530
0.465339 -0.077688 0.014098
0.465339 0.026830 -0.029508
0.465339 -0.015344 -0.025793
0.465339 0.028132 0.094802
0.465339 -0.028990 0.067392
0.465339 -0.015950 -0.007352
0.465339 0.046879 -0.009901
0.465339 -0.028967 0.010266
0.465339 -0.073652 -0.041911
0.465339 -0.075850 -0.038023
0.465339 0.009036 0.099391
0.465339 0.035154 0.010445
0.465339 0.045364 0.059871
0.465339 -0.056957 -0.018599
0.465339 0.063646 0.051861
0.465339 0.040210 -0.048143
0.465339 0.059269 0.044926
0.465339 0.071731 0.032459
0.465339 -0.053230 0.009080
0.465339 0.052299 0.032935
0.465339 -0.049961 -0.040426
0.465339 0.006243 0.094700
0.465339 0.007893 -0.090194
0.465339 -0.048572 -0.080330
0.465339 0.011428 0.058231
0.465339 0.068832 0.071963
0.465339 -0.014243 0.055129
0.465339 -0.036366 -0.054524
0.465339 0.025729 -0.085579
0.465339 -0.062242 0.004576
0.465339 0.044042 0.003638
0.465339 0.047786 0.076972
0.465339 -0.036569 -0.044063
0.465339 0.007473 0.050636
0.465339 -0.076973 0.027568
0.465339 0.014699 0.006494
0.465339 -0.073088 -0.045177
0.465339 0.036014 -0.078596
0.465339 0.009825 0.057527
0.465339 0.008693 -0.039498
0.465339 0.053472 0.009041
0.465339 -0.059989 -0.062009
0.465339 0.010461 0.083295
0.465339 -0.049067 0.024844
0.465339 0.009945 0.016012
0.465339 -0.004788 0.027714
0.465339 -0.009052 0.048883
0.465339 -0.008143 -0.090175
0.465339 0.014674 0.022273
0.465339 -0.086179 -0.023092
0.465339 -0.056152 -0.011519
0.465339 0.023450 -0.005511
0.465339 -0.052928 -0.059026
0.465339 0.058292 0.078089
0.465339 -0.043010 -0.063893
0.465339 -0.039648 -0.073614
0.465339 -0.090347 -0.021481
0.465339 0.044003 0.007495
0.465339 -0.047124 0.019013
0.465339 0.012290 -0.097142
0.465339 0.035745 0.034713
0.465339 -0.023413 -0.087917
0.465339 0.012662 -0.065706
0.465339 0.047895 -0.070946
0.465339 0.040554 0.015179
0.465339 0.060100 0.023795
0.465339 -0.038749 0.007059
0.465339 -0.005869 0.009678
0.465339 -0.063529 0.067646
0.465339 -0.073429 0.053993
0.465339 -0.064737 -0.075596
0.465339 -0.081851 -0.054564
0.465339 0.072459 -0.001461
0.465339 0.085907 -0.042465
0.465339 0.009411 0.010020
0.465339 -0.055596 0.052394
0.465339 -0.018294 0.049422
0.465339 0.060026 0.078232
0.465339 0.058666 -0.073904
0.465339 0.035411 0.015083
0.465339 -0.028086 0.072810
0.465339 -0.075642 0.055534
0.465339 0.082411 -0.005326
0.465339 0.040639 -0.008592
0.465339 -0.006345 -0.064367
0.465339 -0.046452 0.032450
0.465339 0.029865 0.054091
0.465339 0.055233 0.049824
0.465339 -0.005913 0.061346
0.465339 -0.056288 0.000551
0.465339 -0.045909 -0.009410
0.465339 0.047771 0.068636
0.465339 -0.040941 -0.002603
0.465339 -0.006761 0.012964
0.465339 -0.017470 0.035228
0.465339 -0.002102 -0.030054
0.465339 0.008653 0.091141
0.465339 -0.006944 -0.029010
0.465339 0.007911 0.078455
0.465339 -0.020878 -0.074774
0.465339 0.071745 -0.060889
0.465339 0.050180 0.030956
0.465339 -0.013564 -0.030890
0.465339 -0.053455 -0.025677
0.465339 -0.054241 -0.044065
0.465339 0.008004 -0.021140
0.465339 -0.009595 -0.079288
0.465339 0.031626 0.046004
0.465339 -0.082014 -0.048601
0.465339 0.068973 -0.030037
0.465339 -0.016921 0.053206
0.465339 -0.005507 0.041564
0.465339 0.084154 0.024311
0.465339 0.048975 0.030078
0.465339 0.037946 0.002611
0.465339 0.063837 -0.066382
0.465339 0.039972 0.060965
0.465339 -0.037961 -0.034971
0.465339 -0.036604 -0.035961
0.465339 -0.055846 -0.009539
0.465339 -0.081507 0.010111
0.465339 -0.053709 0.043282
0.465339 -0.075255 0.061555
0.465339 0.009219 -0.024575
0.465339 0.090183 -0.035267
0.465339 -0.066785 -0.012167
0.465339 0.050141 -0.017540
0.465339 0.048259 -0.082609
0.465339 0.006263 0.079553
0.465339 0.008744 0.083215
0.465339 0.067855 -0.054150
0.465339 -0.082389 0.041716
0.465339 0.045151 -0.080194
0.465339 -0.062575 0.056156
0.465339 -0.012157 0.062084
0.465339 -0.028718 0.022116
0.465339 0.005198 -0.072069
0.465339 0.037131 -0.042269
0.465339 -0.039801 -0.003414
0.465339 0.068613 0.054765
0.465339 -0.031955 0.060781
0.465339 -0.016573 0.075764
0.465339 -0.075891 0.028472
0.465339 0.005487 0.004077
0.465339 0.075966 -0.044068
0.465339 0.018848 0.037844
0.465339 -0.016806 -0.014957
0.465339 -0.006972 -0.073861
0.465339 -0.025550 0.038527
0.465339 -0.004071 0.021083
0.465339 -0.054264 0.030936
0.465339 0.043370 -0.051556
0.465339 0.090281 -0.032141
0.465339 -0.084134 -0.021336
0.465339 -0.041588 0.016667
0.465339 -0.084825 -0.008242
0.465339 -0.021621 0.096170
0.465339 0.016353 -0.043369
0.465339 0.039044 -0.075015
0.465339 -0.027426 -0.050654
0.465339 -0.066252 0.015537
0.465339 -0.040679 -0.076509
0.465339 -0.067578 -0.059157
0.465339 -0.066128 0.031863
0.465339 0.090705 -0.011862
0.465339 -0.061591 0.048603
0.465339 0.062450 -0.036041
0.465339 -0.082643 0.029718
0.465339 0.082845 -0.043430
0.465339 0.009112 -0.054757
0.465339 -0.062282 -0.042818
0.465339 0.075129 0.063122
0.465339 -0.056569 0.018287
0.465339 -0.088455 0.037692
0.465339 -0.041874 0.087682
0.465339 0.050469 -0.039649
0.465339 -0.052497 0.065587
0.465339 0.018462 0.058163
0.465339 0.059918 0.026299
0.465339 0.011777 0.060086
0.465339 -0.007095 0.010808
0.465339 0.032428 0.065256
0.465339 -0.090709 0.009021
0.465339 -0.019631 0.059093
0.465339 0.011880 0.002211
0.465339 -0.047670 -0.044234
0.465339 -0.004789 0.089920
0.465339 0.063072 -0.077339
0.465339 0.012163 0.062268
0.465339 -0.084114 -0.013312
0.465339 0.096057 0.027486
0.465339 0.040423 -0.090896
0.465339 0.020314 0.047092
0.465339 0.001947 0.047689
0.465339 0.007292 0.096133
0.465339 0.010149 -0.046528
0.465339 0.010771 0.068382
0.465339 0.080377 -0.041336
0.465339 0.098078 0.003743
0.465339 -0.055465 0.080994
0.465339 0.028264 -0.085214
0.465339 -0.089223 -0.043043
0.465339 -0.010655 0.028538
0.465339 0.035800 0.090961
0.465339 -0.052653 -0.015453
0.465339 -0.058601 -0.035387
0.465339 -0.008746 0.028391
0.465339 -0.057020 -0.054351
0.465339 0.031809 -0.058278
0.465339 0.023332 -0.011896
0.465339 0.035750 -0.072709
0.465339 0.008466 -0.082170
0.465339 0.030035 0.066771
0.465339 -0.006379 -0.098853
0.465339 -0.047346 -0.000339
0.465339 0.068052 0.025826
0.465339 0.090896 0.027667
0.465339 -0.066327 -0.054674
0.465339 -0.026344 -0.028332
0.465339 -0.022136 -0.088760
0.465339 -0.067306 0.001744
0.465339 -0.050625 -0.034269
0.465339 0.014324 0.066946
0.465339 -0.009115 0.072616
0.465339 0.032384 0.051144
0.465339 0.060154 0.056156
0.465339 -0.039915 -0.039948
0.465339 0.089689 0.010013
0.465339 0.027802 -0.007788
0.465339 -0.023613 0.081908
0.465339 0.003426 0.018718
0.465339 0.021706 0.033942
0.465339 0.063663 0.011903
0.465339 -0.087625 0.044768
0.465339 -0.026318 0.054985
0.465339 0.079032 -0.038975
0.465339 -0.036493 -0.016959
0.465339 -0.060438 0.035645
0.465339 -0.079371 0.021704
0.465339 0.016898 -0.075621
0.465339 0.001992 0.031316
0.465339 -0.074641 0.048293
0.465339 -0.071308 -0.019546
0.465339 -0.046882 0.010163
0.465339 0.086984 -0.033368
0.465339 0.007525 -0.065687
0.465339 -0.067138 0.053909
0.465339 -0.020399 0.010205
0.465339 -0.021562 0.059334
0.465339 -0.098288 -0.014780
0.465339 0.055408 -0.050511
0.465339 -0.065906 0.061685
0.465339 -0.069111 0.014708
0.465339 0.023595 0.093506
0.465339 0.090151 0.039580
0.465339 0.074162 -0.031236
0.465339 -0.059940 0.038705
0.465339 -0.018793 0.070722
0.465339 -0.007633 -0.057361
0.465339 -0.031960 0.059366
0.465339 0.027114 -0.067317
0.465339 -0.005724 0.092651
0.465339 -0.061231 0.002275
0.465339 0.011463 0.077212
0.465339 -0.024621 -0.088932
0.465339 0.049586 -0.070950
0.465339 -0.019732 -0.023201
0.465339 -0.057344 0.063233
0.465339 0.036648 -0.068565
0.465339 -0.074717 -0.013422
0.465339 -0.027516 0.083957
0.465339 0.043098 -0.063368
0.465339 0.036993 -0.024816
0.465339 0.019279 0.020078
0.465339 -0.012333 -0.016999
0.465339 0.009980 -0.082694
0.465339 -0.001144 -0.072746
0.465339 -0.038634 0.067463
0.465339 0.013099 -0.044398
0.465339 0.065837 -0.062707
0.465339 0.011249 0.097546
0.465339 -0.099463 0.003964
0.465339 -0.019773 0.044877
0.465339 -0.090849 -0.018544
0.465339 0.012886 0.095766
0.465339 -0.021196 0.011567
0.465339 0.039013 0.029541
0.465339 -0.070701 0.003191
0.465339 0.058288 -0.002416
0.465339 -0.034950 0.075933
0.465339 -0.057379 -0.024293
0.465339 -0.067492 -0.036504
0.465339 -0.013630 0.024778
0.465339 -0.001618 -0.092180
0.465339 -0.010056 0.080904
0.465339 -0.012825 -0.033013
0.465339 -0.023343 0.075938
0.465339 -0.009205 -0.021237
0.465339 -0.072169 -0.040867
0.465339 0.051506 -0.042269
0.465339 -0.072051 -0.006308
0.465339 0.046422 0.013357
0.465339 -0.053278 0.029700
0.465339 -0.045688 0.035915
0.465339 0.034047 -0.026222
0.465339 -0.056620 -0.068446
0.465339 -0.052333 -0.055427
0.465339 0.091621 0.016009
0.465339 0.038498 0.006450
0.465339 0.070956 -0.044949
0.465339 0.003490 -0.043624
0.465339 0.080961 0.006910
0.465339 0.038403 0.019660
0.465339 -0.024367 -0.069833
0.465339 -0.091884 -0.022840
0.465339 0.043902 -0.012403
0.465339 -0.064783 0.072881
0.465339 0.082063 -0.040808
0.465339 0.030163 -0.085146
0.465339 0.037074 0.031716
0.465339 -0.083162 -0.008525
0.465339 0.071466 -0.048987
0.465339 -0.034800 -0.029361
0.465339 0.023516 -0.055633
0.465339 0.067686 0.048975
0.465339 0.012020 -0.017920
0.465339 -0.095467 0.022291
0.465339 0.067867 -0.070256
0.465339 0.033617 0.013086
0.465339 -0.000944 0.044807
0.465339 -0.013693 0.084548
0.465339 0.063957 -0.054080
0.465339 -0.061760 -0.066095
0.465339 -0.025738 0.022989
0.465339 -0.003008 0.023331
0.465339 -0.024548 0.068531
0.465339 0.015012 -0.026347
0.465339 -0.046460 0.002919
0.465339 0.091316 0.009946
0.465339 0.011042 -0.096200
0.465339 0.051621 0.026558
0.465339 0.060233 -0.025381
0.465339 0.030915 0.037622
0.465339 -0.043165 0.023672
0.465339 -0.052211 -0.081855
0.465339 -0.069203 0.051768
0.465339 -0.045499 0.078016
0.465339 0.019322 -0.083633
0.465339 0.062084 0.064923
0.465339 0.077164 0.045008
0.465339 -0.007887 -0.050941
0.465339 0.045359 0.068335
0.465339 -0.087132 -0.027366
0.465339 -0.024269 0.058008
0.465339 0.059792 0.059714
0.465339 -0.019952 0.088011
0.465339 0.043033 -0.036894
0.465339 0.013337 -0.008274
0.465339 -0.012548 0.086245
0.465339 -0.037735 -0.077816
0.465339 0.014368 0.074491
0.465339 -0.059639 -0.076229
0.465339 0.098007 0.005527
0.465339 0.002828 0.005646
0.465339 -0.003869 -0.062977
0.465339 0.010150 -0.001469
0.465339 -0.075110 -0.057341
0.465339 -0.054076 0.018114
0.465339 -0.030244 0.076419
0.465339 0.031038 0.076513
0.465339 -0.057526 0.034849
0.465339 -0.035173 -0.088982
0.465339 0.022652 0.071757
0.465339 0.072141 0.021810
0.465339 0.081001 0.027499
0.465339 -0.067322 -0.013832
0.465339 0.036465 0.028275
0.465339 -0.074938 0.052673
0.465339 -0.052506 0.076887
0.465339 0.099185 -0.007829
0.465339 0.031348 0.023197
0.465339 0.056105 0.045141
0.465339 0.010726 0.066790
0.465339 0.018209 0.072673
0.465339 0.033424 0.036889
0.465339 0.004457 0.037092
0.465339 0.021445 -0.069467
0.465339 -0.066658 -0.001213
0.465339 -0.014589 0.062206
0.465339 0.075626 0.060732
0.465339 -0.013464 -0.068583
0.465339 0.002084 -0.007943
0.465339 0.082642 0.010954
0.465339 0.026292 -0.026307
0.465339 0.015373 0.014893
0.465339 0.006790 0.085156
0.465339 -0.014843 -0.056413
0.465339 0.026027 0.080127
0.465339 -0.085154 0.038019
0.465339 0.024977 0.038059
0.465339 -0.021844 -0.034201
0.465339 0.094619 0.032268
0.465339 0.069158 0.047631
0.465339 -0.081700 0.024844
0.465339 -0.058136 0.039489
0.465339 -0.041440 0.044763
0.465339 -0.025759 0.019225
0.465339 -0.053956 -0.041180
0.465339 -0.014988 0.023169
0.465339 -0.087845 0.028695
0.465339 -0.051325 -0.054214
0.465339 -0.089051 0.028003
0.465339 0.050593 0.076703
0.465339 0.084006 -0.032552
0.465339 -0.033907 0.020403
0.465339 -0.005599 0.065450
0.465339 -0.011967 0.006712
0.465339 0.038606 -0.079919
0.465339 0.019096 0.052542
0.465339 0.094701 -0.020767
0.465339 0.010980 -0.000205
0.465339 -0.008844 0.058186
0.465339 -0.026495 -0.034900
0.465339 0.013904 0.082093
0.465339 -0.049151 -0.044256
0.465339 -0.016946 0.043865
0.465339 0.058827 -0.026303
0.465339 0.015835 -0.030938
0.465339 0.023399 -0.081485
0.465339 0.068590 0.068418
0.465339 0.013449 0.010924
0.465339 0.092205 0.036496
0.465339 -0.065755 -0.050316
0.465339 -0.025483 -0.038105
0.465339 0.002224 0.055652
0.465339 -0.094034 0.005308
0.465339 -0.066752 -0.037639
0.465339 0.017198 -0.081999
0.465339 -0.036959 0.033478
0.465339 0.063551 -0.001304
0.465339 -0.048608 0.068512
0.465339 0.010291 -0.006366
0.465339 -0.002361 0.051193
0.465339 -0.017931 0.047880
0.465339 0.023601 -0.075225
0.465339 0.009639 -0.008092
0.465339 0.008081 -0.038113
0.465339 -0.016153 -0.036354
0.465339 0.030368 0.009293
0.465339 0.026280 -0.089401
0.465339 0.065825 -0.020145
0.465339 -0.037027 -0.069988
0.465339 0.018851 0.079687
0.465339 -0.023879 -0.062754
0.465339 0.075075 0.022005
0.465339 0.023010 0.040926
0.465339 -0.049783 -0.084189
0.465339 0.040130 0.022387
0.465339 -0.041171 -0.004810
0.465339 0.092214 0.013398
0.465339 0.039522 -0.088491
0.465339 -0.022432 -0.001848
0.465339 -0.035428 0.032560
0.465339 -0.023702 -0.067441
0.465339 -0.071273 0.018801
0.465339 -0.026540 0.071227
0.465339 0.068181 -0.003763
0.465339 0.019492 -0.007524
0.465339 0.035856 0.072619
0.465339 0.012092 0.078899
0.465339 -0.055317 -0.023941
0.465339 -0.068417 -0.066698
0.465339 0.009288 -0.081077
0.465339 -0.030484 0.088889
0.465339 0.000865 -0.055982
0.465339 0.001066 -0.014763
0.465339 -0.033181 0.078469
0.465339 -0.029948 0.058361
0.465339 0.066693 -0.021883
0.465339 -0.024354 0.036676
0.465339 -0.051642 0.058097
0.465339 -0.047591 -0.034116
0.465339 0.051146 -0.004860
0.465339 0.051966 0.048269
0.465339 0.074486 0.024230
0.465339 0.010629 0.099337
0.465339 -0.096959 0.022061
0.465339 -0.047039 0.053311
0.465339 -0.007351 -0.008682
0.465339 0.017817 0.006952
0.465339 -0.020273 0.040203
0.465339 0.036905 0.081646
0.465339 0.027473 0.003956
0.465339 0.048930 0.024635
0.465339 0.070529 0.001672
0.465339 0.013903 0.029029
0.465339 0.065947 0.057453
0.465339 -0.061580 -0.022228
0.465339 0.044389 -0.001969
0.465339 0.049275 -0.023549
0.465339 -0.036515 -0.067446
0.465339 0.055933 0.028463
0.465339 -0.050545 0.030980
0.465339 0.048609 -0.031278
0.465339 0.024030 0.066242
0.465339 0.059147 0.030870
0.465339 -0.035786 -0.063922
0.465339 0.080093 -0.045687
0.465339 -0.055864 0.032608
0.465339 -0.068958 -0.026730
0.465339 0.044311 -0.007966
0.465339 -0.029339 0.053414
0.465339 0.081411 -0.016962
0.465339 0.002885 0.096971
0.465339 0.067647 -0.011709
0.465339 -0.098262 0.015015
0.465339 -0.024733 0.055061
0.465339 0.046124 0.003340
0.465339 0.000567 0.044618
0.465339 0.011282 0.052681
0.465339 -0.009240 0.099568
0.465339 0.024307 0.055351
0.465339 0.067600 0.042881
0.465339 0.053755 0.064255
0.465339 -0.026149 0.072658
0.465339 0.087126 0.024443
0.465339 0.047507 0.082068
0.465339 0.083826 0.032806
0.465339 0.048429 -0.058735
0.465339 -0.000298 -0.079951
0.465339 -0.002246 0.047069
0.465339 0.032617 -0.061356
0.465339 -0.034625 -0.066675
0.465339 0.009152 0.095382
0.465339 -0.006860 -0.017789
0.465339 0.062144 0.068246
0.465339 0.032241 -0.032301
0.465339 -0.079995 -0.054570
0.465339 -0.070648 0.035933
0.465339 0.057774 0.009297
0.465339 -0.020177 0.017805
0.465339 0.078690 0.048555
0.465339 -0.045956 0.000771
0.465339 0.013809 -0.058955
0.465339 0.027558 0.085728
0.465339 0.064818 0.010578
0.465339 0.041359 -0.064138
0.465339 -0.009472 0.074055
0.465339 0.003938 -0.069769
0.465339 0.095108 0.018940
0.465339 -0.007337 0.044397
0.465339 -0.034078 0.008217
0.465339 -0.063114 -0.057310
0.465339 -0.035544 -0.013666
0.465339 0.081252 -0.049314
0.465339 -0.011993 -0.031450
0.465339 0.063011 0.046362
0.465339 -0.065375 0.049031
0.465339 -0.025009 -0.087113
0.465339 0.055827 -0.012283
0.465339 0.079758 -0.014715
0.465339 0.044666 -0.067073
0.465339 0.029632 0.032642
0.465339 0.066463 -0.052554
0.465339 0.068946 0.064359
0.465339 -0.081491 -0.044284
0.465339 -0.010994 0.065613
0.465339 0.057938 0.031884
0.465339 -0.082728 -0.015975
0.465339 -0.036408 -0.014976
0.465339 -0.006711 -0.094326
0.465339 0.028668 0.071047
0.465339 0.010261 0.028134
0.465339 -0.054812 0.068881
0.465339 -0.006324 0.062770
0.465339 -0.054225 -0.009967
0.465339 -0.015289 -0.002232
0.465339 0.051468 -0.023791
0.465339 -0.081501 0.008506
0.465339 -0.003766 0.004370
0.465339 -0.005741 -0.095919
0.465339 0.060645 -0.016121
0.465339 0.005984 0.017262
0.465339 0.042776 0.057092
0.465339 -0.001408 0.092161
0.465339 0.074625 -0.007220
0.465339 0.047023 -0.047113
0.465339 -0.022154 0.081402
0.465339 -0.063731 -0.036088
0.465339 -0.002956 0.057145
0.465339 -0.014436 0.027441
0.465339 0.077996 0.042160
0.465339 -0.020785 0.047920
0.465339 -0.050286 -0.079606
0.465339 -0.088941 -0.005010
0.465339 0.013913 0.079663
0.465339 0.025496 -0.030454
0.465339 0.045213 -0.031496
0.465339 0.047043 -0.073945
0.465339 -0.064036 0.055536
0.465339 -0.059543 0.004115
0.465339 0.087371 0.035212
0.465339 -0.084714 0.024057
0.465339 -0.076777 0.063457
0.465339 -0.046888 -0.068042
0.465339 0.032412 0.016454
0.465339 -0.023129 -0.016593
0.465339 -0.007687 0.086037
0.465339 -0.022411 -0.077878
0.465339 0.010550 0.036914
0.465339 0.032230 0.018818
0.465339 -0.059638 -0.002989
0.465339 -0.026361 0.024400
0.465339 0.033898 -0.072072
0.465339 -0.027024 -0.079358
0.465339 -0.033650 0.049682
0.465339 0.033108 0.058987
0.465339 0.032446 0.062475
0.465339 0.019365 -0.064641
0.465339 0.025460 0.020145
0.465339 0.025050 -0.069337
0.465339 0.062628 -0.018188
0.465339 -0.018218 -0.043460
0.465339 0.010317 -0.012896
0.465339 -0.046778 0.086200
0.465339 -0.044866 0.063349
0.465339 0.078309 -0.030206
0.465339 -0.082692 0.043157
0.465339 0.011714 0.050232
0.465339 0.008100 -0.005995
0.465339 -0.025081 0.011604
0.465339 -0.054347 -0.046119
0.465339 0.055163 -0.021040
0.465339 -0.084332 0.029161
0.465339 -0.002662 0.015394
0.465339 0.024625 0.058365
0.465339 0.018141 0.091186
0.465339 -0.017284 -0.089346
0.465339 -0.046879 -0.085590
0.465339 0.065998 -0.057118
0.465339 0.018042 -0.076622
0.465339 -0.003920 0.083736
0.465339 -0.078004 0.056796
0.465339 -0.075443 0.035818
0.465339 -0.052593 -0.083544
0.465339 0.042127 0.028778
0.465339 0.086319 -0.027697
0.465339 -0.001764 -0.059510
0.465339 0.008277 0.085292
0.465339 0.069651 -0.013019
0.465339 0.069030 0.027719
0.465339 0.097791 -0.019475
0.465339 -0.047542 -0.081458
0.465339 -0.041298 -0.048500
0.465339 0.017480 -0.015334
0.465339 0.028372 -0.026875
0.465339 -0.034088 -0.013746
0.465339 0.052007 -0.022363
0.465339 -0.070173 0.046592
0.465339 0.067847 -0.061455
0.465339 0.014014 0.052415
0.465339 0.044983 0.010092
0.465339 -0.071251 0.013384
0.465339 0.051385 0.061890
