0.465339 0.081036 0.003856
0.465339 -0.005502 0.063898
0.465339 -0.035521 -0.085009
0.465339 0.016353 -0.048638
0.465339 -0.047983 -0.011864
0.465339 -0.071934 0.030380
0.465339 0.064413 0.020568
0.465339 0.015880 0.068138
0.465339 -0.025340 0.062180
0.465339 0.069021 0.060931
0.465339 0.080421 -0.004320
0.465339 0.063894 -0.053646
0.465339 0.036553 -0.012417
0.465339 -0.067970 -0.055811
0.465339 0.018576 0.045135
0.465339 -0.060731 -0.053187
0.465339 -0.039800 0.077329
0.465339 -0.055993 -0.060945
0.465339 0.065581 -0.063870
0.465339 0.019364 0.035455
0.465339 0.087913 -0.032600
0.465339 0.067617 -0.042172
0.465339 0.010292 0.040835
0.465339 0.062308 0.051131
0.465339 0.019982 0.061728
0.465339 0.059640 0.004011
0.465339 -0.090178 -0.009586
0.465339 0.007068 0.051930
0.465339 0.023131 -0.017198
0.465339 -0.090232 0.001167
0.465339 0.012775 0.072350
0.465339 0.070378 -0.062190
0.465339 -0.032702 -0.022796
0.465339 -0.032803 -0.076698
0.465339 -0.033806 0.065373
0.465339 -0.061614 -0.054407
0.465339 -0.047560 -0.068127
0.465339 0.015182 0.058141
0.465339 0.063676 0.004563
0.465339 -0.044615 0.068105
0.465339 -0.010850 -0.036123
0.465339 -0.080903 -0.010289
0.465339 0.020115 0.086501
0.465339 0.081506 -0.012420
0.465339 -0.021975 -0.031778
0.465339 -0.094962 -0.003779
0.465339 0.023268 0.046880
0.465339 0.021721 -0.063736
0.465339 -0.034090 -0.065601
0.465339 0.010316 0.000375
0.465339 -0.051302 0.003524
0.465339 0.028477 0.075632
0.465339 -0.049684 -0.045512
0.465339 -0.017403 0.075111
0.465339 -0.015880 0.014981
0.465339 0.019868 -0.025218
0.465339 -0.004496 0.060589
0.465339 0.008338 0.033968
0.465339 -0.013316 0.074096
0.465339 -0.070572 0.062967
0.465339 0.052325 0.049883
0.465339 -0.009056 -0.091047
0.465339 -0.063598 0.030609
0.465339 -0.028724 0.036951
0.465339 0.081190 -0.045123
0.465339 0.044461 -0.014869
0.465339 -0.059584 -0.028422
0.465339 0.011865 0.062225
0.465339 -0.035888 -0.045220
0.465339 -0.035966 -0.058579
0.465339 -0.053798 -0.072622
0.465339 -0.057711 -0.009555
0.465339 0.031018 0.007129
0.465339 0.026234 -0.002762
0.465339 0.092428 -0.013085
0.465339 -0.015619 0.095271
0.465339 0.040734 0.065566
0.465339 -0.053239 0.041741
0.465339 -0.046832 -0.010553
0.465339 -0.049557 0.078619
0.465339 -0.035797 -0.082262
0.465339 0.020852 -0.068275
0.465339 -0.021856 0.073576
0.465339 -0.067385 -0.007801
0.465339 0.039098 0.042698
0.465339 0.087939 0.020122
0.465339 0.012975 0.000304
0.465339 0.053437 -0.072936
0.465339 -0.065377 -0.040262
0.465339 -0.035835 -0.078843
0.465339 0.012412 0.024281
0.465339 0.073047 0.055842
0.465339 0.003348 -0.010727
0.465339 -0.040735 -0.074782
0.465339 0.035434 0.056561
0.465339 0.018018 -0.031290
0.465339 0.052818 0.030672
0.465339 -0.009161 0.040818
0.465339 -0.027790 0.027991
0.465339 0.015151 0.071363
0.465339 -0.051067 -0.068758
0.465339 0.031553 -0.056756
0.465339 0.068169 0.023045
0.465339 0.050834 0.013190
0.465339 0.041742 0.061602
0.465339 -0.030147 -0.091301
0.465339 -0.024484 -0.067631
0.465339 -0.036388 0.006170
0.465339 -0.040969 -0.009098
0.465339 0.035243 0.061878
0.465339 -0.073459 0.032141
0.465339 0.026452 -0.096082
0.465339 -0.012543 0.083311
0.465339 0.018030 -0.034259
0.465339 -0.079128 0.045381
0.465339 -0.049264 -0.014051
0.465339 0.006245 0.041492
0.465339 -0.036647 0.029235
0.465339 -0.000954 -0.016319
0.465339 0.029875 0.051517
0.465339 -0.038216 -0.012140
0.465339 -0.019639 -0.052329
0.465339 -0.039661 0.090189
0.465339 0.068055 0.050305
0.465339 0.064320 -0.024265
0.465339 0.024343 0.013146
0.465339 -0.094000 0.020785
0.465339 0.007140 -0.083841
0.465339 -0.077348 0.027498
0.465339 -0.044716 -0.050101
0.465339 -0.062043 -0.047208
0.465339 -0.002569 -0.086772
0.465339 -0.096331 -0.007197
0.465339 0.008685 -0.056316
0.465339 0.077105 -0.014004
0.465339 -0.074500 -0.030015
0.465339 0.036079 -0.079564
0.465339 -0.013539 -0.087765
0.465339 -0.088447 0.039383
0.465339 -0.089934 0.007570
0.465339 -0.043959 0.007949
0.465339 -0.047022 -0.064939
0.465339 -0.008496 0.087933
0.465339 0.035090 -0.049744
0.465339 0.091752 0.038879
0.465339 0.043148 -0.036557
0.465339 0.088365 0.026237
0.465339 -0.032009 -0.068564
0.465339 0.002275 0.086755
0.465339 0.067083 0.068176
0.465339 -0.084581 -0.009149
0.465339 0.008139 -0.070679
0.465339 0.043068 0.037184
0.465339 0.004022 -0.031162
0.465339 -0.049246 0.083312
0.465339 0.011851 -0.028688
0.465339 0.004679 -0.065162
0.465339 -0.047924 0.037145
0.465339 -0.009228 0.086435
0.465339 -0.013047 -0.057127
0.465339 0.071018 0.005804
0.465339 -0.075384 -0.042454
0.465339 -0.045050 0.021612
0.465339 -0.037918 -0.001095
0.465339 -0.038066 -0.057031
0.465339 -0.009068 0.012140
0.465339 -0.026235 -0.048785
0.465339 -0.048358 -0.039987
0.465339 0.076191 0.052592
0.465339 0.050457 0.034707
0.465339 0.092612 0.008697
0.465339 0.030427 -0.036049
0.465339 0.061875 0.028105
0.465339 -0.008948 -0.038843
0.465339 -0.022939 -0.044899
0.465339 -0.040357 0.011356
0.465339 -0.072446 -0.049971
0.465339 -0.096330 -0.017418
0.465339 0.022935 0.063887
0.465339 -0.000345 0.020436
0.465339 0.020803 -0.043794
0.465339 0.081212 0.020198
0.465339 0.065141 -0.058807
0.465339 -0.014622 0.027761
0.465339 0.045563 -0.077381
0.465339 0.053153 0.061529
0.465339 -0.089874 -0.043055
0.465339 -0.063243 -0.027569
0.465339 -0.060753 -0.026133
0.465339 -0.078150 -0.014112
0.465339 0.088131 -0.027501
0.465339 -0.087754 0.022604
0.465339 -0.013777 0.044772
0.465339 -0.038487 -0.036531
0.465339 0.023403 0.091329
0.465339 0.021013 0.068364
0.465339 0.004990 0.012366
0.465339 -0.057832 -0.067153
0.465339 0.033879 0.013785
0.465339 0.005092 0.043302
0.465339 -0.022869 0.052388
0.465339 -0.064184 0.008064
0.465339 -0.079712 -0.003325
0.465339 0.073377 0.051759
0.465339 0.032448 -0.030069
0.465339 0.097311 -0.016472
0.465339 -0.076035 0.058970
0.465339 0.063850 -0.052129
0.465339 0.006346 -0.055911
0.465339 -0.058143 -0.034283
0.465339 -0.034268 -0.044806
0.465339 0.056562 -0.027068
0.465339 0.043503 0.077490
0.465339 0.029090 0.080405
0.465339 0.031848 0.044095
0.465339 -0.033521 -0.011983
0.465339 -0.050553 0.049210
0.465339 -0.010713 0.033972
0.465339 0.028152 0.088733
0.465339 -0.090295 -0.030115
0.465339 0.060098 0.017402
0.465339 0.050127 -0.029566
0.465339 0.063344 -0.041285
0.465339 0.056405 -0.035684
0.465339 0.024152 -0.045484
0.465339 -0.007783 0.049450
0.465339 0.020306 0.011576
0.465339 -0.054092 0.066740
0.465339 0.008359 -0.001695
0.465339 0.002467 0.080059
0.465339 0.034681 0.093581
0.465339 -0.027058 -0.002794
0.465339 0.003749 0.044661
0.465339 -0.003679 0.039747
0.465339 -0.032471 -0.025967
0.465339 -0.060438 0.025945
0.465339 0.024035 -0.052375
0.465339 -0.052245 -0.025025
0.465339 -0.047503 0.031992
0.465339 -0.000301 -0.003363
0.465339 -0.081240 -0.015109
0.465339 -0.089602 0.021710
0.465339 0.045870 -0.041111
0.465339 0.012388 -0.040380
0.465339 -0.006675 -0.027180
0.465339 0.035376 0.053527
0.465339 0.018598 -0.051881
0.465339 -0.005586 -0.080857
0.465339 -0.051442 0.032782
0.465339 0.070663 0.064028
0.465339 -0.013124 -0.058659
0.465339 -0.032493 0.059980
0.465339 0.030417 0.069704
0.465339 -0.035804 0.071047
0.465339 -0.038331 0.026544
0.465339 0.048171 0.079575
0.465339 0.020248 -0.039372
0.465339 -0.053728 -0.046686
0.465339 0.083989 0.050413
0.465339 0.013768 0.073540
0.465339 -0.035183 0.059579
0.465339 -0.026533 0.070998
0.465339 -0.018160 -0.084829
0.465339 -0.015519 0.078877
0.465339 -0.043983 0.031680
0.465339 -0.059842 -0.062162
0.465339 -0.060560 -0.066215
0.465339 0.013584 -0.064851
0.465339 0.007308 0.038458
0.465339 0.085263 0.041300
0.465339 -0.044283 0.025786
0.465339 -0.027318 0.036653
0.465339 -0.049139 0.023373
0.465339 -0.017638 0.024584
0.465339 0.074157 0.031046
0.465339 0.089471 0.010434
0.465339 -0.047741 -0.020536
0.465339 0.074615 -0.053691
0.465339 -0.091634 -0.017407
0.465339 0.034664 -0.052997
0.465339 -0.009091 0.031100
0.465339 0.002874 0.041798
0.465339 0.093422 0.032892
0.465339 0.044475 -0.023420
0.465339 0.014557 0.029034
0.465339 -0.005299 0.058954
0.465339 -0.012742 0.001869
0.465339 -0.073816 0.045569
0.465339 -0.006015 -0.094232
0.465339 -0.001488 0.069763
0.465339 -0.064218 0.054495
0.465339 0.040900 -0.042401
0.465339 -0.027020 0.080701
0.465339 -0.092917 -0.006505
0.465339 -0.022268 -0.035978
0.465339 0.077530 -0.056582
0.465339 -0.045449 0.066998
0.465339 0.060118 0.075145
0.465339 0.056931 0.070767
0.465339 -0.051577 -0.022065
0.465339 -0.040282 0.028302
0.465339 -0.048825 -0.077638
0.465339 0.011278 0.044764
0.465339 0.025652 0.055219
0.465339 0.070583 0.052046
0.465339 0.085085 -0.022327
0.465339 -0.081037 -0.007317
0.465339 0.061227 -0.038518
0.465339 -0.009045 0.063730
0.465339 -0.027394 -0.013968
0.465339 -0.020107 -0.001768
0.465339 -0.052371 -0.073180
0.465339 -0.087769 -0.012595
0.465339 -0.039895 0.057634
0.465339 -0.042052 0.084542
0.465339 0.019666 -0.020186
0.465339 0.086945 -0.035729
0.465339 -0.027130 0.086129
0.465339 0.071492 -0.032477
0.465339 -0.042572 0.080998
0.465339 -0.003673 0.074941
0.465339 0.030952 -0.080035
0.465339 0.084628 0.052597
0.465339 0.032807 0.090539
0.465339 -0.066981 -0.023919
0.465339 -0.079308 -0.010623
0.465339 0.071761 -0.056680
0.465339 -0.000980 -0.005193
0.465339 -0.030333 0.045147
0.465339 -0.000799 0.049200
0.465339 0.047283 -0.020189
0.465339 0.046807 0.043713
0.465339 -0.055001 -0.076271
0.465339 -0.083454 0.020943
0.465339 -0.031993 -0.019429
0.465339 0.034570 -0.047378
0.465339 0.050291 -0.072481
0.465339 -0.092664 -0.027914
0.465339 -0.019232 0.046651
0.465339 -0.046922 0.081868
0.465339 0.052363 -0.022079
0.465339 -0.023708 0.024347
0.465339 0.039317 0.011296
0.465339 0.073811 0.015772
0.465339 0.000398 -0.032727
0.465339 -0.042837 0.042985
0.465339 0.011193 -0.012902
0.465339 -0.009556 -0.025918
0.465339 0.046906 0.072960
0.465339 0.057695 -0.020525
0.465339 0.015297 -0.015699
0.465339 -0.056521 -0.037441
0.465339 -0.057132 -0.023306
0.465339 0.053070 0.084072
0.465339 0.032709 -0.083447
0.465339 0.048496 0.051723
0.465339 -0.038305 0.073944
0.465339 -0.063233 0.046567
0.465339 -0.036518 0.021997
0.465339 0.079609 0.053726
0.465339 0.021262 -0.054854
0.465339 0.011622 0.030604
0.465339 -0.054357 0.038787
0.465339 0.052172 -0.047205
0.465339 0.066276 0.050735
0.465339 0.020756 0.036440
0.465339 -0.018713 -0.079195
0.465339 0.076224 -0.001118
0.465339 -0.061940 0.045565
0.465339 -0.053245 -0.054117
0.465339 -0.025486 -0.082326
0.465339 -0.044772 -0.040383
0.465339 0.053686 0.072260
0.465339 0.056382 -0.001218
0.465339 0.023995 -0.056950
0.465339 0.031926 0.077621
0.465339 -0.027019 -0.016927
0.465339 0.049095 -0.015398
0.465339 -0.061254 -0.061830
0.465339 -0.043928 -0.052579
0.465339 0.086200 0.032196
0.465339 -0.057282 0.028247
0.465339 0.075096 -0.017284
0.465339 -0.073393 -0.001180
0.465339 -0.050169 -0.073801
0.465339 0.083435 0.033854
0.465339 0.016339 0.090915
0.465339 -0.024417 -0.028377
0.465339 0.046647 0.042221
0.465339 0.089057 -0.026358
0.465339 -0.085828 0.016553
0.465339 0.057353 -0.022344
0.465339 -0.097255 0.004477
0.465339 -0.015980 0.063752
0.465339 -0.015137 -0.047423
0.465339 0.006758 -0.069360
0.465339 0.078102 -0.008777
0.465339 0.036280 0.071426
0.465339 -0.016917 0.020993
0.465339 -0.001767 -0.035378
0.465339 0.085528 -0.028848
0.465339 0.026411 0.058452
0.465339 0.068958 0.016400
0.465339 -0.001175 0.011241
0.465339 0.007320 -0.074168
0.465339 0.082886 0.017133
0.465339 0.070223 0.035513
0.465339 0.012645 0.083270
0.465339 -0.046031 -0.040995
0.465339 0.017541 0.041002
0.465339 0.042334 -0.052307
0.465339 -0.027590 -0.063311
0.465339 0.051611 0.066950
0.465339 -0.034579 -0.056051
0.465339 -0.076376 0.026240
0.465339 -0.029995 -0.035041
0.465339 0.066463 0.025661
0.465339 -0.090020 -0.011288
0.465339 -0.012982 0.089189
0.465339 -0.068774 0.067888
0.465339 -0.049941 -0.069544
0.465339 0.012786 0.020120
0.465339 -0.062057 0.063811
0.465339 0.012664 -0.094500
0.465339 -0.020060 -0.019552
0.465339 0.096794 0.012783
0.465339 0.084649 0.011819
0.465339 0.068350 -0.036278
0.465339 0.072729 -0.024865
0.465339 -0.051153 -0.072356
0.465339 0.002338 -0.083372
0.465339 0.020354 -0.097114
0.465339 -0.028920 0.046700
0.465339 -0.019792 0.026589
0.465339 -0.063648 0.016657
0.465339 0.062939 -0.026810
0.465339 -0.017758 -0.036604
0.465339 0.049916 0.025290
0.465339 0.077753 0.042430
0.465339 -0.029828 0.084937
0.465339 0.079383 0.002097
0.465339 -0.020009 -0.077633
0.465339 -0.040345 -0.073442
0.465339 -0.008485 -0.044617
0.465339 -0.084964 -0.033765
0.465339 -0.018190 0.011651
0.465339 -0.070332 -0.063949
0.465339 0.002948 -0.027733
0.465339 -0.027237 -0.050169
0.465339 -0.070777 -0.010368
0.465339 -0.055779 0.073600
0.465339 -0.024473 -0.074937
0.465339 0.063579 -0.016852
0.465339 0.023910 -0.073962
0.465339 -0.045182 -0.020874
0.465339 -0.036842 0.003511
0.465339 -0.076042 0.047619
0.465339 -0.000698 -0.036396
0.465339 -0.036862 0.069248
0.465339 0.061643 -0.003224
0.465339 0.047211 -0.051523
0.465339 0.039110 -0.020353
0.465339 0.000016 0.003741
0.465339 0.076872 -0.006506
0.465339 0.091473 -0.035727
0.465339 0.033305 -0.022056
0.465339 -0.064978 0.043703
0.465339 0.023640 0.067289
0.465339 -0.021251 0.053199
0.465339 -0.049529 0.006564
0.465339 0.051622 0.031576
0.465339 0.024867 0.092886
0.465339 -0.088617 -0.024076
0.465339 0.039826 -0.023977
0.465339 -0.011774 -0.054994
0.465339 -0.069154 0.032315
0.465339 -0.019853 -0.029736
0.465339 -0.029657 -0.068878
0.465339 0.013624 0.013091
0.465339 -0.018214 -0.056899
0.465339 0.018903 0.013994
0.465339 0.004047 -0.074900
0.465339 -0.065153 0.067401
0.465339 -0.059840 0.034840
0.465339 0.024260 -0.086797
0.465339 0.091193 -0.000916
0.465339 -0.084458 0.050648
0.465339 -0.060748 0.032230
0.465339 0.047965 -0.036967
0.465339 0.069206 -0.041567
0.465339 -0.032838 0.002895
0.465339 0.094016 -0.008816
0.465339 0.025928 0.094178
0.465339 -0.010056 0.097370
0.465339 -0.074601 0.033035
0.465339 -0.013638 -0.027149
0.465339 0.058165 -0.076195
0.465339 0.019164 -0.075689
0.465339 -0.059578 0.009257
0.465339 0.050638 -0.006382
0.465339 0.014377 0.033787
0.465339 -0.089779 0.013300
0.465339 0.096625 0.014414
0.465339 0.019115 0.083175
0.465339 0.021877 0.046679
0.465339 0.042456 0.064107
0.465339 -0.039497 -0.014254
0.465339 0.033215 -0.006089
0.465339 0.048395 0.022704
0.465339 -0.067410 -0.029142
0.465339 -0.081852 0.026780
0.465339 0.015137 -0.028401
0.465339 -0.029603 -0.054528
0.465339 0.049966 0.022366
0.465339 -0.009285 -0.054914
0.465339 0.021483 0.008401
0.465339 0.042380 0.051386
0.465339 0.012793 -0.045146
0.465339 -0.016135 -0.095364
0.465339 -0.013113 -0.080136
0.465339 -0.015940 -0.013595
0.465339 -0.018899 -0.030879
0.465339 0.062834 0.011818
0.465339 0.005199 -0.018785
0.465339 -0.090442 -0.026487
0.465339 -0.044486 0.046640
0.465339 0.018489 0.032168
0.465339 0.052869 -0.081728
0.465339 0.003873 0.069343
0.465339 -0.035386 0.025779
0.465339 0.063630 -0.000689
0.465339 0.049676 -0.056070
0.465339 0.038015 -0.070330
0.465339 0.028497 0.030870
0.465339 -0.028747 -0.034363
0.465339 -0.044417 -0.057993
0.465339 -0.004374 0.001428
0.465339 -0.037278 -0.089540
0.465339 -0.069522 0.011813
0.465339 -0.025438 0.081674
0.465339 0.042866 -0.033475
0.465339 -0.061552 0.061040
0.465339 -0.015526 -0.020206
0.465339 0.091214 -0.028549
0.465339 0.068824 -0.020197
0.465339 0.025053 0.006035
0.465339 0.002701 -0.012342
0.465339 0.022964 -0.031980
0.465339 -0.049796 -0.009668
0.465339 0.046618 -0.070626
0.465339 0.037221 -0.020298
0.465339 0.049253 0.046441
0.465339 0.085624 0.003201
0.465339 -0.025173 -0.002710
0.465339 0.066150 -0.000265
0.465339 -0.063724 0.075139
0.465339 0.095722 0.016124
0.465339 -0.038833 0.031780
0.465339 -0.007014 0.072531
0.465339 -0.022608 0.029337
0.465339 -0.081352 -0.023639
0.465339 -0.095328 0.014424
0.465339 0.076762 0.039514
0.465339 0.053855 -0.043860
0.465339 0.034158 0.019625
0.465339 0.068766 0.058420
0.465339 -0.009497 -0.058570
0.465339 0.069745 -0.067208
0.465339 0.061999 0.069055
0.465339 -0.098684 0.008623
0.465339 0.014438 0.053658
0.465339 -0.051690 -0.034199
0.465339 -0.053580 -0.067739
0.465339 -0.037524 0.015050
0.465339 -0.038142 0.013734
0.465339 -0.088052 0.021214
0.465339 -0.025700 0.023321
0.465339 0.070388 -0.008433
0.465339 0.055510 -0.016468
0.465339 -0.006329 -0.040322
0.465339 0.019507 -0.033823
0.465339 0.008016 0.018666
0.465339 -0.008807 0.054422
0.465339 0.022054 0.094504
0.465339 0.024519 0.045765
0.465339 -0.004410 0.076403
0.465339 0.014079 0.063086
0.465339 -0.074067 0.011208
0.465339 0.024900 0.023037
0.465339 0.062880 -0.050623
0.465339 -0.087693 0.009779
0.465339 -0.059044 -0.027091
0.465339 -0.064607 -0.038755
0.465339 0.017992 0.002071
0.465339 0.065121 0.043999
0.465339 0.097032 0.007404
0.465339 -0.051442 -0.079276
0.465339 0.089805 0.003683
0.465339 -0.083514 0.000944
0.465339 -0.092830 -0.033968
0.465339 0.066500 -0.029059
0.465339 0.018386 0.055344
0.465339 0.098623 -0.003284
0.465339 0.043187 -0.042159
0.465339 0.035739 0.090945
0.465339 -0.067091 0.045763
0.465339 0.058237 -0.039570
0.465339 -0.011330 0.072598
0.465339 0.053369 -0.012579
0.465339 -0.036967 -0.086383
0.465339 0.048210 0.031580
0.465339 0.012983 0.029307
0.465339 -0.077311 -0.048398
0.465339 -0.076048 0.040448
0.465339 0.040080 0.085378
0.465339 0.006146 0.073343
0.465339 -0.063566 0.022959
0.465339 0.075387 -0.021838
0.465339 0.055839 -0.060677
0.465339 0.082141 0.006930
0.465339 -0.007344 -0.034776
0.465339 0.062475 -0.017972
0.465339 0.015478 0.086353
0.465339 -0.031405 -0.016629
0.465339 -0.056657 -0.006606
0.465339 0.071891 -0.017402
0.465339 0.023110 0.053271
0.465339 -0.098764 -0.009906
0.465339 0.044135 0.018925
0.465339 -0.039790 0.042590
0.465339 -0.030128 0.032717
0.465339 0.013623 0.096663
0.465339 -0.049681 0.047916
0.465339 0.024685 0.052340
0.465339 0.042862 -0.088205
0.465339 0.089696 -0.022604
0.465339 0.053180 0.064811
0.465339 -0.045722 0.075454
0.465339 0.055891 0.039476
0.465339 0.089690 -0.027695
0.465339 -0.002044 0.086391
0.465339 0.027937 -0.012520
0.465339 0.045525 0.036610
0.465339 -0.013723 0.082393
0.465339 -0.015192 -0.018182
0.465339 0.051942 -0.072465
0.465339 0.029000 0.057790
0.465339 -0.025480 -0.029587
0.465339 0.091437 -0.017923
0.465339 0.098723 -0.015292
0.465339 -0.033204 -0.009502
0.465339 0.012844 0.034088
0.465339 -0.045225 -0.078785
0.465339 0.090065 -0.006014
0.465339 -0.007620 0.009687
0.465339 0.011470 -0.020367
0.465339 0.091465 0.011888
0.465339 0.062708 0.043810
0.465339 -0.073568 -0.031247
0.465339 0.025495 -0.076324
0.465339 -0.018398 0.090851
0.465339 0.035970 0.031944
0.465339 0.084227 0.045297
0.465339 -0.009936 0.053566
0.465339 -0.050110 0.076459
0.465339 -0.065516 0.050495
0.465339 0.021085 -0.087552
0.465339 0.044231 -0.033958
0.465339 -0.053553 0.051654
0.465339 0.030920 0.021834
0.465339 -0.037823 0.078683
0.465339 -0.023344 -0.043165
0.465339 0.029911 0.001007
0.465339 0.054055 0.069404
0.465339 0.062235 -0.049115
0.465339 0.059701 -0.000201
0.465339 -0.094946 -0.000623
0.465339 -0.095166 0.029947
0.465339 -0.015536 0.068992
0.465339 -0.062378 0.065519
0.465339 0.063069 0.002462
0.465339 0.097540 -0.013231
0.465339 -0.078975 0.047182
0.465339 -0.019677 -0.050725
0.465339 0.043301 -0.005559
0.465339 -0.088889 -0.001573
0.465339 0.068159 -0.053571
0.465339 -0.055477 -0.048887
0.465339 -0.062464 0.058229
0.465339 0.053173 -0.003020
0.465339 0.034040 0.001232
0.465339 0.048436 -0.019342
0.465339 -0.084567 -0.043384
0.465339 -0.063810 -0.074847
0.465339 -0.092081 0.008171
0.465339 -0.018513 0.034836
0.465339 -0.032109 -0.057592
0.465339 0.013881 0.070715
0.465339 0.000250 -0.027506
0.465339 0.010750 0.006932
0.465339 -0.091945 0.018074
0.465339 0.022723 -0.003748
0.465339 0.034770 -0.083093
0.465339 -0.030963 0.060382
0.465339 0.017961 -0.004904
0.465339 -0.021652 0.014077
0.465339 0.019969 0.031609
0.465339 -0.072512 0.019845
0.465339 -0.020627 0.070937
0.465339 0.036775 -0.028468
0.465339 -0.005147 0.094163
0.465339 -0.011019 -0.048155
0.465339 0.021138 0.015936
0.465339 -0.043891 0.060886
0.465339 0.095091 0.028988
0.465339 -0.093240 0.014367
0.465339 -0.072089 -0.055459
0.465339 0.070905 -0.030481
0.465339 -0.003977 0.094944
0.465339 -0.017357 0.068288
0.465339 0.032064 -0.054902
0.465339 -0.012702 0.037174
0.465339 0.056190 -0.041239
0.465339 -0.006381 0.059842
0.465339 -0.062036 -0.032524
0.465339 -0.069829 -0.025624
0.465339 -0.066827 -0.030644
0.465339 0.010433 0.058329
0.465339 0.065814 -0.014071
0.465339 -0.089029 -0.031826
0.465339 -0.014010 -0.038913
0.465339 0.061119 -0.061333
0.465339 -0.093109 -0.003427
0.465339 -0.040062 0.026147
0.465339 -0.026612 -0.060600
0.465339 -0.010413 -0.022555
0.465339 0.071276 -0.063998
0.465339 0.004653 -0.053195
0.465339 0.013801 -0.077982
0.465339 0.036168 0.008926
0.465339 -0.033633 0.058799
0.465339 -0.058369 0.029696
0.465339 0.029477 -0.030045
0.465339 -0.044528 -0.000881
0.465339 -0.088198 -0.008522
0.465339 -0.046050 -0.083486
0.465339 0.058310 0.050624
0.465339 0.084240 0.037883
0.465339 -0.092187 -0.032434
0.465339 0.083057 -0.006867
0.465339 -0.000236 -0.014169
0.465339 -0.037755 0.084824
0.465339 0.038999 0.080653
0.465339 0.029086 -0.041989
0.465339 0.034169 0.073313
0.465339 0.033685 0.056688
0.465339 -0.071376 0.025313
0.465339 -0.095829 -0.020311
0.465339 0.073515 -0.000487
0.465339 -0.013879 -0.032531
0.465339 0.054892 0.083468
0.465339 -0.034650 0.086783
0.465339 0.054409 -0.033626
0.465339 0.055862 -0.066677
0.465339 0.070789 -0.051235
0.465339 0.036167 0.044338
0.465339 -0.027374 -0.067291
0.465339 0.017290 -0.032691
0.465339 -0.054304 0.053182
0.465339 0.074112 -0.009503
0.465339 -0.012028 0.024080
0.465339 0.050991 0.041820
0.465339 -0.036498 0.045632
0.465339 -0.030857 0.092285
0.465339 -0.026513 0.087903
0.465339 -0.025063 -0.038175
0.465339 0.006615 0.059309
0.465339 0.043488 0.010114
0.465339 0.098117 -0.000708
0.465339 -0.093062 0.012719
0.465339 -0.062097 -0.011249
0.465339 -0.066837 0.059946
0.465339 -0.004662 -0.074963
0.465339 -0.001871 -0.099520
0.465339 0.050602 0.032980
0.465339 -0.073655 -0.059443
0.465339 0.084724 0.006211
0.465339 0.081606 0.016763
0.465339 0.008595 0.044477
0.465339 0.096503 0.005938
0.465339 -0.014544 -0.093218
0.465339 -0.063003 -0.064201
0.465339 0.022324 0.067653
0.465339 -0.027849 0.035145
0.465339 -0.077324 0.039323
0.465339 0.091117 0.025125
0.465339 -0.006429 0.050080
0.465339 0.057788 0.018795
0.465339 0.078131 0.036682
0.465339 -0.071254 0.046513
0.465339 0.030135 -0.017532
0.465339 -0.055691 -0.009316
0.465339 -0.024201 0.075084
0.465339 0.033541 0.077378
0.465339 0.031820 -0.040032
0.465339 -0.079250 -0.035792
0.465339 -0.028935 0.039765
0.465339 0.044266 0.088566
0.465339 -0.032823 0.045429
0.465339 0.013500 0.036827
0.465339 0.013807 -0.088633
0.465339 -0.042070 -0.063857
0.465339 0.075978 0.060157
0.465339 -0.018081 0.055870
0.465339 0.025565 0.079031
0.465339 0.028974 0.009236
0.465339 -0.079470 0.010982
0.465339 -0.030179 -0.086338
0.465339 -0.076272 -0.007661
0.465339 0.020223 0.049685
0.465339 -0.076487 0.022687
0.465339 -0.059077 0.031820
0.465339 -0.032773 0.081061
0.465339 -0.086227 0.039602
0.465339 -0.075941 -0.015996
0.465339 0.050048 0.054228
0.465339 0.027905 0.054867
0.465339 -0.093464 -0.017270
0.465339 0.082386 -0.047919
0.465339 -0.035509 -0.026108
0.465339 -0.036213 -0.027776
0.465339 -0.024843 0.050637
0.465339 -0.079199 0.060785
0.465339 0.046516 0.037837
0.465339 0.040172 0.079174
0.465339 0.074994 0.054002
0.465339 0.031518 0.083062
0.465339 -0.097135 -0.020719
0.465339 0.072334 -0.062731
0.465339 0.021818 0.013317
0.465339 -0.067225 0.012668
0.465339 -0.055505 0.028511
0.465339 -0.077800 0.031063
0.465339 -0.000077 0.028709
0.465339 -0.020963 0.004783
0.465339 0.086884 0.038977
0.465339 0.075096 0.045172
0.465339 -0.065669 0.061904
0.465339 0.009790 0.034670
0.465339 0.012180 0.004017
0.465339 -0.068342 -0.027681
0.465339 0.006351 -0.009735
0.465339 0.082583 0.024830
0.465339 0.016034 -0.055038
0.465339 -0.063049 -0.059551
0.465339 -0.073117 0.067838
0.465339 0.061730 0.026639
0.465339 0.031639 0.004295
0.465339 -0.012257 -0.007543
0.465339 -0.050592 -0.077905
0.465339 -0.011657 0.043030
0.465339 -0.063466 -0.067071
0.465339 -0.074885 0.024893
0.465339 -0.022594 0.033411
0.465339 0.058903 0.064614
0.465339 0.077352 0.033969
0.465339 -0.088074 0.014162
0.465339 0.036256 -0.075529
0.465339 0.041198 0.068335
0.465339 -0.012907 0.008104
0.465339 -0.002155 0.010180
0.465339 -0.033742 0.035340
0.465339 0.053335 -0.050627
0.465339 0.005588 -0.066595
0.465339 0.043086 0.081808
0.465339 -0.059182 -0.077702
0.465339 -0.047745 0.024370
0.465339 0.008511 -0.053469
0.465339 -0.058427 0.005208
0.465339 -0.092254 0.033466
0.465339 -0.007860 -0.076489
0.465339 0.038513 -0.015858
0.465339 0.044539 -0.073210
0.465339 0.071943 0.052254
0.465339 0.069557 0.034036
0.465339 0.001603 0.011655
0.465339 -0.008631 0.032569
0.465339 -0.042630 0.045984
0.465339 0.039265 0.059249
0.465339 0.071342 -0.038302
0.465339 0.039716 -0.074698
0.465339 -0.068660 0.010555
0.465339 0.076198 0.015131
0.465339 0.011014 0.065385
0.465339 0.073566 -0.045082
0.465339 0.019022 0.048862
0.465339 0.063330 0.018762
0.465339 0.078199 -0.051307
0.465339 -0.061831 0.047629
0.465339 -0.039100 -0.033686
0.465339 -0.001868 0.028529
0.465339 0.025294 0.084415
0.465339 0.081179 0.001127
0.465339 -0.058115 0.073970
0.465339 0.021802 -0.073428
0.465339 0.022144 -0.042929
0.465339 -0.025713 0.075647
0.465339 0.046311 0.003685
0.465339 -0.052909 0.063299
0.465339 0.091434 0.040442
0.465339 0.042112 0.047221
0.465339 0.031946 0.017524
0.465339 -0.010954 0.092423
0.465339 0.057844 -0.078522
0.465339 0.001691 0.093371
0.465339 0.097524 0.016536
0.465339 0.073715 -0.021865
0.465339 0.038091 -0.068455
0.465339 0.056019 -0.043897
0.465339 -0.043998 0.041671
0.465339 0.001262 0.083590
0.465339 0.045778 0.026546
0.465339 0.000631 -0.036191
0.465339 0.077004 -0.012521
0.465339 -0.060476 0.048393
0.465339 -0.024276 0.017251
0.465339 0.072636 0.013009
0.465339 0.000429 0.005128
0.465339 -0.032595 -0.015096
0.465339 0.080301 -0.037270
0.465339 0.013710 0.017270
0.465339 0.014789 -0.056363
0.465339 -0.017334 -0.079326
0.465339 0.056468 0.066551
0.465339 0.073562 -0.050807
0.465339 0.012838 0.045985
0.465339 0.026235 0.060561
0.465339 -0.078121 -0.038021
0.465339 0.052005 -0.001877
0.465339 0.075757 0.025114
0.465339 -0.009144 -0.019855
0.465339 0.034529 0.049084
0.465339 0.055939 -0.046557
0.465339 -0.005883 -0.075679
0.465339 0.033236 -0.020132
0.465339 0.030131 -0.066800
0.465339 0.064332 -0.062587
0.465339 -0.060255 0.021926
0.465339 -0.060065 0.066427
0.465339 -0.056780 0.015683
0.465339 0.026049 0.090976
0.465339 -0.003476 -0.067254
0.465339 0.040537 -0.012969
0.465339 0.037862 -0.080239
0.465339 -0.080675 -0.054182
0.465339 0.001741 0.053210
0.465339 0.063016 0.010450
0.465339 -0.079730 -0.015853
0.465339 0.074487 0.024299
0.465339 -0.008365 -0.029825
0.465339 0.095749 -0.008608
0.465339 -0.029537 0.067358
0.465339 -0.019737 0.003521
0.465339 -0.026108 -0.010898
0.465339 -0.087259 -0.036894
0.465339 -0.022130 -0.057369
0.465339 0.031589 0.061262
0.465339 0.078569 0.060379
0.465339 -0.016440 0.087870
0.465339 0.074461 0.037722
0.465339 0.032346 -0.079161
0.465339 0.056739 0.009184
0.465339 0.037270 -0.030330
0.465339 -0.044594 -0.022558
0.465339 0.024683 0.047690
0.465339 0.002943 -0.094055
0.465339 0.041203 -0.010188
0.465339 -0.053421 0.021573
0.465339 0.058784 -0.019422
0.465339 0.017879 0.066333
0.465339 -0.025071 0.070101
0.465339 -0.082048 -0.035840
0.465339 0.038363 -0.034175
0.465339 0.090068 0.019512
0.465339 0.025153 -0.006252
0.465339 0.028431 0.083841
0.465339 0.000752 0.000683
0.465339 0.000324 0.042867
0.465339 0.014623 0.056519
0.465339 -0.033856 0.074007
0.465339 0.004005 -0.083634
0.465339 -0.053127 -0.034861
0.465339 -0.056754 -0.047597
0.465339 -0.070619 -0.034322
0.465339 -0.041795 -0.045067
0.465339 -0.056667 0.007602
0.465339 -0.055013 0.054433
0.465339 -0.049786 -0.049310
0.465339 -0.006882 -0.060428
0.465339 -0.032646 0.029402
0.465339 -0.011093 0.021930
0.465339 -0.058939 -0.044726
0.465339 -0.057350 0.017594
0.465339 -0.018814 0.058970
0.465339 -0.008939 0.090846
0.465339 0.054265 0.001029
0.465339 -0.085616 -0.010251
0.465339 -0.011468 0.001010
0.465339 0.025900 -0.060828
0.465339 0.089811 0.018048
0.465339 -0.013622 -0.018374
0.465339 0.032522 0.042732
0.465339 -0.013607 -0.064101
0.465339 0.077110 0.024107
0.465339 0.004903 -0.033356
0.465339 0.012820 0.089095
0.465339 -0.029629 -0.041714
0.465339 0.033871 0.075141
0.465339 0.000081 0.055993
0.465339 0.071929 -0.015237
0.465339 -0.096631 0.001641
0.465339 0.073581 -0.003279
0.465339 0.025598 0.009824
0.465339 0.084160 -0.029740
0.465339 -0.046448 -0.074322
0.465339 0.001171 -0.011361
0.465339 0.073743 0.009543
0.465339 0.014370 -0.051266
0.465339 0.050458 0.027499
0.465339 0.008701 0.062152
0.465339 0.074314 0.002246
0.465339 0.023524 -0.083690
0.465339 0.078025 -0.043458
0.465339 0.073979 -0.024195
0.465339 0.023145 0.033785
0.465339 -0.084680 -0.052301
0.465339 0.041481 0.036752
0.465339 -0.018409 0.038840
0.465339 0.025194 -0.070402
0.465339 0.030956 0.090222
0.465339 0.036475 -0.069563
0.465339 -0.055048 0.019657
0.465339 0.072455 0.066483
0.465339 -0.065931 -0.057564
0.465339 -0.028759 -0.002526
0.465339 0.056076 -0.068281
0.465339 0.050933 -0.078686
0.465339 -0.035643 -0.071130
0.465339 0.039231 0.057668
0.465339 0.050753 -0.066388
0.465339 -0.012432 0.030854
0.465339 0.034775 0.003114
0.465339 -0.029211 -0.044245
0.465339 -0.022683 0.092040
0.465339 -0.021184 -0.052621
0.465339 -0.042891 0.077233
0.465339 -0.032077 0.034734
0.465339 -0.030878 -0.049403
0.465339 0.064373 -0.038204
0.465339 -0.034186 0.070641
0.465339 -0.061265 0.024458
0.465339 -0.039309 -0.048832
0.465339 0.015662 0.050925
0.465339 -0.016745 0.027985
0.465339 0.002785 0.070413
0.465339 0.059193 0.013821
0.465339 -0.084241 0.013177
0.465339 0.040502 0.014064
0.465339 0.031130 -0.088167
0.465339 -0.035473 0.074521
0.465339 -0.019721 0.039839
0.465339 -0.013564 -0.030144
0.465339 0.027243 0.089895
0.465339 0.053286 0.014263
0.465339 0.044359 0.072027
0.465339 -0.054568 0.022426
0.465339 -0.004338 0.062742
0.465339 -0.037397 0.077217
0.465339 0.016056 0.084633
0.465339 -0.042322 0.037919
0.465339 -0.075820 0.019184
0.465339 -0.036686 -0.067567
0.465339 -0.064744 -0.064734
0.465339 0.093999 0.024203
0.465339 -0.093553 -0.004975
0.465339 0.054459 -0.052820
0.465339 -0.025398 -0.061713
0.465339 0.046087 0.061386
0.465339 0.030757 0.040248
0.465339 0.072046 -0.055336
0.465339 -0.034066 0.039309
0.465339 0.047484 -0.071717
0.465339 0.047424 0.002530
0.465339 0.079433 0.043823
0.465339 0.026184 -0.080719
0.465339 -0.061364 -0.068995
0.465339 -0.059670 -0.021749
0.465339 0.070268 0.023644
0.465339 0.006442 -0.048380
0.465339 -0.060444 0.038178
0.465339 0.003224 0.094196
0.465339 -0.021875 -0.003292
0.465339 -0.070783 -0.011991
0.465339 0.025367 0.037012
0.465339 0.041471 -0.063775
0.465339 -0.075988 0.020707
0.465339 -0.030677 -0.003491
0.465339 0.043574 -0.038540
0.465339 0.036084 -0.046682
0.465339 0.042298 -0.028701
0.465339 0.073956 -0.043476
0.465339 0.036555 -0.005057
0.465339 0.088911 -0.037113
0.465339 -0.051147 -0.062895
0.465339 0.001942 0.017696
0.465339 -0.081363 -0.020013
0.465339 0.054239 -0.028845
0.465339 0.060978 -0.018196
0.465339 -0.080774 -0.036805
0.465339 0.018525 0.087716
0.465339 0.040438 0.020076
0.465339 -0.041367 -0.072212
0.465339 0.091382 0.017277
0.465339 0.034607 0.026251
0.465339 0.069270 0.004965
0.465339 -0.046799 0.028449
0.465339 0.027864 0.079326
0.465339 0.049240 0.014525
0.465339 0.039574 -0.081078
0.465339 0.097027 -0.023217
0.465339 0.021327 -0.085796
0.465339 0.053875 0.018100
0.465339 0.010260 -0.008212
0.465339 0.002928 -0.079531
0.465339 0.007087 -0.052517
0.465339 -0.009033 0.092344
0.465339 -0.014570 0.057005
0.465339 0.039114 0.076109
0.465339 -0.038290 -0.081713
0.465339 0.004673 0.015974
0.465339 -0.059595 -0.015895
0.465339 0.057224 0.074055
0.465339 0.010845 0.023369
0.465339 -0.048690 0.018662
0.465339 0.020244 -0.079165
0.465339 0.056733 0.037086
0.465339 0.081550 0.011321
0.465339 0.082527 -0.017419
0.465339 0.017276 0.020675
0.465339 0.015163 -0.014018
0.465339 -0.024122 -0.080736
0.465339 0.039336 -0.055804
0.465339 0.004072 0.018473
0.465339 -0.049538 -0.030381
0.465339 -0.003410 0.092830
0.465339 -0.092630 -0.029240
0.465339 -0.019480 0.028949
0.465339 0.055539 -0.000018
0.465339 0.059330 0.051533
0.465339 0.004106 -0.071220
0.465339 0.013869 -0.083438
0.465339 0.085420 -0.010786
0.465339 0.090271 -0.010802
0.465339 -0.053087 0.068092
0.465339 0.029413 -0.091763
0.465339 0.040107 0.091638
0.465339 -0.074645 -0.032092
0.465339 0.080343 0.032957
0.465339 -0.007337 -0.057362
0.465339 -0.002881 -0.075083
0.465339 0.016865 0.057871
0.465339 0.006258 -0.003914
0.465339 0.002744 -0.060159
0.465339 -0.040160 0.053102
0.465339 0.017913 -0.015978
0.465339 -0.077205 -0.011295
0.465339 0.033250 0.059854
0.465339 -0.013889 0.029094
0.465339 0.071120 -0.067396
0.465339 0.056850 -0.061990
0.465339 0.065904 0.005376
0.465339 -0.090320 -0.014593
0.465339 -0.017395 -0.098084
0.465339 -0.075887 -0.001270
0.465339 0.020863 0.002556
0.465339 -0.029000 -0.052546
0.465339 0.046945 -0.018741
0.465339 -0.013788 0.070193
0.465339 0.092896 -0.018283
0.465339 0.014632 0.006584
0.465339 -0.077297 0.042627
0.465339 -0.068533 0.040101
0.465339 0.030176 -0.070562
0.465339 0.027819 0.039926
0.465339 0.022001 -0.056929
0.465339 0.008106 -0.054915
0.465339 -0.009120 -0.032400
0.465339 0.076682 0.006771
0.465339 0.060832 0.019254
0.465339 -0.038048 0.022522
0.465339 0.072001 -0.045099
0.465339 -0.042243 -0.068824
0.465339 -0.072056 0.060560
0.465339 0.069374 0.053439
0.465339 0.081503 0.038241
0.465339 -0.033755 -0.036974
0.465339 -0.004832 0.004036
0.465339 0.058371 0.006591
0.465339 -0.035744 0.011538
0.465339 -0.043334 -0.060697
0.465339 0.089635 -0.043578
0.465339 0.062261 0.035411
0.465339 0.015624 -0.073653
0.465339 0.073268 0.060460
0.465339 -0.010860 0.057678
0.465339 -0.032742 -0.041501
0.465339 -0.031255 0.072492
0.465339 -0.078312 -0.018397
0.465339 0.037707 0.025769
0.465339 -0.017309 -0.069523
0.465339 -0.018795 -0.020587
0.465339 -0.001426 -0.051781
0.465339 -0.082878 0.032826
0.465339 0.013131 -0.069015
0.465339 0.010894 -0.071765
0.465339 -0.001107 -0.068360
0.465339 0.018073 -0.058551
0.465339 -0.036503 0.060325
0.465339 0.044393 -0.074594
0.465339 0.059229 -0.006428
0.465339 -0.075738 0.027704
0.465339 0.040372 0.080805
0.465339 -0.016466 -0.004778
0.465339 0.011735 -0.085159
0.465339 -0.004723 0.019032
0.465339 0.005999 -0.062420
0.465339 0.071461 -0.009419
0.465339 -0.055729 0.057593
0.465339 0.075182 -0.063113
0.465339 0.045322 0.055350
0.465339 -0.017822 0.032846
0.465339 0.000099 -0.040962
0.465339 -0.073330 -0.045474
0.465339 -0.000469 -0.089749
0.465339 -0.025777 -0.075305
0.465339 -0.032119 0.010284
0.465339 0.019662 0.040248
0.465339 0.087223 -0.013841
0.465339 -0.016505 -0.071132
0.465339 0.038023 -0.008094
0.465339 0.065292 0.049536
0.465339 -0.066534 0.068299
0.465339 0.005753 -0.070409
0.465339 -0.025707 -0.031277
0.465339 0.080907 -0.028496
0.465339 -0.060133 0.010880
0.465339 0.060014 0.078344
0.465339 0.070713 0.020625
0.465339 -0.084838 -0.044695
0.465339 -0.072106 0.054855
0.465339 0.056045 -0.005686
0.465339 -0.081994 0.035285
0.465339 -0.035514 0.015565
0.465339 -0.021518 -0.029328
0.465339 0.090752 0.028680
0.465339 -0.053645 0.014293
0.465339 0.073813 0.035936
0.465339 0.001316 -0.078581
0.465339 0.013467 -0.097857
0.465339 0.024963 0.014789
0.465339 -0.085987 -0.004659
0.465339 0.031827 -0.006589
0.465339 -0.029946 0.064511
0.465339 0.047539 -0.021862
0.465339 0.027000 -0.007767
0.465339 0.066548 0.047486
0.465339 0.067916 -0.037887
0.465339 -0.021639 0.025014
0.465339 -0.049396 -0.021191
0.465339 -0.075003 0.062366
0.465339 0.088020 0.011955
0.465339 0.079930 0.011156
0.465339 0.051678 0.014848
0.465339 -0.055677 0.026462
0.465339 0.013123 0.047365
0.465339 -0.086722 -0.047462
0.465339 0.091213 0.030341
0.465339 0.000582 0.095482
0.465339 -0.066952 0.022007
0.465339 -0.089027 -0.022441
0.465339 0.012924 0.031264
0.465339 0.040651 -0.056527
0.465339 0.065308 -0.020739
0.465339 -0.015413 -0.032529
0.465339 -0.002868 -0.051364
0.465339 -0.043514 -0.079695
0.465339 -0.021833 -0.046169
0.465339 0.067927 0.063018
0.465339 -0.075971 0.017632
0.465339 0.055430 -0.076074
0.465339 0.016336 -0.038938
0.465339 -0.065903 0.020765
0.465339 -0.023562 0.090927
0.465339 0.056127 0.010827
0.465339 0.025752 0.001155
0.465339 0.012196 0.087223
0.465339 -0.030227 0.053024
0.465339 0.004172 0.082378
0.465339 0.016175 -0.009392
0.465339 -0.086769 0.017738
0.465339 -0.053436 0.080669
0.465339 -0.006112 -0.029810
0.465339 -0.085989 0.029704
0.465339 0.063511 0.055479
0.465339 -0.024311 -0.008233
0.465339 0.034605 0.028225
0.465339 0.026226 0.013984
0.465339 0.028670 -0.001800
0.465339 0.011531 0.043108
0.465339 0.025825 0.016748
0.465339 -0.058987 -0.064442
0.465339 0.082084 0.042358
0.465339 0.035768 -0.063536
0.465339 -0.075303 -0.034384
0.465339 -0.055953 0.059297
0.465339 -0.030878 -0.031900
0.465339 0.071999 0.059814
0.465339 0.001346 -0.073695
0.465339 -0.059313 -0.051976
0.465339 0.056095 0.061827
0.465339 0.035109 -0.013147
0.465339 0.064169 0.042713
0.465339 -0.030085 -0.038272
0.465339 -0.043071 -0.021447
0.465339 -0.091814 -0.025832
0.465339 -0.035617 -0.018551
0.465339 0.071331 0.007719
0.465339 -0.022834 -0.079546
0.465339 0.073116 -0.016370
0.465339 -0.085976 0.019417
0.465339 -0.014648 0.023520
0.465339 0.007378 0.036451
0.465339 0.046508 -0.067242
0.465339 0.026460 0.007066
0.465339 -0.031889 -0.013220
0.465339 -0.049820 0.066620
0.465339 -0.049248 0.008301
0.465339 -0.083662 -0.013893
0.465339 -0.007766 -0.031511
0.465339 0.042605 -0.045232
0.465339 0.088125 0.000953
0.465339 0.086286 0.025617
0.465339 -0.014806 -0.061278
0.465339 -0.002390 -0.088562
0.465339 -0.078459 -0.026944
0.465339 -0.003198 -0.032923
0.465339 0.000499 0.030433
0.465339 0.021723 -0.091647
0.465339 -0.029768 -0.019314
0.465339 -0.008170 0.045196
0.465339 0.009578 -0.071353
0.465339 -0.068182 -0.034365
0.465339 0.024545 0.043156
0.465339 -0.051231 0.008351
0.465339 0.009256 -0.032432
0.465339 0.053620 -0.045566
0.465339 0.012178 0.070593
0.465339 -0.062855 0.052551
0.465339 0.044685 -0.061384
0.465339 -0.052340 0.013580
0.465339 -0.098221 0.007359
0.465339 0.091654 0.005506
0.465339 -0.066716 0.052427
0.465339 0.074908 -0.061439
0.465339 -0.005540 0.030334
0.465339 0.015624 -0.083970
0.465339 -0.070379 0.021949
0.465339 -0.001620 -0.042288
0.465339 0.063946 -0.008813
0.465339 -0.029104 -0.095107
0.465339 0.052505 -0.020705
0.465339 -0.021218 -0.036896
0.465339 0.086263 0.014594
0.465339 0.026827 0.062764
0.465339 -0.070472 -0.047677
0.465339 -0.061696 0.028283
0.465339 -0.046903 -0.035623
0.465339 0.012597 -0.098897
0.465339 0.021813 -0.021247
0.465339 0.001646 -0.030034
0.465339 -0.029018 -0.025892
0.465339 -0.046846 -0.024602
0.465339 -0.056315 -0.062719
0.465339 -0.069050 -0.049193
0.465339 -0.079864 -0.000297
0.465339 0.096588 -0.025485
0.465339 -0.054420 0.012714
0.465339 -0.065731 0.016320
0.465339 0.060537 -0.069982
0.465339 -0.024846 -0.044463
0.465339 0.027561 -0.044489
0.465339 0.093464 0.004717
0.465339 0.089079 0.032726
0.465339 -0.093622 -0.022830
0.465339 -0.043515 0.083801
0.465339 0.007654 0.094273
0.465339 0.074058 0.046047
0.465339 0.062720 -0.067622
0.465339 0.076440 -0.033734
0.465339 0.095444 -0.028808
0.465339 0.050037 -0.004761
0.465339 -0.073524 0.049028
0.465339 0.060947 -0.009509
0.465339 -0.035312 0.093330
0.465339 -0.088322 -0.041826
0.465339 0.006805 0.087575
0.465339 0.089690 0.000396
0.465339 -0.042317 -0.051602
0.465339 0.044260 0.016358
0.465339 -0.080999 0.042163
0.465339 -0.022384 -0.063818
0.465339 0.001594 0.026555
0.465339 -0.007436 -0.009013
0.465339 -0.028740 -0.039351
0.465339 -0.032554 -0.037960
0.465339 -0.067975 0.024161
0.465339 0.048612 0.076823
0.465339 0.082918 -0.032061
0.465339 0.094461 -0.017617
0.465339 0.010351 0.061896
0.465339 0.081464 -0.041118
0.465339 -0.053715 0.070503
0.465339 -0.088640 0.006042
0.465339 -0.006132 -0.031153
0.465339 -0.012794 0.067355
0.465339 -0.021534 -0.001738
0.465339 -0.051364 -0.055968
0.465339 -0.026461 0.063983
0.465339 -0.032746 -0.003720
0.465339 0.051227 0.070299
0.465339 -0.041454 0.076557
0.465339 0.029223 -0.094985
0.465339 -0.042010 0.068630
0.465339 -0.048353 0.041950
0.465339 0.054142 -0.082821
0.465339 -0.064681 0.017799
0.465339 0.075851 0.038331
0.465339 -0.026280 -0.036746
0.465339 -0.085937 0.032136
0.465339 -0.042438 0.020750
0.465339 -0.018633 0.057260
0.465339 -0.020247 0.080130
0.465339 -0.034920 0.042803
0.465339 0.066553 0.007961
0.465339 0.029547 -0.028364
0.465339 -0.044423 -0.055842
0.465339 0.021048 -0.026135
0.465339 0.069574 0.022363
0.465339 0.011271 -0.055972
0.465339 -0.002994 -0.031255
0.465339 -0.032374 -0.008013
0.465339 -0.008828 -0.079412
0.465339 -0.079489 0.054667
0.465339 -0.041456 -0.028536
0.465339 -0.059449 -0.012436
0.465339 -0.073743 -0.042947
0.465339 0.030350 -0.034261
0.465339 0.043335 -0.047066
0.465339 0.011759 0.002528
0.465339 -0.021902 0.036951
0.465339 0.060139 -0.057754
0.465339 -0.033843 -0.091504
0.465339 0.072633 -0.023302
0.465339 -0.042253 -0.067115
0.465339 -0.030990 0.084227
0.465339 0.085719 0.019611
0.465339 -0.041328 0.090290
0.465339 0.003716 0.090241
0.465339 -0.021444 -0.093640
0.465339 0.007939 -0.085408
0.465339 -0.067958 -0.018541
0.465339 -0.075767 -0.061981
0.465339 0.063382 0.017338
0.465339 -0.031532 -0.091847
0.465339 0.014156 0.093641
0.465339 -0.060982 0.039683
0.465339 0.037175 -0.064848
0.465339 0.030929 -0.015895
0.465339 -0.038118 -0.041411
0.465339 -0.008749 0.006171
0.465339 -0.002362 0.075878
0.465339 0.018788 0.085480
0.465339 0.023738 0.032143
0.465339 -0.009559 -0.047514
0.465339 -0.035235 -0.030372
0.465339 0.027792 -0.018622
0.465339 0.070803 -0.054448
0.465339 -0.029106 -0.084867
0.465339 -0.072066 -0.021491
0.465339 0.037380 0.063727
0.465339 0.061771 0.071001
0.465339 -0.063744 -0.021611
0.465339 -0.017877 0.064106
0.465339 -0.007413 -0.073230
0.465339 -0.035130 -0.088236
0.465339 0.003392 -0.062446
0.465339 0.050621 0.030171
0.465339 -0.009861 -0.051493
0.465339 0.068702 -0.024630
0.465339 0.058834 0.008747
0.465339 -0.040458 -0.063525
0.465339 -0.037869 -0.091985
0.465339 0.031652 -0.012295
0.465339 0.030923 -0.072028
0.465339 -0.003636 -0.078190
0.465339 -0.092004 0.001575
0.465339 0.052175 -0.062678
0.465339 -0.078389 0.009965
0.465339 0.055458 0.063528
0.465339 0.025734 -0.035359
0.465339 -0.033314 0.063708
0.465339 -0.000594 -0.012238
0.465339 0.093272 0.036137
0.465339 -0.000064 0.092880
0.465339 0.023056 0.073923
0.465339 -0.086034 -0.011720
0.465339 0.036895 0.069521
0.465339 -0.046308 -0.007522
0.465339 0.028864 -0.085824
0.465339 -0.012108 -0.037462
0.465339 -0.050890 -0.005399
0.465339 -0.075355 0.007201
0.465339 0.070974 0.048185
0.465339 0.046950 -0.024811
0.465339 0.068157 0.012596
0.465339 -0.026078 -0.024504
0.465339 0.086649 -0.045662
0.465339 0.089424 -0.038819
0.465339 0.045943 0.034470
0.465339 0.041028 -0.004572
0.465339 0.052295 -0.040278
0.465339 0.075498 0.005344
0.465339 -0.090248 -0.040330
0.465339 -0.021382 -0.018625
0.465339 -0.032246 0.091754
0.465339 0.040430 0.022845
0.465339 0.002575 -0.026013
0.465339 -0.030751 -0.044158
0.465339 -0.027252 0.074456
0.465339 -0.026969 -0.019395
0.465339 -0.051405 -0.065278
0.465339 0.021774 -0.016793
0.465339 0.002334 0.068210
0.465339 0.053358 -0.048196
0.465339 0.028558 -0.051570
0.465339 -0.031311 0.055840
0.465339 0.008407 -0.008658
0.465339 -0.016283 -0.052171
0.465339 0.080606 0.006746
0.465339 0.011462 0.074151
0.465339 0.097026 0.002287
0.465339 0.019406 0.066483
0.465339 -0.062101 0.005750
0.465339 0.038054 -0.000427
0.465339 0.082674 -0.055333
0.465339 -0.027154 -0.009869
0.465339 0.090173 0.039044
0.465339 -0.005136 0.037782
0.465339 0.044375 -0.003291
0.465339 0.054735 -0.061673
0.465339 0.015313 0.098646
0.465339 0.030695 0.030724
0.465339 0.056739 0.044289
0.465339 -0.052359 -0.007030
0.465339 0.063214 -0.006707
0.465339 0.016996 -0.061650
0.465339 -0.008678 -0.027265
0.465339 -0.079048 0.027216
0.465339 0.008702 0.053064
0.465339 -0.073531 -0.004096
0.465339 -0.035471 0.083075
0.465339 0.022528 0.066224
0.465339 -0.035626 0.033294
0.465339 0.019674 0.043922
0.465339 0.094951 0.004645
0.465339 -0.042933 0.039617
0.465339 0.014155 0.080327
0.465339 0.076539 -0.054811
0.465339 0.063788 -0.059359
0.465339 0.008454 -0.076027
0.465339 0.037881 0.023066
0.465339 0.027920 0.002218
0.465339 -0.013441 0.075664
0.465339 -0.040229 -0.083372
0.465339 -0.035639 0.078925
0.465339 -0.045660 -0.056860
0.465339 0.078239 0.045066
0.465339 0.006863 -0.001219
0.465339 0.007318 0.062294
0.465339 -0.049910 -0.047159
0.465339 -0.067400 -0.045447
0.465339 0.079836 0.014939
0.465339 0.071128 -0.039776
0.465339 -0.027295 -0.038226
0.465339 -0.075484 0.064959
0.465339 -0.009581 0.082857
0.465339 -0.026081 0.002331
0.465339 0.034431 0.040817
0.465339 0.081002 0.030551
0.465339 0.085841 0.045730
0.465339 -0.006044 0.084586
0.465339 0.039348 -0.010556
0.465339 0.082668 0.019953
0.465339 -0.066129 -0.006973
0.465339 -0.060242 0.029660
0.465339 0.016076 -0.021462
0.465339 -0.027057 0.045834
0.465339 0.014650 -0.021750
0.465339 -0.072487 0.024019
0.465339 -0.033412 0.069082
0.465339 -0.039382 0.083669
0.465339 0.037823 0.011229
0.465339 0.001794 -0.051049
0.465339 -0.031854 -0.063301
0.465339 0.001312 -0.002540
0.465339 0.030185 0.047009
0.465339 -0.070778 -0.013664
0.465339 0.086319 -0.021035
0.465339 -0.063551 0.033941
0.465339 0.089065 0.044740
0.465339 0.074124 -0.012858
0.465339 -0.011115 -0.071323
0.465339 -0.030246 -0.092908
0.465339 0.000919 -0.083265
0.465339 0.037338 0.077047
0.465339 0.034909 -0.017347
0.465339 0.080061 -0.051098
0.465339 0.040624 -0.045445
0.465339 -0.029415 0.063042
0.465339 -0.042303 -0.000156
0.465339 -0.021195 -0.050433
0.465339 0.037348 -0.061632
0.465339 0.068423 0.017787
0.465339 0.027807 -0.087827
0.465339 0.057008 0.000521
0.465339 0.082421 -0.042388
0.465339 -0.028993 -0.027577
0.465339 -0.080398 0.012215
0.465339 0.006631 0.098757
0.465339 -0.025545 0.053341
0.465339 0.033518 -0.031155
0.465339 0.005455 0.065687
0.465339 -0.015320 0.070857
0.465339 0.078579 0.023799
0.465339 0.016789 -0.041913
0.465339 0.009583 -0.040354
0.465339 -0.015059 -0.084149
0.465339 0.064707 0.006149
0.465339 -0.092823 -0.035542
0.465339 0.048352 -0.049661
0.465339 0.076689 -0.036283
0.465339 -0.078916 0.020481
0.465339 0.035580 0.063622
0.465339 -0.018577 -0.001823
0.465339 -0.086832 -0.022663
0.465339 -0.009327 -0.052915
0.465339 -0.051942 0.014903
0.465339 -0.089554 0.038186
0.465339 -0.024658 0.022061
0.465339 0.013679 0.027964
0.465339 -0.031666 0.052123
0.465339 -0.011918 0.009505
0.465339 -0.054637 -0.061432
0.465339 -0.078395 0.028444
0.465339 -0.002986 -0.083134
0.465339 -0.080905 -0.055992
0.465339 0.029040 -0.048258
0.465339 -0.019196 0.061788
0.465339 -0.010742 -0.008632
0.465339 -0.073025 0.059318
0.465339 -0.011554 -0.004810
0.465339 0.087455 0.017401
0.465339 -0.019060 0.016258
0.465339 -0.032038 -0.053732
0.465339 0.075470 -0.007281
0.465339 -0.011818 0.056657
0.465339 -0.028942 -0.064996
0.465339 -0.015273 -0.009922
0.465339 0.040952 -0.039068
0.465339 0.019574 0.088865
0.465339 0.029887 0.091651
0.465339 -0.027049 0.066595
0.465339 0.014596 0.014138
0.465339 0.060228 0.010916
0.465339 0.025649 -0.065002
0.465339 0.019967 -0.074364
0.465339 -0.039773 0.049309
0.465339 0.048323 0.083326
0.465339 -0.026175 -0.085593
0.465339 -0.047580 -0.023167
0.465339 0.060409 -0.036289
0.465339 0.020186 -0.091560
0.465339 0.071439 0.015486
0.465339 0.001405 -0.008334
0.465339 -0.005947 0.052960
0.465339 -0.071787 0.003815
0.465339 0.051067 -0.028457
0.465339 0.051573 -0.064734
0.465339 -0.007169 0.080004
0.465339 0.047186 0.076169
0.465339 0.059397 0.020168
0.465339 0.002715 -0.069630
0.465339 0.052953 0.048538
0.465339 -0.055773 0.011889
0.465339 -0.029564 0.095250
