-0.466955 0.024127 0.055173
-0.466955 -0.067041 -0.043594
-0.466955 -0.050987 0.085727
-0.466955 0.024786 -0.084977
-0.466955 0.013562 -0.097769
-0.466955 0.039714 0.003133
-0.466955 -0.007694 -0.002079
-0.466955 0.065219 0.012387
-0.466955 -0.070051 -0.009862
-0.466955 0.085812 -0.046122
-0.466955 0.070062 0.003111
-0.466955 0.099254 0.000328
-0.466955 -0.068505 -0.008400
-0.466955 -0.042273 -0.025637
-0.466955 0.009692 0.005360
-0.466955 0.040646 0.015538
-0.466955 0.046866 -0.053929
-0.466955 0.020954 -0.023102
-0.466955 0.007661 -0.085496
-0.466955 0.015055 0.096036
-0.466955 -0.007766 0.028069
-0.466955 0.005301 -0.033481
-0.466955 0.019145 -0.033286
-0.466955 -0.045828 0.015597
-0.466955 0.042156 -0.019034
-0.466955 0.012583 0.093944
-0.466955 -0.090703 -0.037269
-0.466955 -0.028792 -0.078760
-0.466955 0.015081 -0.050301
-0.466955 -0.072134 0.023134
-0.466955 -0.052652 -0.062863
-0.466955 -0.010431 -0.089198
-0.466955 -0.020410 -0.032246
-0.466955 -0.071096 0.039687
-0.466955 0.033468 0.052036
-0.466955 0.097362 0.003504
-0.466955 0.039883 0.021797
-0.466955 -0.082545 0.043667
-0.466955 0.097522 -0.020335
-0.466955 -0.089671 0.043485
-0.466955 0.095157 0.008904
-0.466955 -0.053505 0.080613
-0.466955 0.037304 0.077922
-0.466955 0.030928 -0.001576
-0.466955 0.002981 0.078652
-0.466955 -0.023480 0.013262
-0.466955 0.025475 -0.090867
-0.466955 -0.012075 -0.092647
-0.466955 0.051464 0.042664
-0.466955 0.029121 -0.084359
-0.466955 -0.077515 0.026724
-0.466955 -0.024667 -0.029396
-0.466955 0.033340 0.063531
-0.466955 -0.077667 0.016648
-0.466955 0.027194 -0.013382
-0.466955 -0.065543 -0.006009
-0.466955 0.055504 0.048874
-0.466955 0.067430 -0.003025
-0.466955 0.013532 0.054797
-0.466955 0.048200 -0.052544
-0.466955 0.068170 0.005770
-0.466955 -0.039327 -0.056973
-0.466955 0.008103 0.061705
-0.466955 0.049320 0.008537
-0.466955 0.040206 0.086768
-0.466955 -0.074284 0.061806
-0.466955 -0.087633 -0.039705
-0.466955 -0.083123 0.018251
-0.466955 -0.025026 0.091423
-0.466955 0.055215 0.026972
-0.466955 0.036372 -0.065948
-0.466955 -0.033591 0.033924
-0.466955 0.007757 0.065842
-0.466955 0.024985 -0.069498
-0.466955 -0.090378 -0.030655
-0.466955 0.018880 0.038351
-0.466955 -0.049580 -0.065018
-0.466955 0.065673 0.008118
-0.466955 0.028904 0.052594
-0.466955 -0.065300 0.026315
-0.466955 0.022709 0.001362
-0.466955 -0.033204 -0.072704
-0.466955 0.016036 0.075132
-0.466955 0.033681 -0.067797
-0.466955 -0.093885 0.015635
-0.466955 -0.050890 0.050631
-0.466955 -0.088934 0.039122
-0.466955 0.009853 0.022309
-0.466955 -0.032698 -0.082625
-0.466955 0.056249 0.015371
-0.466955 0.004982 0.074284
-0.466955 0.003725 0.095157
-0.466955 0.049006 0.020968
-0.466955 0.073501 0.019274
-0.466955 -0.071757 0.045436
-0.466955 0.066508 -0.071917
-0.466955 0.005938 0.041460
-0.466955 0.078097 -0.000017
-0.466955 -0.092821 -0.007102
-0.466955 -0.010715 -0.017380
-0.466955 -0.004097 -0.001411
-0.466955 0.082144 0.009973
-0.466955 -0.091873 0.020792
-0.466955 -0.037268 0.034878
-0.466955 0.047405 0.055098
-0.466955 -0.020529 0.006638
-0.466955 -0.017870 -0.012917
-0.466955 -0.067518 -0.048320
-0.466955 -0.063741 0.036191
-0.466955 -0.092683 0.029823
-0.466955 0.000722 0.017284
-0.466955 -0.002913 0.091116
-0.466955 -0.050660 -0.050841
-0.466955 0.074074 -0.001063
-0.466955 -0.092597 0.012507
-0.466955 -0.001973 0.055490
-0.466955 -0.062529 0.053291
-0.466955 0.020687 -0.072147
-0.466955 -0.025018 -0.076937
-0.466955 0.012564 0.071217
-0.466955 -0.049688 0.008079
-0.466955 0.039447 -0.002326
-0.466955 0.035005 -0.046085
-0.466955 -0.072411 -0.038186
-0.466955 -0.064737 0.040621
-0.466955 0.057402 0.014463
-0.466955 -0.003918 0.002790
-0.466955 -0.091334 0.007801
-0.466955 0.036339 0.042502
-0.466955 0.054891 -0.001078
-0.466955 0.016130 -0.047306
-0.466955 -0.008286 0.018936
-0.466955 -0.035273 -0.065883
-0.466955 0.004254 0.040763
-0.466955 -0.015762 -0.077379
-0.466955 -0.041907 0.069447
-0.466955 -0.008433 0.075094
-0.466955 0.029718 0.086460
-0.466955 0.063865 0.016361
-0.466955 -0.003722 -0.004938
-0.466955 0.082239 -0.013611
-0.466955 -0.022532 0.071210
-0.466955 -0.008611 0.047400
-0.466955 0.072068 -0.056557
-0.466955 -0.057625 0.053026
-0.466955 -0.043786 0.063385
-0.466955 -0.082662 -0.051901
-0.466955 0.050334 0.020027
-0.466955 -0.057881 -0.044450
-0.466955 -0.053417 0.052873
-0.466955 0.068936 0.044447
-0.466955 0.000467 0.094970
-0.466955 0.001065 -0.044822
-0.466955 -0.048478 0.035359
-0.466955 0.009283 0.026122
-0.466955 -0.026159 -0.045743
-0.466955 0.060784 -0.049151
-0.466955 0.027312 0.046822
-0.466955 -0.002401 0.030363
-0.466955 -0.004068 -0.030225
-0.466955 -0.041602 -0.015930
-0.466955 -0.071583 0.057967
-0.466955 0.010052 0.028996
-0.466955 0.041668 -0.083441
-0.466955 0.065782 -0.022354
-0.466955 0.048389 0.003141
-0.466955 -0.051208 0.016488
-0.466955 0.032434 0.094448
-0.466955 0.083691 0.044545
-0.466955 0.033722 0.093258
-0.466955 0.077919 -0.021826
-0.466955 0.017334 0.022350
-0.466955 -0.044112 -0.018086
-0.466955 0.076233 0.040476
-0.466955 0.020863 0.016514
-0.466955 0.057476 0.059355
-0.466955 0.022972 -0.078972
-0.466955 -0.030234 -0.087983
-0.466955 -0.026400 0.074583
-0.466955 -0.027512 -0.022873
-0.466955 -0.045928 -0.006136
-0.466955 -0.025363 -0.067747
-0.466955 0.001907 0.085904
-0.466955 0.063444 0.075956
-0.466955 0.084577 0.040675
-0.466955 0.004162 0.059259
-0.466955 0.064623 0.053983
-0.466955 0.008905 0.063533
-0.466955 -0.042002 -0.066831
-0.466955 -0.044801 0.083830
-0.466955 -0.036122 -0.068925
-0.466955 0.031072 -0.041297
-0.466955 -0.043574 0.081234
-0.466955 -0.005783 0.080388
-0.466955 0.038027 -0.063335
-0.466955 -0.011094 -0.087608
-0.466955 -0.082452 -0.035157
-0.466955 -0.068878 -0.043339
-0.466955 -0.065014 -0.065986
-0.466955 0.008277 -0.045295
-0.466955 -0.006432 -0.017630
-0.466955 -0.000674 -0.010218
-0.466955 -0.093157 -0.001196
-0.466955 0.019555 0.053925
-0.466955 0.069665 -0.056293
-0.466955 -0.058997 0.053080
-0.466955 -0.003080 -0.050949
-0.466955 0.053572 0.048397
-0.466955 -0.006580 -0.087524
-0.466955 0.029804 0.071381
-0.466955 -0.044834 0.082303
-0.466955 0.029269 0.055254
-0.466955 0.075408 -0.045968
-0.466955 -0.021474 0.020354
-0.466955 -0.043347 0.073037
-0.466955 0.001695 -0.073622
-0.466955 -0.046240 -0.031670
-0.466955 -0.068743 0.051524
-0.466955 -0.002379 -0.040702
-0.466955 -0.058133 0.076679
-0.466955 -0.070996 0.020731
-0.466955 0.053771 0.071450
-0.466955 -0.030239 -0.034337
-0.466955 -0.018010 -0.064946
-0.466955 -0.021825 0.008377
-0.466955 0.050266 -0.051866
-0.466955 -0.042012 -0.012989
-0.466955 -0.009474 0.006533
-0.466955 -0.050623 -0.068900
-0.466955 -0.025462 -0.020576
-0.466955 -0.045756 -0.057063
-0.466955 -0.078960 -0.040081
-0.466955 0.045485 0.035704
-0.466955 0.067084 0.008247
-0.466955 0.067740 0.020109
-0.466955 -0.000323 -0.022770
-0.466955 -0.048098 -0.061019
-0.466955 0.046809 -0.083594
-0.466955 -0.007488 0.086011
-0.466955 -0.040887 -0.069434
-0.466955 0.083471 0.003061
-0.466955 -0.043358 -0.016744
-0.466955 0.021336 -0.041817
-0.466955 -0.041977 0.002150
-0.466955 0.035565 0.004442
-0.466955 0.044605 -0.063513
-0.466955 -0.050923 0.013252
-0.466955 0.013158 -0.053630
-0.466955 -0.085602 -0.006270
-0.466955 0.081292 0.026816
-0.466955 -0.026419 -0.036374
-0.466955 0.041722 -0.076543
-0.466955 0.028930 -0.023377
-0.466955 0.074223 0.052500
-0.466955 0.066188 0.000647
-0.466955 -0.070162 -0.002864
-0.466955 -0.026898 -0.037820
-0.466955 -0.078676 0.011632
-0.466955 0.016921 0.058648
-0.466955 0.070651 0.014020
-0.466955 0.067647 0.037476
-0.466955 0.012359 0.010320
-0.466955 -0.036500 0.023922
-0.466955 -0.019111 0.055849
-0.466955 0.078698 0.015730
-0.466955 0.099237 -0.009840
-0.466955 -0.083021 0.006806
-0.466955 -0.024495 -0.044994
-0.466955 -0.094030 0.012423
-0.466955 -0.049551 0.062497
-0.466955 0.005229 0.023543
-0.466955 0.082370 -0.042914
-0.466955 -0.018470 -0.034265
-0.466955 -0.033480 0.088867
-0.466955 -0.014166 -0.083327
-0.466955 0.017804 0.083314
-0.466955 -0.014254 -0.037698
-0.466955 0.051407 -0.001864
-0.466955 0.059318 -0.079869
-0.466955 0.021410 -0.087256
-0.466955 0.057934 -0.000582
-0.466955 0.020358 0.040724
-0.466955 0.050449 -0.018613
-0.466955 -0.015918 0.057512
-0.466955 -0.006239 0.041202
-0.466955 -0.053526 -0.047299
-0.466955 0.083389 -0.019273
-0.466955 -0.052753 0.084514
-0.466955 -0.048503 -0.048450
-0.466955 -0.057037 0.025568
-0.466955 -0.045074 -0.079479
-0.466955 0.000023 0.035135
-0.466955 0.048323 -0.026064
-0.466955 -0.020756 0.047640
-0.466955 0.069201 -0.012461
-0.466955 -0.031602 -0.046767
-0.466955 0.010994 0.030705
-0.466955 0.045442 -0.014495
-0.466955 -0.052674 -0.018520
-0.466955 0.002701 0.069737
-0.466955 -0.048152 0.067234
-0.466955 -0.062489 -0.037453
-0.466955 -0.022604 -0.050671
-0.466955 -0.022635 0.094164
-0.466955 0.027638 -0.019141
-0.466955 -0.050088 0.074769
-0.466955 -0.038725 0.006838
-0.466955 0.003620 -0.060277
-0.466955 -0.081612 -0.031559
-0.466955 0.012062 -0.060459
-0.466955 0.092422 -0.013530
-0.466955 0.073848 -0.038693
-0.466955 0.034237 0.073186
-0.466955 0.085506 0.041813
-0.466955 -0.028721 0.028198
-0.466955 0.090097 0.006931
-0.466955 0.085969 0.013914
-0.466955 0.068795 -0.004206
-0.466955 -0.016773 -0.020744
-0.466955 0.036068 0.054742
-0.466955 0.058257 0.071963
-0.466955 0.007974 -0.026159
-0.466955 0.049156 0.010049
-0.466955 0.019430 0.056124
-0.466955 -0.000501 0.026682
-0.466955 -0.044438 0.000311
-0.466955 0.046344 -0.074263
-0.466955 0.024064 0.033350
-0.466955 0.007289 0.012095
-0.466955 -0.082079 0.024669
-0.466955 -0.057805 0.073952
-0.466955 -0.011802 -0.060525
-0.466955 0.013761 -0.055497
-0.466955 0.079929 -0.049711
-0.466955 -0.021393 -0.004153
-0.466955 -0.030036 0.061954
-0.466955 0.045269 0.074889
-0.466955 0.071921 0.029703
-0.466955 -0.052626 0.033645
-0.466955 -0.009149 0.061874
-0.466955 0.030361 0.063135
-0.466955 0.069097 0.070212
-0.466955 0.016786 0.069066
-0.466955 -0.061846 -0.023109
-0.466955 0.032830 0.086801
-0.466955 -0.046793 0.086567
-0.466955 0.025810 0.069758
-0.466955 -0.001785 -0.034287
-0.466955 -0.012453 0.013123
-0.466955 -0.080173 -0.025471
-0.466955 0.022378 0.037514
-0.466955 -0.049926 -0.043305
-0.466955 0.065522 0.066025
-0.466955 -0.094860 0.003382
-0.466955 0.024322 0.050223
-0.466955 -0.027585 -0.001766
-0.466955 0.053057 -0.028026
-0.466955 -0.009482 0.000552
-0.466955 0.036820 -0.062410
-0.466955 -0.052406 -0.034780
-0.466955 0.054907 0.073573
-0.466955 -0.054640 0.016075
-0.466955 -0.025128 -0.004744
-0.466955 0.046903 -0.027315
-0.466955 -0.059248 0.047604
-0.466955 -0.074627 0.004888
-0.466955 0.082996 -0.055185
-0.466955 0.049786 -0.053350
-0.466955 -0.008466 -0.007012
-0.466955 -0.055723 0.048101
-0.466955 -0.026243 -0.042222
-0.466955 0.025353 -0.027659
-0.466955 -0.088983 -0.020576
-0.466955 0.049237 0.040361
-0.466955 -0.055771 -0.000389
-0.466955 0.094614 0.023367
-0.466955 -0.006721 -0.056192
-0.466955 -0.003287 -0.083843
-0.466955 0.001331 -0.095619
-0.466955 -0.001052 -0.067820
-0.466955 -0.005221 0.000331
-0.466955 0.060632 -0.004315
-0.466955 0.087007 -0.019582
-0.466955 -0.022932 0.080724
-0.466955 -0.002759 0.036378
-0.466955 0.036001 -0.032051
-0.466955 0.020784 0.008479
-0.466955 -0.073056 -0.054749
-0.466955 0.053694 -0.038188
-0.466955 -0.059853 -0.014659
-0.466955 -0.006980 0.061509
-0.466955 -0.071642 -0.003809
-0.466955 -0.013855 0.088342
-0.466955 0.002392 -0.048528
-0.466955 0.043644 0.054212
-0.466955 0.037949 -0.036044
-0.466955 0.055761 0.083015
-0.466955 0.026128 -0.002404
-0.466955 0.089166 0.003499
-0.466955 0.072414 -0.008852
-0.466955 -0.017603 0.058632
-0.466955 0.049194 0.015607
-0.466955 -0.035140 0.010358
-0.466955 -0.019747 -0.036663
-0.466955 0.051253 0.031354
-0.466955 -0.050934 0.004728
-0.466955 0.085408 -0.005863
-0.466955 -0.028623 -0.075239
-0.466955 -0.011351 0.092237
-0.466955 -0.000692 -0.024156
-0.466955 0.060781 0.060496
-0.466955 0.064772 0.055456
-0.466955 -0.034503 0.070462
-0.466955 0.091140 -0.002720
-0.466955 0.085173 -0.009545
-0.466955 0.043419 0.003857
-0.466955 0.003975 0.026748
-0.466955 0.065011 -0.030361
-0.466955 -0.022103 -0.005765
-0.466955 -0.016555 -0.023960
-0.466955 0.048191 -0.032634
-0.466955 -0.092383 -0.019271
-0.466955 -0.056599 -0.001559
-0.466955 0.013268 -0.044425
-0.466955 0.039816 -0.028057
-0.466955 0.009233 -0.006021
-0.466955 0.035761 -0.093061
-0.466955 0.023031 0.034309
-0.466955 0.045918 -0.051038
-0.466955 0.040950 -0.073583
-0.466955 -0.050850 -0.003425
-0.466955 0.038418 -0.088793
-0.466955 -0.057540 0.026825
-0.466955 0.045123 -0.047888
-0.466955 -0.029580 -0.066237
-0.466955 -0.045839 -0.045904
-0.466955 0.040420 -0.005476
-0.466955 0.031940 0.033969
-0.466955 -0.009714 0.059774
-0.466955 0.023488 0.053813
-0.466955 0.004702 0.011629
-0.466955 0.035366 0.000274
-0.466955 0.073970 -0.026589
-0.466955 0.006530 0.046312
-0.466955 -0.038070 -0.055109
-0.466955 -0.022546 -0.060957
-0.466955 0.080053 0.003800
-0.466955 -0.028350 0.080253
-0.466955 0.024982 -0.038930
-0.466955 0.028678 0.082290
-0.466955 -0.046930 -0.050792
-0.466955 -0.061620 0.012261
-0.466955 -0.011864 0.053699
-0.466955 0.012127 0.081642
-0.466955 0.055789 -0.045551
-0.466955 0.031858 -0.059788
-0.466955 0.071689 -0.059911
-0.466955 -0.053143 0.028408
-0.466955 -0.045818 0.072362
-0.466955 0.001584 0.047048
-0.466955 -0.018559 0.045322
-0.466955 0.052675 0.077345
-0.466955 0.022877 0.077979
-0.466955 -0.096749 0.004865
-0.466955 -0.080356 -0.029994
-0.466955 0.039290 0.078341
-0.466955 -0.057948 -0.056267
-0.466955 0.056034 0.070190
-0.466955 0.020150 0.082061
-0.466955 -0.005025 0.083876
-0.466955 0.072621 0.021066
-0.466955 -0.076978 -0.030608
-0.466955 0.084541 0.001171
-0.466955 0.093764 -0.026651
-0.466955 0.043890 0.069463
-0.466955 -0.054823 0.063264
-0.466955 -0.080989 -0.011326
-0.466955 0.084542 0.026099
-0.466955 -0.089942 -0.039599
-0.466955 -0.045438 0.048949
-0.466955 -0.096107 -0.012481
-0.466955 0.014825 -0.039952
-0.466955 -0.018585 0.096022
-0.466955 -0.089652 0.008978
-0.466955 0.023569 0.046450
-0.466955 -0.029019 0.013401
-0.466955 -0.090110 0.006982
-0.466955 -0.012457 0.072934
-0.466955 -0.037339 0.014184
-0.466955 -0.062614 0.050000
-0.466955 0.024533 0.096086
-0.466955 -0.082630 0.029705
-0.466955 0.062248 -0.003761
-0.466955 -0.014784 0.030632
-0.466955 -0.038407 -0.052789
-0.466955 -0.046050 0.008106
-0.466955 -0.039924 -0.016742
-0.466955 -0.086771 0.018157
-0.466955 -0.063298 0.061059
-0.466955 -0.016660 0.080248
-0.466955 -0.055341 -0.004021
-0.466955 0.076346 0.023713
-0.466955 0.060177 -0.033141
-0.466955 0.008830 -0.088976
-0.466955 0.030887 0.074133
-0.466955 0.002968 0.039220
-0.466955 0.026744 -0.054010
-0.466955 0.000716 0.073826
-0.466955 0.057227 -0.002860
-0.466955 0.027650 0.069214
-0.466955 0.047090 -0.085364
-0.466955 0.000736 0.084898
-0.466955 0.049846 -0.016830
-0.466955 -0.014855 -0.059321
-0.466955 0.049619 -0.086269
-0.466955 0.033738 -0.083575
-0.466955 -0.070187 -0.039532
-0.466955 0.040528 0.030630
-0.466955 0.004128 0.048687
-0.466955 -0.001869 -0.022835
-0.466955 0.064414 0.032512
-0.466955 0.041705 -0.080229
-0.466955 0.083912 -0.000314
-0.466955 -0.005280 0.089612
-0.466955 -0.050191 -0.058112
-0.466955 -0.047091 -0.046783
-0.466955 0.024268 -0.028873
-0.466955 0.080013 0.010141
-0.466955 -0.057018 0.013684
-0.466955 -0.068694 0.070436
-0.466955 -0.078164 -0.009222
-0.466955 -0.004021 0.052904
-0.466955 -0.063910 -0.073710
-0.466955 -0.025214 -0.090290
-0.466955 -0.049740 -0.027519
-0.466955 0.003616 -0.073433
-0.466955 0.016647 0.065990
-0.466955 -0.050738 -0.024289
-0.466955 -0.015755 0.002895
-0.466955 0.030538 -0.063327
-0.466955 0.074302 0.013606
-0.466955 0.079462 0.053509
-0.466955 0.089701 -0.010301
-0.466955 -0.020258 0.069262
-0.466955 0.054234 0.083644
-0.466955 0.035716 0.073092
-0.466955 0.065422 0.048316
-0.466955 -0.047786 -0.043356
-0.466955 -0.048530 -0.050539
-0.466955 -0.027460 0.071391
-0.466955 0.066119 0.029727
-0.466955 -0.002479 -0.069485
-0.466955 0.040868 -0.003899
-0.466955 0.054265 -0.026951
-0.466955 -0.026249 -0.009867
-0.466955 0.015264 0.025269
-0.466955 -0.027864 -0.095351
-0.466955 0.018361 0.048046
-0.466955 -0.024905 0.024697
-0.466955 -0.003725 -0.028725
-0.466955 -0.046497 -0.048424
-0.466955 -0.022970 -0.018478
-0.466955 -0.034302 -0.012721
-0.466955 0.049132 -0.022664
-0.466955 0.034698 0.036059
-0.466955 -0.060534 0.067629
-0.466955 0.030542 0.002349
-0.466955 -0.060655 -0.076262
-0.466955 -0.024380 0.067230
-0.466955 0.003520 -0.064146
-0.466955 -0.050761 0.002893
-0.466955 -0.043777 0.008547
-0.466955 -0.068665 -0.009864
-0.466955 0.017692 -0.047875
-0.466955 0.046864 -0.066534
-0.466955 -0.016262 -0.072940
-0.466955 0.009986 -0.057485
-0.466955 0.041633 -0.084872
-0.466955 0.015241 0.098804
-0.466955 -0.080541 -0.041438
-0.466955 0.053639 0.059241
-0.466955 0.093614 0.000365
-0.466955 -0.030411 0.012370
-0.466955 0.001376 0.050119
-0.466955 0.089066 -0.036300
-0.466955 0.052268 -0.046603
-0.466955 -0.034022 -0.004345
-0.466955 -0.032302 0.011809
-0.466955 -0.034020 0.011123
-0.466955 0.089816 0.038388
-0.466955 -0.066357 -0.064899
-0.466955 0.052721 -0.042489
-0.466955 -0.085614 0.021575
-0.466955 -0.026247 0.012507
-0.466955 0.093878 -0.012256
-0.466955 0.015601 0.012824
-0.466955 -0.035505 0.000065
-0.466955 -0.075343 -0.005450
-0.466955 0.055126 0.050491
-0.466955 -0.072977 0.038456
-0.466955 0.016161 -0.067170
-0.466955 0.033134 -0.093733
-0.466955 -0.068836 -0.006960
-0.466955 0.011962 0.045426
-0.466955 -0.050514 -0.006783
-0.466955 0.009300 -0.097146
-0.466955 0.002857 0.091528
-0.466955 0.037235 -0.015703
-0.466955 0.058655 0.038271
-0.466955 -0.023005 -0.091806
-0.466955 0.063705 -0.008322
-0.466955 -0.030092 0.064673
-0.466955 -0.045814 -0.064093
-0.466955 -0.084986 -0.017916
-0.466955 0.001982 0.059924
-0.466955 0.062243 0.043143
-0.466955 -0.009987 -0.044891
-0.466955 0.032790 -0.042351
-0.466955 -0.024156 0.087784
-0.466955 -0.032207 0.074064
-0.466955 0.087187 -0.045465
-0.466955 -0.033073 -0.084271
-0.466955 0.012210 0.048649
-0.466955 0.092838 0.031163
-0.466955 0.064772 0.025081
-0.466955 -0.022897 -0.003280
-0.466955 0.009223 -0.002155
-0.466955 -0.071068 0.003675
-0.466955 -0.030347 -0.053825
-0.466955 -0.018802 -0.026250
-0.466955 -0.031038 0.074750
-0.466955 -0.087355 0.043345
-0.466955 0.081024 -0.044269
-0.466955 0.054755 -0.015743
-0.466955 0.083146 -0.008566
-0.466955 0.006529 -0.069879
-0.466955 0.079536 0.039324
-0.466955 0.086279 0.044095
-0.466955 0.051622 -0.014166
-0.466955 -0.042659 0.057172
-0.466955 0.038365 -0.069544
-0.466955 -0.003616 0.023070
-0.466955 -0.090915 0.011505
-0.466955 -0.077590 -0.022092
-0.466955 0.009903 -0.003527
-0.466955 -0.031790 0.051507
-0.466955 0.080339 0.058216
-0.466955 -0.013925 0.044662
-0.466955 0.062435 0.022124
-0.466955 -0.004113 -0.022412
-0.466955 0.039830 0.074873
-0.466955 -0.002942 0.034882
-0.466955 -0.042946 -0.068153
-0.466955 -0.041213 0.067211
-0.466955 0.095076 -0.022607
-0.466955 0.027126 -0.020735
-0.466955 -0.090474 -0.008184
-0.466955 -0.020859 0.073870
-0.466955 -0.043774 -0.066969
-0.466955 0.010937 -0.006248
-0.466955 -0.065130 0.046955
-0.466955 -0.082218 -0.038757
-0.466955 0.063417 -0.024578
-0.466955 -0.052295 0.072860
-0.466955 0.069855 -0.008291
-0.466955 0.053299 0.051370
-0.466955 -0.053391 -0.048765
-0.466955 -0.014710 -0.072719
-0.466955 -0.001878 -0.084606
-0.466955 -0.052263 0.002191
-0.466955 -0.055045 0.046470
-0.466955 0.071388 -0.069162
-0.466955 0.050444 -0.011312
-0.466955 -0.002864 -0.092258
-0.466955 -0.016560 -0.055270
-0.466955 -0.047010 0.052192
-0.466955 -0.054747 -0.070173
-0.466955 0.056614 0.044982
-0.466955 -0.083186 -0.023863
-0.466955 0.030193 -0.078143
-0.466955 0.017904 -0.083418
-0.466955 -0.034516 0.005751
-0.466955 -0.080251 -0.043392
-0.466955 0.040002 0.027759
-0.466955 0.053410 0.021462
-0.466955 -0.013617 -0.021215
-0.466955 -0.034692 0.072281
-0.466955 -0.060363 0.065657
-0.466955 0.032671 0.072836
-0.466955 0.021855 0.029716
-0.466955 -0.010344 -0.085484
-0.466955 -0.025915 -0.035000
-0.466955 0.039032 0.014337
-0.466955 0.077900 0.007177
-0.466955 -0.043108 0.011669
-0.466955 0.055448 0.068716
-0.466955 0.080771 -0.046544
-0.466955 -0.060201 0.050860
-0.466955 0.034769 0.025260
-0.466955 0.080982 -0.007704
-0.466955 -0.078614 0.000226
-0.466955 0.033141 0.029663
-0.466955 -0.049370 -0.052053
-0.466955 0.060533 0.046401
-0.466955 -0.041482 -0.086227
-0.466955 -0.016832 0.023927
-0.466955 -0.030912 0.002636
-0.466955 -0.041479 0.063864
-0.466955 -0.036073 0.093196
-0.466955 -0.032743 -0.023395
-0.466955 -0.030598 0.087703
-0.466955 0.007223 -0.039517
-0.466955 -0.050119 -0.022873
-0.466955 -0.035165 -0.086114
-0.466955 -0.080851 -0.052281
-0.466955 -0.033997 0.001891
-0.466955 0.020032 -0.091932
-0.466955 0.085205 -0.051902
-0.466955 0.032113 -0.028831
-0.466955 0.005813 -0.010407
-0.466955 0.084688 0.034959
-0.466955 -0.038727 0.068920
-0.466955 -0.034431 -0.038621
-0.466955 0.046941 -0.000097
-0.466955 -0.007148 0.043357
-0.466955 0.026765 -0.079032
-0.466955 -0.000214 -0.037767
-0.466955 -0.016929 -0.000123
-0.466955 -0.070724 -0.006586
-0.466955 -0.023401 0.082188
-0.466955 -0.027390 -0.011055
-0.466955 -0.000706 0.013526
-0.466955 -0.034707 0.003870
-0.466955 -0.014964 -0.081785
-0.466955 0.030127 0.015559
-0.466955 0.089917 -0.021645
-0.466955 0.038501 0.089780
-0.466955 0.055055 -0.054533
-0.466955 0.036282 0.031905
-0.466955 0.078080 -0.030910
-0.466955 -0.009117 -0.041755
-0.466955 -0.071654 -0.047753
-0.466955 -0.063830 0.009322
-0.466955 -0.034184 -0.085065
-0.466955 -0.098074 0.010415
-0.466955 -0.048444 0.048768
-0.466955 -0.004385 0.009920
-0.466955 -0.054705 0.031949
-0.466955 0.054504 0.032653
-0.466955 0.020017 0.071609
-0.466955 0.079844 -0.015286
-0.466955 -0.067542 -0.014920
-0.466955 -0.076508 -0.012214
-0.466955 0.047871 0.025450
-0.466955 0.089382 -0.007642
-0.466955 -0.011743 0.074554
-0.466955 0.077552 0.059232
-0.466955 0.077316 -0.058462
-0.466955 -0.085424 0.001239
-0.466955 0.027033 0.048406
-0.466955 0.013082 0.031220
-0.466955 0.057763 -0.019441
-0.466955 0.085945 -0.016709
-0.466955 0.017902 -0.085018
-0.466955 0.070632 -0.051642
-0.466955 -0.002679 -0.055672
-0.466955 0.028820 -0.037307
-0.466955 0.004605 0.020172
-0.466955 -0.030176 -0.047642
-0.466955 0.025230 -0.046939
-0.466955 -0.029698 0.067264
-0.466955 0.082479 -0.044586
-0.466955 0.025432 -0.092613
-0.466955 0.066720 0.064822
-0.466955 0.017258 -0.027922
-0.466955 0.016427 0.036719
-0.466955 -0.078398 0.042429
-0.466955 -0.003768 0.040974
-0.466955 -0.080729 -0.004391
-0.466955 0.029325 -0.000957
-0.466955 -0.045121 0.003157
-0.466955 0.054696 -0.080152
-0.466955 -0.025541 0.006344
-0.466955 0.098845 0.010981
-0.466955 0.046964 -0.087666
-0.466955 -0.037845 -0.027650
-0.466955 -0.055540 0.036592
-0.466955 0.005723 -0.027053
-0.466955 -0.060834 -0.040252
-0.466955 -0.061185 -0.049786
-0.466955 0.010044 0.033935
-0.466955 -0.003866 0.054957
-0.466955 0.015305 0.005125
-0.466955 0.073179 0.023372
-0.466955 -0.026238 -0.000210
-0.466955 0.064395 -0.055368
-0.466955 0.015230 -0.092773
-0.466955 -0.024710 -0.092638
-0.466955 -0.001579 0.096869
-0.466955 0.037353 0.066456
-0.466955 -0.061809 -0.028987
-0.466955 0.023557 0.071597
-0.466955 -0.012524 0.041245
-0.466955 -0.022307 -0.038209
-0.466955 -0.054196 -0.075350
-0.466955 -0.047799 0.021233
-0.466955 0.072306 0.009508
-0.466955 -0.037861 0.030859
-0.466955 0.069352 -0.032868
-0.466955 0.004843 -0.085761
-0.466955 0.026139 0.057861
-0.466955 -0.037738 -0.022321
-0.466955 -0.030564 -0.052340
-0.466955 0.000074 0.081379
-0.466955 -0.050997 0.071175
-0.466955 -0.084087 0.047465
-0.466955 -0.011700 0.009494
-0.466955 -0.001429 0.034824
-0.466955 -0.048660 -0.001924
-0.466955 -0.097054 0.009373
-0.466955 0.087257 0.012048
-0.466955 -0.078809 0.033091
-0.466955 -0.088839 -0.008094
-0.466955 -0.069844 -0.013518
-0.466955 0.026106 -0.029274
-0.466955 -0.014908 0.035590
-0.466955 0.061984 0.061349
-0.466955 -0.018805 -0.075014
-0.466955 -0.034531 -0.002379
-0.466955 -0.059581 -0.001463
-0.466955 0.011157 -0.063627
-0.466955 0.000553 0.031345
-0.466955 -0.042540 -0.018275
-0.466955 0.000353 -0.031492
-0.466955 0.010515 0.008198
-0.466955 -0.069874 -0.026901
-0.466955 -0.017017 -0.075121
-0.466955 -0.036064 -0.004772
-0.466955 -0.009120 0.058562
-0.466955 0.034252 -0.052768
-0.466955 0.062374 0.073419
-0.466955 0.074214 -0.009516
-0.466955 0.056069 -0.005202
-0.466955 -0.031946 0.056051
-0.466955 -0.027805 0.077129
-0.466955 0.094690 0.020584
-0.466955 0.071127 0.070320
-0.466955 -0.034923 -0.053383
-0.466955 0.040678 -0.053444
-0.466955 0.071051 0.038011
-0.466955 -0.036377 0.017460
-0.466955 -0.015429 -0.045294
-0.466955 0.076751 -0.063839
-0.466955 0.034405 -0.016764
-0.466955 -0.001540 0.032905
-0.466955 -0.020912 0.071150
-0.466955 -0.000266 0.060545
-0.466955 -0.023645 0.072464
-0.466955 -0.010032 0.063196
-0.466955 -0.043219 0.061463
-0.466955 0.027198 0.019299
-0.466955 -0.001766 -0.011421
-0.466955 0.005738 -0.067837
-0.466955 -0.056890 -0.050183
-0.466955 -0.053449 0.021482
-0.466955 -0.004357 -0.031849
-0.466955 -0.036196 -0.018294
-0.466955 -0.091311 -0.014472
-0.466955 0.038025 -0.016994
-0.466955 0.006496 -0.062780
-0.466955 -0.025442 -0.023321
-0.466955 0.007965 0.013799
-0.466955 0.001497 0.034168
-0.466955 0.018933 0.059374
-0.466955 -0.012258 0.018167
-0.466955 0.088168 0.042969
-0.466955 0.005739 0.031617
-0.466955 0.010546 -0.055913
-0.466955 -0.047032 0.065694
-0.466955 -0.072861 0.054627
-0.466955 0.052486 0.030641
-0.466955 -0.031543 0.072662
-0.466955 -0.086877 -0.025649
-0.466955 -0.045710 -0.038935
-0.466955 0.062313 0.031852
-0.466955 -0.005878 0.045187
-0.466955 -0.073211 0.067598
-0.466955 -0.080421 -0.057530
-0.466955 -0.010212 0.068009
-0.466955 -0.033326 0.054144
-0.466955 -0.075094 -0.000287
-0.466955 0.022734 -0.042015
-0.466955 0.076943 0.050395
-0.466955 -0.060989 0.058217
-0.466955 0.046885 0.003539
-0.466955 -0.050943 0.059246
-0.466955 0.030705 0.070083
-0.466955 0.095639 -0.014617
-0.466955 -0.022233 0.025427
-0.466955 -0.017058 0.074568
-0.466955 0.026980 -0.016446
-0.466955 0.050530 0.016143
-0.466955 -0.047354 0.042426
-0.466955 -0.054632 -0.007855
-0.466955 -0.019912 0.095660
-0.466955 0.036326 0.014691
-0.466955 -0.038863 0.033598
-0.466955 -0.089137 -0.010450
-0.466955 0.013347 -0.012895
-0.466955 0.087649 -0.041095
-0.466955 0.014011 -0.027322
-0.466955 -0.002440 0.017412
-0.466955 0.061646 -0.061503
-0.466955 0.041344 0.063636
-0.466955 -0.037306 0.021658
-0.466955 0.025257 0.030432
-0.466955 0.005995 -0.075356
-0.466955 -0.059281 -0.062738
-0.466955 0.094798 0.012547
-0.466955 -0.076130 -0.001495
-0.466955 -0.010206 -0.054041
-0.466955 -0.053387 0.036218
-0.466955 -0.062515 0.002860
-0.466955 -0.090096 0.002623
-0.466955 -0.059479 0.037994
-0.466955 0.034286 -0.031526
-0.466955 0.050369 -0.056990
-0.466955 0.017612 0.027818
-0.466955 -0.023991 0.028338
-0.466955 -0.024191 0.035975
-0.466955 0.032413 0.025719
-0.466955 -0.000600 0.046480
-0.466955 -0.036495 0.072697
-0.466955 -0.073963 0.013623
-0.466955 -0.064958 0.021033
-0.466955 0.001580 0.027095
-0.466955 -0.048433 -0.057807
-0.466955 -0.015138 0.089498
-0.466955 -0.055034 -0.058195
-0.466955 0.043297 -0.086236
-0.466955 0.068902 -0.034522
-0.466955 -0.038818 0.049928
-0.466955 0.005998 -0.071370
-0.466955 -0.064675 0.067543
-0.466955 0.004577 0.066885
-0.466955 -0.084479 -0.047472
-0.466955 -0.036588 -0.059410
-0.466955 -0.068030 0.045572
-0.466955 0.046287 -0.041886
-0.466955 -0.097858 -0.005451
-0.466955 0.071064 0.036596
-0.466955 0.062305 -0.063024
-0.466955 0.026946 0.017743
-0.466955 -0.036787 0.089031
-0.466955 0.069659 -0.037116
-0.466955 -0.002395 0.084587
-0.466955 -0.095652 0.027926
-0.466955 -0.034687 0.093605
-0.466955 0.015536 -0.069857
-0.466955 -0.001073 0.036919
-0.466955 -0.029011 -0.092766
-0.466955 -0.072364 0.064543
-0.466955 -0.072290 -0.029798
-0.466955 0.099664 0.007838
-0.466955 -0.036950 -0.006776
-0.466955 -0.073595 -0.014017
-0.466955 0.051634 -0.028597
-0.466955 0.022127 0.067345
-0.466955 -0.020525 0.056947
-0.466955 -0.056270 0.043557
-0.466955 -0.043785 0.035781
-0.466955 -0.070517 0.026705
-0.466955 0.088170 0.046425
-0.466955 0.008436 -0.076558
-0.466955 0.050053 0.078254
-0.466955 -0.064720 0.015689
-0.466955 -0.006010 0.036480
-0.466955 -0.055670 0.070865
-0.466955 -0.025777 -0.013111
-0.466955 -0.097930 -0.003824
-0.466955 -0.067085 0.017252
-0.466955 -0.037425 0.029157
-0.466955 0.069724 -0.011031
-0.466955 0.053626 -0.070509
-0.466955 -0.036506 0.049040
-0.466955 0.081525 -0.057061
-0.466955 -0.077926 -0.029067
-0.466955 -0.003743 -0.077948
-0.466955 0.017853 -0.043306
-0.466955 0.016894 -0.022360
-0.466955 0.049815 0.033621
-0.466955 -0.065290 0.018496
-0.466955 0.063805 0.013626
-0.466955 -0.014530 0.061645
-0.466955 -0.066921 -0.055255
-0.466955 -0.036789 0.009338
-0.466955 0.045377 0.071637
-0.466955 0.016760 0.038089
-0.466955 -0.030812 0.036340
-0.466955 -0.022754 -0.035109
-0.466955 -0.038223 0.044403
-0.466955 0.006032 -0.043206
-0.466955 0.071211 -0.006770
-0.466955 -0.044522 -0.011449
-0.466955 -0.043893 -0.078283
-0.466955 -0.071440 0.034252
-0.466955 -0.034225 -0.009623
-0.466955 -0.016763 -0.008058
-0.466955 0.056106 -0.001982
-0.466955 -0.006591 -0.084836
-0.466955 0.077000 0.015879
-0.466955 -0.012399 -0.083671
-0.466955 0.035770 -0.041714
-0.466955 0.016108 -0.045927
-0.466955 -0.007487 -0.005171
-0.466955 0.018643 -0.049502
-0.466955 -0.021780 -0.039820
-0.466955 -0.059200 0.006470
-0.466955 0.031793 -0.032740
-0.466955 0.035018 0.001649
-0.466955 -0.031983 0.030996
-0.466955 0.016547 -0.012811
-0.466955 0.003732 -0.034709
-0.466955 0.010600 -0.021625
-0.466955 0.000314 -0.070592
-0.466955 -0.076949 0.019744
-0.466955 0.067985 0.041905
-0.466955 0.077698 -0.029458
-0.466955 0.004336 0.042307
-0.466955 0.082041 -0.006650
-0.466955 -0.072389 -0.021667
-0.466955 -0.004744 -0.013731
-0.466955 -0.042233 0.082174
-0.466955 0.043150 -0.070149
-0.466955 -0.048515 0.071069
-0.466955 -0.008895 -0.090757
-0.466955 0.045616 -0.057783
-0.466955 -0.068350 -0.051221
-0.466955 -0.056584 0.004889
-0.466955 0.024737 0.060551
-0.466955 0.039252 -0.062079
-0.466955 -0.082589 0.020770
-0.466955 0.034735 0.014615
-0.466955 0.025989 0.001154
-0.466955 0.031920 -0.082159
-0.466955 0.066584 -0.004295
-0.466955 -0.031404 -0.061147
-0.466955 -0.039303 -0.082789
-0.466955 0.066296 -0.039016
-0.466955 0.065368 -0.059310
-0.466955 0.062612 0.041379
-0.466955 -0.018739 0.078098
-0.466955 0.079326 -0.003763
-0.466955 -0.045200 0.046524
-0.466955 -0.046978 -0.011454
-0.466955 0.061119 -0.022088
-0.466955 0.009248 0.055396
-0.466955 -0.044233 -0.083371
-0.466955 -0.023217 0.017046
-0.466955 0.000524 -0.074465
-0.466955 -0.021845 -0.082632
-0.466955 0.063772 0.063986
-0.466955 0.095554 -0.028639
-0.466955 -0.056742 0.062897
-0.466955 -0.040080 0.007220
-0.466955 0.044127 -0.024463
-0.466955 -0.013211 0.045858
-0.466955 -0.061805 0.005906
-0.466955 0.052738 -0.010108
-0.466955 0.008792 -0.052847
-0.466955 -0.019484 -0.029813
-0.466955 0.041087 -0.020125
-0.466955 -0.015515 0.049480
-0.466955 -0.037750 -0.010346
-0.466955 -0.002383 -0.077563
-0.466955 -0.015865 0.001180
-0.466955 -0.054028 -0.044595
-0.466955 -0.069768 0.066879
-0.466955 0.083544 0.031151
-0.466955 -0.015382 -0.074371
-0.466955 -0.062232 0.059784
-0.466955 0.001558 -0.088431
-0.466955 -0.053182 0.014427
-0.466955 0.028150 0.005146
-0.466955 0.091053 -0.027650
-0.466955 0.055197 0.072155
-0.466955 -0.064859 0.012868
-0.466955 0.042521 0.068026
-0.466955 0.089403 -0.030640
-0.466955 -0.043597 -0.081521
-0.466955 -0.036160 0.090658
-0.466955 -0.058899 0.068526
-0.466955 -0.054682 -0.037400
-0.466955 0.080788 -0.052039
-0.466955 -0.077232 0.021881
-0.466955 -0.068560 -0.049523
-0.466955 -0.070916 -0.048891
-0.466955 0.071057 0.025719
-0.466955 -0.035049 -0.048039
-0.466955 -0.008981 -0.089336
-0.466955 -0.016793 0.084619
-0.466955 -0.089359 -0.037529
-0.466955 0.044784 -0.001555
-0.466955 -0.034772 0.015656
-0.466955 0.005960 0.081726
-0.466955 -0.005597 -0.045859
-0.466955 0.043037 0.028525
-0.466955 0.065584 -0.010803
-0.466955 0.090942 -0.011827
-0.466955 -0.079648 0.002909
-0.466955 0.026413 -0.057393
-0.466955 -0.009553 0.032341
-0.466955 -0.046212 0.021533
-0.466955 0.055335 0.075213
-0.466955 0.053338 0.038954
-0.466955 -0.038483 0.082508
-0.466955 0.059807 -0.053748
-0.466955 -0.041222 -0.035457
-0.466955 0.059915 0.010096
-0.466955 -0.083219 -0.013917
-0.466955 -0.055249 0.077477
-0.466955 0.029310 0.001133
-0.466955 0.064306 0.042690
-0.466955 -0.068083 -0.064344
-0.466955 0.092575 0.017974
-0.466955 -0.060268 0.043089
-0.466955 0.030170 0.046458
-0.466955 -0.090461 0.000278
-0.466955 0.071792 0.035436
-0.466955 0.031357 0.072104
-0.466955 -0.019556 -0.078074
-0.466955 0.032917 0.041439
-0.466955 -0.003843 0.056610
-0.466955 0.004498 0.064277
-0.466955 -0.094357 0.022769
-0.466955 -0.028425 -0.039765
-0.466955 0.002292 0.071262
-0.466955 -0.024233 -0.048500
-0.466955 -0.040319 0.074747
-0.466955 0.081253 -0.048705
-0.466955 0.060921 0.071436
-0.466955 0.079553 -0.040578
-0.466955 -0.079097 0.013084
-0.466955 0.082330 0.015155
-0.466955 0.088189 -0.031665
-0.466955 0.085859 -0.028217
-0.466955 0.030920 -0.009776
-0.466955 -0.022280 0.047303
-0.466955 -0.004679 0.027889
-0.466955 0.055180 0.061659
-0.466955 0.001454 0.042016
-0.466955 0.024068 0.075819
-0.466955 0.000578 -0.059707
-0.466955 0.021239 0.076010
-0.466955 -0.039185 0.046431
-0.466955 0.020035 -0.068017
-0.466955 0.017823 0.073450
-0.466955 -0.007911 -0.075141
-0.466955 -0.075278 -0.022423
-0.466955 -0.040161 0.044036
-0.466955 0.075706 -0.058132
-0.466955 -0.084458 0.043366
-0.466955 -0.022727 0.062250
-0.466955 0.059296 0.033760
-0.466955 -0.006139 -0.038842
-0.466955 0.055215 0.044814
-0.466955 -0.056730 -0.067368
-0.466955 0.043989 -0.037807
-0.466955 -0.036575 0.083228
-0.466955 -0.048616 0.045045
-0.466955 0.010164 0.083925
-0.466955 -0.037769 -0.078634
-0.466955 -0.018125 0.009032
-0.466955 -0.035673 -0.013164
-0.466955 -0.013818 -0.019685
-0.466955 0.013240 -0.040554
-0.466955 0.005833 -0.035415
-0.466955 -0.005490 -0.073340
-0.466955 -0.037556 -0.046826
-0.466955 -0.001198 0.070989
-0.466955 -0.056678 -0.036732
-0.466955 -0.047485 0.062049
-0.466955 0.037959 0.026366
-0.466955 -0.028111 0.020007
-0.466955 -0.066897 -0.050821
-0.466955 0.041448 0.083172
-0.466955 -0.089694 -0.022506
-0.466955 -0.049753 0.051792
-0.466955 -0.056228 -0.047337
-0.466955 -0.091152 0.022240
-0.466955 -0.034339 0.055480
-0.466955 0.007946 0.028863
-0.466955 -0.053463 0.043517
-0.466955 -0.007545 0.077685
-0.466955 0.010245 -0.083921
-0.466955 0.080971 -0.004051
-0.466955 -0.066628 0.034273
-0.466955 -0.068510 0.029994
-0.466955 -0.039691 0.061464
-0.466955 -0.054786 -0.027967
-0.466955 -0.056608 0.042153
-0.466955 0.001518 -0.061285
-0.466955 -0.004721 0.012827
-0.466955 -0.054579 0.017965
-0.466955 0.059300 0.067977
-0.466955 0.021823 0.000118
-0.466955 0.023138 -0.066152
-0.466955 -0.024439 -0.080206
-0.466955 0.065021 -0.050277
-0.466955 0.041668 -0.082000
-0.466955 0.029367 -0.033005
-0.466955 0.037251 0.018121
-0.466955 0.010999 0.088210
-0.466955 -0.032859 0.028291
-0.466955 -0.065703 0.030152
-0.466955 0.092743 0.008704
-0.466955 -0.027910 0.008168
-0.466955 0.018264 0.086464
-0.466955 -0.035932 -0.052075
-0.466955 0.062530 -0.053035
-0.466955 -0.006880 -0.048564
-0.466955 0.088574 -0.019425
-0.466955 -0.024176 -0.019652
-0.466955 0.065686 -0.009292
-0.466955 0.076279 0.058332
-0.466955 0.048882 -0.019347
-0.466955 0.041430 -0.062667
-0.466955 -0.018762 0.064362
-0.466955 0.031980 -0.035045
-0.466955 -0.012379 -0.028813
-0.466955 0.010572 -0.026973
-0.466955 -0.001959 0.040438
-0.466955 -0.042579 0.085562
-0.466955 -0.062543 0.039187
-0.466955 -0.058683 0.001102
-0.466955 0.056686 -0.025263
-0.466955 -0.060882 -0.059079
-0.466955 -0.039759 0.088321
-0.466955 -0.010850 0.093638
-0.466955 -0.067906 0.015279
-0.466955 -0.087354 -0.002119
-0.466955 0.016416 -0.089902
-0.466955 -0.014275 0.040360
-0.466955 0.007791 0.006356
-0.466955 0.006424 0.071750
-0.466955 0.004333 0.031960
-0.466955 -0.026994 -0.051719
-0.466955 -0.001995 -0.028167
-0.466955 -0.005525 -0.036750
-0.466955 0.051014 0.018506
-0.466955 -0.016708 -0.059168
-0.466955 -0.006883 0.046808
-0.466955 0.036341 0.044683
-0.466955 -0.020088 0.019926
-0.466955 -0.012121 -0.076125
-0.466955 -0.085190 0.034589
-0.466955 0.003696 -0.022230
-0.466955 0.017707 0.007358
-0.466955 0.089672 0.010452
-0.466955 0.092215 -0.031427
-0.466955 -0.057349 0.075499
-0.466955 -0.043248 -0.028757
-0.466955 -0.017354 0.020980
-0.466955 0.011361 0.023272
-0.466955 0.018471 -0.025315
-0.466955 -0.091333 -0.007014
-0.466955 0.043207 0.002182
-0.466955 -0.036898 -0.038223
-0.466955 0.005633 0.061660
-0.466955 0.058205 -0.042499
-0.466955 -0.067028 0.004241
-0.466955 -0.076833 0.008040
-0.466955 0.026390 -0.084333
-0.466955 -0.061433 -0.068552
-0.466955 0.076791 -0.046309
-0.466955 -0.033243 0.015370
-0.466955 -0.009343 -0.087712
-0.466955 0.029513 0.042810
-0.466955 -0.041660 0.012372
-0.466955 -0.060779 -0.013452
-0.466955 -0.005885 -0.005485
-0.466955 0.004892 0.018245
-0.466955 0.001901 0.055013
-0.466955 -0.022596 0.065532
-0.466955 0.068006 -0.070463
-0.466955 0.010677 -0.012212
-0.466955 0.054288 0.023933
-0.466955 -0.021780 -0.087401
-0.466955 0.014370 -0.017946
-0.466955 -0.042180 0.034440
-0.466955 0.012076 0.029641
-0.466955 0.038199 -0.040169
-0.466955 0.012104 -0.055031
-0.466955 -0.019912 -0.048859
-0.466955 0.071763 0.006214
-0.466955 -0.046223 0.034259
-0.466955 0.012493 -0.005014
-0.466955 -0.031344 0.043916
-0.466955 -0.038234 0.072101
-0.466955 -0.024993 -0.054436
-0.466955 -0.036256 0.016084
-0.466955 -0.011308 -0.027560
-0.466955 0.075319 0.064304
-0.466955 0.022628 0.042670
-0.466955 0.036555 0.068048
-0.466955 0.023702 -0.063115
-0.466955 -0.048586 0.010318
-0.466955 -0.037727 -0.075036
-0.466955 0.086286 0.035151
-0.466955 0.090090 0.035947
-0.466955 0.059243 0.035281
-0.466955 -0.027842 0.082121
-0.466955 -0.059591 -0.049620
-0.466955 0.011729 0.034058
-0.466955 0.078877 0.051470
-0.466955 -0.074643 -0.052319
-0.466955 0.032193 -0.000865
-0.466955 -0.059241 -0.038746
-0.466955 -0.038702 -0.048569
-0.466955 0.002548 -0.059316
-0.466955 0.036072 -0.089118
-0.466955 -0.002202 -0.026214
-0.466955 -0.074795 0.041195
-0.466955 0.000097 -0.088879
-0.466955 0.058740 -0.034560
-0.466955 0.010794 -0.071056
-0.466955 -0.000497 0.061979
-0.466955 0.040490 -0.013535
-0.466955 -0.089898 0.018591
-0.466955 0.043093 -0.078382
-0.466955 0.098643 0.008748
-0.466955 -0.053672 -0.073325
-0.466955 -0.031255 -0.089193
-0.466955 0.046047 -0.062994
-0.466955 -0.002364 0.037877
-0.466955 -0.088904 -0.040690
-0.466955 -0.022576 0.021906
-0.466955 0.008237 0.020590
-0.466955 0.051975 0.016685
-0.466955 0.077258 -0.008578
-0.466955 0.036515 -0.011794
-0.466955 -0.020161 0.038621
-0.466955 0.030389 0.004246
-0.466955 -0.013784 -0.010592
-0.466955 -0.031653 -0.003717
-0.466955 -0.024839 0.064956
-0.466955 0.088317 0.020052
-0.466955 0.062111 -0.016551
-0.466955 0.031597 0.035779
-0.466955 -0.066815 -0.031039
-0.466955 -0.070508 0.055116
-0.466955 -0.012505 -0.062444
-0.466955 0.044022 0.042926
-0.466955 0.012617 -0.014541
-0.466955 -0.041177 -0.017357
-0.466955 0.012738 0.020447
-0.466955 -0.057739 -0.046313
-0.466955 0.062933 0.060205
-0.466955 0.058170 0.042429
-0.466955 0.014448 -0.014933
-0.466955 0.092406 0.001458
-0.466955 0.056829 -0.071859
-0.466955 0.056913 0.082233
-0.466955 0.085936 -0.050574
-0.466955 -0.026828 0.007043
-0.466955 -0.015286 0.067142
-0.466955 -0.000373 0.084024
-0.466955 0.026924 0.003918
-0.466955 -0.032336 0.002177
-0.466955 -0.018234 0.014552
-0.466955 -0.030452 0.051944
-0.466955 0.003867 -0.007087
-0.466955 -0.062397 -0.042245
-0.466955 -0.042177 -0.075094
-0.466955 0.058515 0.055180
-0.466955 0.010224 -0.020297
-0.466955 -0.007408 -0.022631
-0.466955 -0.045595 0.038632
-0.466955 -0.017859 -0.060671
-0.466955 -0.064905 -0.063684
-0.466955 -0.078146 -0.047249
-0.466955 0.024926 0.056375
-0.466955 -0.018592 -0.082508
-0.466955 -0.018372 -0.047547
-0.466955 0.037150 0.020154
-0.466955 0.016176 0.041769
-0.466955 0.051033 -0.030206
-0.466955 -0.075297 0.060351
-0.466955 0.038110 0.012944
-0.466955 -0.027883 -0.035820
-0.466955 0.035107 0.078032
-0.466955 -0.080449 0.012425
-0.466955 -0.035500 0.079044
-0.466955 -0.024852 0.018883
-0.466955 -0.083988 0.000006
-0.466955 0.017066 0.018430
-0.466955 0.004127 -0.091751
-0.466955 -0.050413 -0.041886
-0.466955 -0.059095 -0.043471
-0.466955 0.032654 -0.074552
-0.466955 -0.062908 -0.072227
-0.466955 0.023329 -0.071648
-0.466955 0.015575 -0.075770
-0.466955 0.072608 0.040657
-0.466955 0.034883 -0.035547
-0.466955 -0.061800 -0.060398
-0.466955 -0.007011 0.091435
-0.466955 -0.042238 0.013749
-0.466955 0.010250 0.043961
-0.466955 -0.076456 -0.015430
-0.466955 0.007966 0.087833
-0.466955 0.086424 0.021756
-0.466955 -0.055264 -0.019609
-0.466955 0.067155 0.052684
-0.466955 0.062729 -0.037647
-0.466955 0.055563 -0.037881
-0.466955 -0.051814 0.075946
-0.466955 -0.075476 -0.055229
-0.466955 0.022777 0.047800
-0.466955 -0.010911 0.033803
-0.466955 0.008276 0.089810
-0.466955 -0.015951 0.061506
-0.466955 -0.067438 0.043625
-0.466955 0.086580 -0.007084
-0.466955 -0.043882 -0.046419
-0.466955 0.038027 -0.067932
-0.466955 -0.080692 0.056510
-0.466955 -0.044929 -0.001384
-0.466955 0.057756 -0.056998
-0.466955 -0.074095 0.044047
-0.466955 0.018310 0.036980
-0.466955 -0.057594 -0.071085
-0.466955 -0.001188 -0.057850
-0.466955 -0.027492 -0.034500
-0.466955 0.043862 -0.087760
-0.466955 -0.014625 -0.030608
-0.466955 -0.061092 -0.038130
-0.466955 0.012293 -0.082070
-0.466955 0.043431 0.031602
-0.466955 0.082411 0.018405
-0.466955 0.029940 -0.003178
-0.466955 0.036948 -0.055174
-0.466955 -0.044787 -0.073196
-0.466955 -0.002722 -0.089235
-0.466955 0.023261 -0.076424
-0.466955 -0.057924 -0.039635
-0.466955 -0.033476 -0.010788
-0.466955 0.006038 0.043396
-0.466955 -0.024925 -0.042381
-0.466955 0.011528 -0.049479
-0.466955 -0.067063 -0.071801
-0.466955 0.041731 0.037071
-0.466955 -0.010170 -0.098654
-0.466955 -0.015240 -0.065712
-0.466955 -0.019687 0.052971
-0.466955 0.038873 -0.033193
-0.466955 0.003714 0.014306
-0.466955 -0.058207 0.043384
-0.466955 0.013372 -0.019238
-0.466955 0.007986 0.022794
-0.466955 -0.049391 0.058795
-0.466955 -0.045835 -0.004187
-0.466955 -0.070471 -0.021342
-0.466955 -0.032241 -0.071453
-0.466955 -0.015892 -0.013410
-0.466955 0.023271 0.051366
-0.466955 -0.070075 0.052272
-0.466955 -0.018908 -0.023328
-0.466955 0.064705 0.029602
-0.466955 -0.061611 -0.066922
-0.466955 0.036824 0.013301
-0.466955 0.063833 0.021398
-0.466955 0.022193 -0.096241
-0.466955 -0.019513 -0.054469
-0.466955 0.006804 -0.000351
-0.466955 0.029545 0.005644
-0.466955 -0.057755 0.078068
-0.466955 0.025665 0.008381
-0.466955 -0.020025 -0.026985
-0.466955 -0.009754 0.052410
-0.466955 0.005418 -0.018469
-0.466955 -0.054070 -0.059326
-0.466955 0.082285 0.045679
-0.466955 -0.072792 -0.068017
-0.466955 -0.002304 -0.052219
-0.466955 -0.065835 0.069407
-0.466955 -0.009303 0.013442
-0.466955 0.012689 -0.026082
-0.466955 0.052122 -0.031707
-0.466955 0.061698 0.010796
-0.466955 0.050811 0.068848
-0.466955 0.035615 -0.056128
-0.466955 -0.016619 -0.067241
-0.466955 -0.029285 0.095381
-0.466955 -0.037331 0.076568
-0.466955 -0.042971 0.000886
-0.466955 0.065013 -0.016935
-0.466955 -0.051726 0.028766
-0.466955 -0.018947 0.086647
-0.466955 -0.028326 0.090097
-0.466955 0.000146 0.032930
-0.466955 -0.002024 -0.012965
-0.466955 -0.024545 -0.061510
-0.466955 0.074351 -0.066008
-0.466955 -0.074630 0.038521
-0.466955 -0.056326 0.032619
-0.466955 -0.041012 -0.088074
-0.466955 -0.023488 -0.027758
-0.466955 0.019471 0.057872
-0.466955 -0.019713 -0.003894
-0.466955 -0.017102 0.001953
-0.466955 0.089392 0.024105
-0.466955 0.071844 -0.067172
-0.466955 -0.017497 -0.035883
-0.466955 0.016615 0.054240
-0.466955 0.072161 -0.050575
-0.466955 -0.056985 0.036197
-0.466955 -0.032083 0.085384
-0.466955 -0.099077 -0.008729
-0.466955 0.024206 0.070010
-0.466955 0.000565 -0.009526
-0.466955 -0.013478 -0.067143
-0.466955 0.063660 -0.074059
-0.466955 -0.049259 0.065598
-0.466955 -0.043429 -0.085590
-0.466955 -0.076024 0.006786
-0.466955 -0.075601 0.033043
-0.466955 0.009981 0.074963
-0.466955 0.033465 -0.048407
-0.466955 -0.058240 0.045866
-0.466955 0.049104 -0.062585
-0.466955 0.058251 -0.038836
-0.466955 0.048034 0.004685
-0.466955 -0.042987 0.055328
-0.466955 -0.081564 -0.008663
-0.466955 -0.061406 -0.053696
-0.466955 -0.035431 0.074150
-0.466955 0.084832 -0.019049
-0.466955 0.037480 -0.087379
-0.466955 0.062807 -0.020834
-0.466955 -0.060356 0.021283
-0.466955 0.061198 -0.053534
-0.466955 0.034279 -0.078746
-0.466955 -0.051824 -0.081879
-0.466955 0.056565 0.057172
-0.466955 0.073229 0.014542
-0.466955 -0.068609 -0.000357
-0.466955 -0.000876 -0.039651
-0.466955 0.092693 0.032679
-0.466955 0.014753 0.060354
-0.466955 -0.065304 0.063467
-0.466955 0.072331 -0.026160
-0.466955 0.035336 0.091217
-0.466955 -0.052685 -0.059259
-0.466955 -0.051046 -0.046826
-0.466955 -0.010506 0.003452
-0.466955 0.029147 -0.030919
-0.466955 -0.097768 0.008003
-0.466955 0.040790 -0.026520
-0.466955 0.008451 -0.035923
-0.466955 0.084758 0.009957
-0.466955 0.020238 -0.045482
-0.466955 -0.069315 -0.057448
-0.466955 -0.045675 -0.017083
-0.466955 -0.073099 0.016883
-0.466955 -0.042393 0.053710
-0.466955 -0.094084 0.002141
-0.466955 0.003176 0.007730
-0.466955 -0.039172 -0.074057
-0.466955 -0.021659 0.053098
-0.466955 0.024573 -0.074181
-0.466955 0.033954 -0.034375
-0.466955 -0.066487 -0.045479
-0.466955 0.010545 0.002951
-0.466955 0.049818 -0.007033
-0.466955 0.069893 0.022486
-0.466955 -0.035941 0.025520
-0.466955 0.062348 -0.066852
-0.466955 -0.059763 0.076944
-0.466955 -0.061470 -0.077977
-0.466955 -0.035903 0.031735
-0.466955 -0.000610 0.006820
-0.466955 0.040564 0.026407
-0.466955 -0.066422 -0.039796
-0.466955 -0.056548 0.067623
-0.466955 0.055527 -0.035239
-0.466955 0.008311 0.096076
-0.466955 0.046488 -0.038841
-0.466955 -0.054911 -0.009538
-0.466955 -0.005093 0.014969
-0.466955 -0.063723 -0.076312
-0.466955 -0.035237 -0.043855
-0.466955 -0.016647 -0.092620
-0.466955 -0.017537 -0.022686
-0.466955 -0.058813 -0.000295
-0.466955 0.012533 0.072599
-0.466955 -0.039243 0.060002
-0.466955 0.061488 0.030600
-0.466955 -0.071261 0.067258
-0.466955 0.022280 0.090382
-0.466955 0.068493 -0.037918
-0.466955 0.054328 0.070182
-0.466955 -0.093627 -0.016737
-0.466955 0.078724 0.033246
-0.466955 0.061615 -0.012574
-0.466955 -0.028933 -0.034828
-0.466955 -0.083578 -0.029215
-0.466955 -0.085388 -0.009822
-0.466955 0.020565 -0.097117
-0.466955 0.038885 0.080518
-0.466955 0.035733 -0.053929
-0.466955 -0.036680 -0.081535
-0.466955 0.093733 0.014037
-0.466955 -0.013452 -0.039042
-0.466955 0.083746 -0.006647
-0.466955 -0.053787 -0.040017
-0.466955 -0.078769 -0.044625
-0.466955 -0.034852 -0.074005
-0.466955 -0.067919 -0.062242
-0.466955 -0.055078 0.041660
-0.466955 -0.082905 0.034506
-0.466955 -0.079359 -0.026698
-0.466955 0.029674 -0.042426
-0.466955 -0.051139 -0.052543
-0.466955 -0.018247 0.023754
-0.466955 -0.050915 -0.053895
-0.466955 -0.085059 0.012225
-0.466955 0.010885 -0.081567
-0.466955 0.097506 0.012353
-0.466955 0.015660 -0.052491
-0.466955 -0.045673 -0.033551
-0.466955 -0.086371 -0.008700
-0.466955 0.043844 0.082848
-0.466955 -0.081646 0.045299
-0.466955 0.073124 0.028730
-0.466955 -0.061585 -0.014763
-0.466955 0.033160 0.070537
-0.466955 -0.044458 0.072140
-0.466955 -0.020715 0.064437
-0.466955 0.014782 0.076255
-0.466955 0.017940 -0.023887
-0.466955 -0.030566 0.034819
-0.466955 -0.027228 0.021418
-0.466955 -0.027880 -0.073748
-0.466955 0.008357 0.048306
-0.466955 0.092723 -0.002123
-0.466955 0.035062 0.047456
-0.466955 -0.074822 -0.047618
-0.466955 0.076606 -0.053876
-0.466955 -0.085113 0.040373
-0.466955 0.054659 -0.003427
-0.466955 0.048430 0.052091
-0.466955 -0.064041 -0.044694
-0.466955 -0.073344 -0.033741
