0.465339 -0.073381 0.043448
0.465339 0.054156 -0.072337
0.465339 -0.016220 0.002243
0.465339 -0.055917 0.052953
0.465339 0.035294 0.027353
0.465339 0.078197 -0.012200
0.465339 0.085425 0.049464
0.465339 -0.011588 0.023803
0.465339 -0.037271 0.076902
0.465339 0.032307 -0.007222
0.465339 0.084375 0.000550
0.465339 0.020186 0.004836
0.465339 0.070519 0.046334
0.465339 -0.016102 -0.006853
0.465339 0.053433 0.052165
0.465339 0.028451 0.000313
0.465339 -0.021130 -0.045215
0.465339 -0.086527 -0.024210
0.465339 0.044800 -0.070663
0.465339 -0.082935 -0.015957
0.465339 -0.076591 -0.019295
0.465339 0.021827 0.082804
0.465339 -0.060919 -0.023718
0.465339 0.058067 0.018871
0.465339 0.059352 0.056717
0.465339 -0.056850 -0.076758
0.465339 -0.050742 -0.082210
0.465339 -0.018385 0.024942
0.465339 0.021028 -0.074607
0.465339 -0.069107 0.046212
0.465339 -0.062217 -0.064549
0.465339 0.010856 0.081901
0.465339 0.004844 -0.024353
0.465339 0.014876 -0.004506
0.465339 0.009904 -0.026745
0.465339 0.060766 0.056934
0.465339 -0.000265 -0.003920
0.465339 -0.094547 0.014486
0.465339 0.000866 0.019658
0.465339 0.083273 0.046759
0.465339 -0.062274 0.017364
0.465339 0.022524 -0.017838
0.465339 0.031389 -0.089319
0.465339 -0.013647 0.054800
0.465339 -0.052973 -0.002901
0.465339 0.052549 -0.037736
0.465339 -0.076139 0.044912
0.465339 0.021375 -0.061419
0.465339 -0.022185 -0.046928
0.465339 -0.057492 0.078619
0.465339 0.025043 0.017291
0.465339 -0.005929 -0.089968
0.465339 -0.002884 -0.072457
0.465339 -0.067871 -0.050974
0.465339 0.070014 -0.067759
0.465339 -0.018611 -0.032197
0.465339 0.064696 -0.067083
0.465339 -0.003493 0.098529
0.465339 0.071576 0.017846
0.465339 -0.008548 -0.008455
0.465339 0.003814 -0.059501
0.465339 -0.064519 -0.069840
0.465339 -0.085583 0.009570
0.465339 -0.077249 0.053230
0.465339 0.003631 -0.054124
0.465339 -0.072903 0.059184
0.465339 -0.008127 0.099384
0.465339 0.042028 0.088877
0.465339 0.077493 -0.003791
0.465339 -0.029502 0.012278
0.465339 -0.016604 0.078116
0.465339 -0.002427 0.065267
0.465339 -0.005913 0.003466
0.465339 0.083833 0.028027
0.465339 0.053415 0.046079
0.465339 0.029196 0.037185
0.465339 -0.019627 0.080380
0.465339 -0.058938 -0.047767
0.465339 -0.030350 -0.061340
0.465339 -0.045911 -0.040085
0.465339 -0.089192 0.004076
0.465339 0.005198 -0.099507
0.465339 -0.021531 -0.060906
0.465339 -0.077802 -0.038862
0.465339 0.019705 0.066444
0.465339 0.085753 -0.048740
0.465339 0.092263 -0.007926
0.465339 0.022016 0.090589
0.465339 -0.013125 0.046753
0.465339 0.051166 0.004074
0.465339 -0.026509 -0.003425
0.465339 0.053528 0.013458
0.465339 -0.047623 0.067130
0.465339 0.031022 -0.083812
0.465339 -0.074124 0.009972
0.465339 0.010810 0.014721
0.465339 -0.060553 -0.048338
0.465339 0.071028 -0.015217
0.465339 0.030801 0.063176
0.465339 0.090954 -0.007073
0.465339 -0.066618 -0.060133
0.465339 -0.045987 -0.068442
0.465339 0.057625 -0.070761
0.465339 0.080821 -0.027434
0.465339 0.064128 -0.042190
0.465339 0.001014 0.098135
0.465339 0.007074 0.075636
0.465339 0.062156 0.014917
0.465339 -0.054487 0.034473
0.465339 0.074248 -0.009889
0.465339 -0.074126 -0.009151
0.465339 0.015442 -0.037495
0.465339 0.042763 0.049496
0.465339 0.058318 0.001445
0.465339 -0.068580 0.000517
0.465339 -0.016208 -0.016452
0.465339 0.066618 -0.065103
0.465339 -0.065478 -0.038725
0.465339 -0.011135 0.096234
0.465339 -0.021583 -0.090554
0.465339 0.022143 0.053683
0.465339 -0.068126 -0.059138
0.465339 0.065728 -0.035470
0.465339 -0.018651 -0.089767
0.465339 0.084489 -0.018230
0.465339 -0.022992 0.065851
0.465339 -0.009977 0.075480
0.465339 0.012253 -0.051961
0.465339 -0.057477 -0.015682
0.465339 0.027775 0.076698
0.465339 0.021014 -0.013298
0.465339 -0.021163 0.004626
0.465339 -0.006567 0.089601
0.465339 0.025127 -0.004455
0.465339 -0.043930 0.023391
0.465339 0.056000 0.037612
0.465339 0.059856 -0.044502
0.465339 -0.021351 0.092249
0.465339 0.047102 0.080519
0.465339 0.020591 0.029487
0.465339 -0.065184 0.057026
0.465339 0.077077 -0.062796
0.465339 0.065197 -0.030486
0.465339 -0.036258 -0.076056
0.465339 -0.057464 0.070565
0.465339 0.028569 -0.050540
0.465339 -0.036193 0.034636
0.465339 0.052559 0.053836
0.465339 -0.070797 0.062168
0.465339 -0.012279 0.051997
0.465339 -0.076922 -0.025424
0.465339 0.022014 -0.078600
0.465339 0.025408 -0.000319
0.465339 0.007512 0.088755
0.465339 -0.050586 0.070418
0.465339 0.040685 0.073552
0.465339 -0.070006 -0.043123
0.465339 0.020170 -0.031393
0.465339 -0.088517 0.015438
0.465339 -0.065676 -0.000464
0.465339 0.020292 -0.038326
0.465339 0.008003 -0.011416
0.465339 0.052759 -0.039231
0.465339 -0.068820 -0.035987
0.465339 -0.008574 -0.040484
0.465339 0.006978 0.026982
0.465339 -0.002630 -0.019290
0.465339 0.046700 0.031075
0.465339 -0.071664 0.005861
0.465339 -0.016257 -0.068947
0.465339 -0.028305 -0.069268
0.465339 0.029885 -0.018048
0.465339 0.040835 0.041806
0.465339 -0.044705 0.087096
0.465339 0.016440 0.053525
0.465339 0.082954 0.035862
0.465339 -0.080426 -0.014265
0.465339 0.056956 -0.059317
0.465339 -0.016918 0.021808
0.465339 0.023603 0.041990
0.465339 -0.032497 -0.035124
0.465339 0.085330 -0.011259
0.465339 0.024083 -0.078076
0.465339 -0.049229 -0.028870
0.465339 -0.066924 -0.052555
0.465339 0.027235 -0.029054
0.465339 -0.040702 0.086054
0.465339 0.045671 0.046393
0.465339 -0.057903 0.035809
0.465339 -0.014027 0.063490
0.465339 -0.043380 -0.042736
0.465339 0.018379 0.037965
0.465339 -0.039635 0.034204
0.465339 0.039156 -0.000773
0.465339 -0.064783 -0.059937
0.465339 -0.008359 -0.081033
0.465339 -0.006578 -0.041652
0.465339 -0.023162 0.020944
0.465339 0.067462 0.015514
0.465339 0.002194 0.064532
0.465339 -0.015507 -0.092405
0.465339 0.054976 -0.064185
0.465339 -0.069936 -0.064664
0.465339 0.027967 -0.085213
0.465339 0.048888 -0.086672
0.465339 -0.058186 -0.045097
0.465339 0.070640 0.060219
0.465339 0.049720 -0.036553
0.465339 0.015238 0.016885
0.465339 -0.000291 0.092649
0.465339 -0.021749 -0.025707
0.465339 0.067198 0.010668
0.465339 -0.048133 -0.032293
0.465339 0.091565 -0.002400
0.465339 0.037295 -0.017976
0.465339 0.043581 0.054449
0.465339 -0.081943 -0.010137
0.465339 0.079822 0.037456
0.465339 -0.011370 0.038725
0.465339 -0.061200 -0.041230
0.465339 -0.031745 0.020841
0.465339 -0.013111 -0.042269
0.465339 0.054628 -0.054381
0.465339 0.033025 0.026257
0.465339 -0.062302 0.019601
0.465339 0.025470 0.015005
0.465339 0.039131 -0.031800
0.465339 0.066691 0.024790
0.465339 -0.015221 0.086071
0.465339 -0.021303 -0.082899
0.465339 0.064979 -0.071416
0.465339 -0.092704 0.023190
0.465339 0.001246 -0.060297
0.465339 0.029997 -0.058136
0.465339 -0.020379 -0.092460
0.465339 -0.051625 0.004913
0.465339 0.004242 -0.043675
0.465339 0.045846 -0.027247
0.465339 -0.081943 -0.013179
0.465339 0.063190 -0.050076
0.465339 -0.015630 0.065951
0.465339 -0.049508 0.069115
0.465339 0.045839 0.007175
0.465339 0.054172 0.059372
0.465339 0.003743 0.096586
0.465339 -0.019002 -0.024326
0.465339 -0.053314 -0.011104
0.465339 0.049432 -0.018896
0.465339 -0.083366 -0.017926
0.465339 0.055855 -0.040505
0.465339 -0.018132 0.020686
0.465339 -0.041353 0.037157
0.465339 -0.044308 -0.069933
0.465339 0.074515 0.053105
0.465339 -0.017234 0.017502
0.465339 -0.075481 -0.051910
0.465339 0.000964 0.076725
0.465339 0.061523 -0.010135
0.465339 0.038535 0.011270
0.465339 -0.071839 -0.033274
0.465339 -0.002622 0.090973
0.465339 -0.025627 0.073189
0.465339 0.015022 -0.031279
0.465339 0.050119 0.033533
0.465339 -0.021301 0.066044
0.465339 -0.046403 0.065656
0.465339 -0.002776 0.008401
0.465339 -0.095245 -0.020502
0.465339 -0.053304 -0.039987
0.465339 0.075220 0.024836
0.465339 -0.026917 -0.093789
0.465339 0.072171 -0.036506
0.465339 -0.069991 0.031147
0.465339 0.049879 -0.080351
0.465339 -0.060461 -0.060328
0.465339 0.001884 -0.094043
0.465339 0.087037 0.005018
0.465339 -0.066026 -0.065640
0.465339 0.067195 -0.030002
0.465339 0.053533 0.011825
0.465339 0.046616 0.069132
0.465339 -0.051365 0.057444
0.465339 -0.067306 -0.036702
0.465339 0.073612 -0.058053
0.465339 -0.053526 -0.050991
0.465339 -0.099388 -0.000815
0.465339 0.054521 0.082920
0.465339 0.067914 0.036207
0.465339 0.057868 -0.034106
0.465339 -0.039456 -0.049919
0.465339 -0.039578 -0.002743
0.465339 -0.051672 0.037804
0.465339 -0.090964 -0.022008
0.465339 0.075881 -0.061389
0.465339 -0.089160 -0.027192
0.465339 0.067515 -0.054621
0.465339 0.023807 -0.028658
0.465339 -0.029139 0.095514
0.465339 0.085461 -0.003954
0.465339 0.021028 0.059373
0.465339 0.009107 -0.098960
0.465339 -0.051932 0.039253
0.465339 0.045433 -0.079672
0.465339 -0.077409 -0.058345
0.465339 -0.095619 -0.015607
0.465339 0.079742 -0.054168
0.465339 -0.070469 -0.013218
0.465339 -0.078460 0.032312
0.465339 -0.060960 0.007397
0.465339 -0.046958 0.036474
0.465339 -0.079356 -0.006128
0.465339 0.002224 -0.039606
0.465339 -0.007573 0.038956
0.465339 -0.096051 0.008602
0.465339 0.081687 0.031206
0.465339 0.060975 0.004452
0.465339 -0.020759 0.019531
0.465339 0.049369 -0.043363
0.465339 -0.028494 -0.081651
0.465339 -0.031903 -0.084391
0.465339 -0.027435 0.011071
0.465339 0.031057 -0.052318
0.465339 0.017058 0.089459
0.465339 -0.072417 0.041523
0.465339 0.047529 -0.065001
0.465339 0.062912 -0.076721
0.465339 -0.052523 0.076134
0.465339 0.050977 0.013520
0.465339 -0.080091 -0.046175
0.465339 0.051267 -0.042640
0.465339 0.080776 0.040403
0.465339 0.088936 -0.008928
0.465339 0.008457 -0.003929
0.465339 -0.020473 -0.071362
0.465339 0.001426 0.040783
0.465339 -0.046638 -0.003687
0.465339 -0.022713 0.026351
0.465339 -0.081634 -0.049358
0.465339 0.042757 0.043869
0.465339 0.063244 0.069996
0.465339 0.095622 -0.018017
0.465339 -0.062090 0.059604
0.465339 -0.052531 -0.078184
0.465339 -0.087205 0.043302
0.465339 -0.001444 0.089978
0.465339 0.020571 0.063066
0.465339 0.043528 0.063586
0.465339 0.015783 -0.068782
0.465339 -0.028744 0.020384
0.465339 0.053618 0.066111
0.465339 -0.076965 -0.049039
0.465339 -0.020601 -0.056419
0.465339 -0.043398 -0.040509
0.465339 -0.031935 -0.089577
0.465339 -0.012014 -0.028431
0.465339 0.010567 -0.061341
0.465339 -0.051802 0.062716
0.465339 0.002501 -0.055138
0.465339 -0.002168 -0.075219
0.465339 -0.000163 0.060221
0.465339 -0.029768 -0.080852
0.465339 0.064503 0.025107
0.465339 0.019755 0.032176
0.465339 -0.056545 0.051530
0.465339 0.025314 0.021536
0.465339 0.055969 -0.060677
0.465339 0.009153 0.091457
0.465339 0.013674 0.062756
0.465339 -0.017170 0.019147
0.465339 0.000393 0.017395
0.465339 -0.086223 0.001322
0.465339 -0.060602 0.071620
0.465339 -0.008054 -0.000821
0.465339 -0.047784 -0.082614
0.465339 -0.096758 0.005842
0.465339 0.036883 0.053732
0.465339 0.088204 -0.025392
0.465339 -0.051645 0.048939
0.465339 0.018816 -0.063698
0.465339 -0.028928 0.033691
0.465339 -0.023846 0.035174
0.465339 0.015050 -0.043113
0.465339 -0.026796 -0.089298
0.465339 -0.085894 0.005698
0.465339 -0.016033 0.000585
0.465339 -0.024635 0.093512
0.465339 -0.035459 -0.084628
0.465339 0.002786 -0.010161
0.465339 -0.075862 -0.009544
0.465339 -0.020971 0.077331
0.465339 0.043111 0.011256
0.465339 0.050448 -0.085992
0.465339 0.035658 0.007785
0.465339 -0.021853 -0.093781
0.465339 -0.034613 0.003070
0.465339 -0.021248 -0.087101
0.465339 0.026660 -0.080329
0.465339 -0.020749 -0.005145
0.465339 -0.006461 0.077857
0.465339 0.053237 0.079552
0.465339 -0.010769 -0.061994
0.465339 -0.090847 -0.038211
0.465339 -0.080757 0.036491
0.465339 -0.058579 -0.013428
0.465339 -0.073306 0.048384
0.465339 -0.052124 0.042555
0.465339 -0.059530 0.046220
0.465339 -0.025167 -0.011791
0.465339 0.076799 0.018599
0.465339 0.038019 0.072294
0.465339 -0.020133 -0.055010
0.465339 -0.053557 -0.067763
0.465339 0.026677 -0.089205
0.465339 0.054579 -0.041428
0.465339 -0.004964 0.017765
0.465339 0.045899 -0.013505
0.465339 -0.088134 -0.041813
0.465339 -0.067575 0.054938
0.465339 -0.012996 0.008831
0.465339 0.020691 -0.066150
0.465339 0.012722 -0.008984
0.465339 0.064142 0.005478
0.465339 -0.026938 -0.011933
0.465339 0.010124 0.068199
0.465339 -0.048448 -0.076885
0.465339 -0.039209 -0.079242
0.465339 0.008597 0.039292
0.465339 0.086393 0.020076
0.465339 0.049631 0.015744
0.465339 -0.092903 -0.021301
0.465339 -0.051526 0.045432
0.465339 -0.038990 0.020593
0.465339 -0.014684 0.009232
0.465339 -0.030912 0.034325
0.465339 0.071656 0.068339
0.465339 -0.021744 -0.036357
0.465339 -0.037679 -0.078303
0.465339 0.028305 -0.037515
0.465339 0.008019 -0.046979
0.465339 -0.024593 -0.013379
0.465339 0.011067 -0.098975
0.465339 0.064711 0.070177
0.465339 0.085922 0.009011
0.465339 -0.087791 -0.018176
0.465339 -0.017477 -0.086477
0.465339 -0.093860 -0.017566
0.465339 -0.011056 0.076931
0.465339 0.077579 0.051913
0.465339 0.020444 -0.088586
0.465339 -0.031600 -0.024689
0.465339 0.050621 0.054353
0.465339 0.029908 0.076671
0.465339 -0.034295 -0.001776
0.465339 -0.004434 0.078458
0.465339 0.098178 0.014851
0.465339 0.030440 0.024116
0.465339 0.047961 -0.010488
0.465339 -0.043268 -0.010489
0.465339 -0.007299 -0.077444
0.465339 0.083453 0.003092
0.465339 -0.072035 -0.022481
0.465339 -0.059553 0.016120
0.465339 0.078362 0.024799
0.465339 -0.011718 -0.090448
0.465339 -0.044602 0.029734
0.465339 -0.016256 0.087832
0.465339 -0.032435 0.070018
0.465339 0.099229 0.007520
0.465339 0.023971 -0.018221
0.465339 0.033827 0.027547
0.465339 0.078758 -0.045940
0.465339 0.051605 -0.033331
0.465339 -0.077412 -0.032962
0.465339 -0.083179 0.004788
0.465339 0.061543 -0.063244
0.465339 -0.006819 0.035721
0.465339 0.077615 -0.045003
0.465339 0.034273 -0.021630
0.465339 0.056260 0.023977
0.465339 0.021600 -0.005209
0.465339 -0.020144 0.097952
0.465339 -0.033306 0.090504
0.465339 -0.002603 0.024027
0.465339 -0.028020 -0.073178
0.465339 0.009662 -0.014173
0.465339 -0.022631 -0.049488
0.465339 -0.052423 0.002978
0.465339 0.064433 0.064404
0.465339 0.012379 0.040214
0.465339 0.097925 0.006593
0.465339 0.038447 -0.026489
0.465339 -0.046393 -0.015852
0.465339 -0.001935 -0.009507
0.465339 0.033864 -0.053333
0.465339 0.070500 0.048084
0.465339 0.030749 0.055979
0.465339 0.084136 -0.031867
0.465339 -0.062861 0.049672
0.465339 0.015314 -0.002906
0.465339 -0.044790 -0.044838
0.465339 0.009137 0.003479
0.465339 -0.071524 -0.045852
0.465339 -0.056117 -0.043380
0.465339 0.099687 -0.000802
0.465339 -0.068552 -0.005990
0.465339 -0.012629 -0.012558
0.465339 -0.056550 0.035502
0.465339 0.012451 -0.065684
0.465339 -0.014967 -0.074979
0.465339 0.024685 0.047894
0.465339 0.021501 0.016608
0.465339 0.085834 -0.029447
0.465339 -0.034134 0.078349
0.465339 0.003289 -0.056416
0.465339 -0.006400 -0.011610
0.465339 -0.031316 0.093327
0.465339 -0.079904 0.002321
0.465339 -0.045279 -0.004723
0.465339 -0.059558 0.051277
0.465339 0.016997 0.065306
0.465339 0.003288 -0.011594
0.465339 0.067157 -0.004576
0.465339 0.035696 0.030225
0.465339 -0.017715 0.062218
0.465339 0.033858 0.036029
0.465339 -0.044895 0.047797
0.465339 0.031217 -0.015743
0.465339 -0.018954 -0.069367
0.465339 -0.034663 -0.020731
0.465339 -0.009443 0.097642
0.465339 0.015089 0.011825
0.465339 0.026872 0.050200
0.465339 -0.038561 -0.022811
0.465339 -0.026661 -0.074003
0.465339 -0.068764 0.013658
0.465339 -0.013431 -0.063181
0.465339 0.002292 0.070956
0.465339 -0.026795 0.074533
0.465339 0.083571 0.020841
0.465339 -0.011549 0.021049
0.465339 0.023541 0.063935
0.465339 -0.037396 -0.035374
0.465339 0.090676 -0.039639
0.465339 -0.015553 -0.025408
0.465339 0.067861 0.060406
0.465339 0.004916 0.062394
0.465339 0.089615 0.043552
0.465339 0.052841 -0.005764
0.465339 0.032198 0.051035
0.465339 0.001029 0.029964
0.465339 -0.052178 -0.012385
0.465339 -0.069948 -0.039050
0.465339 0.064491 -0.047667
0.465339 -0.058957 -0.039157
0.465339 0.054239 0.028747
0.465339 0.033968 -0.056336
0.465339 -0.002620 0.084581
0.465339 0.012558 -0.022785
0.465339 0.071482 -0.037899
0.465339 -0.051488 -0.062243
0.465339 0.012987 0.012063
0.465339 -0.047791 -0.050116
0.465339 0.086599 0.044305
0.465339 0.073053 -0.005217
0.465339 -0.049873 -0.077035
0.465339 0.005389 -0.006695
0.465339 0.073664 -0.063708
0.465339 -0.000338 -0.082377
0.465339 -0.000006 0.055672
0.465339 0.010561 0.034291
0.465339 0.024203 0.031071
0.465339 0.084191 0.041977
0.465339 0.045444 -0.004165
0.465339 -0.027188 -0.055431
0.465339 -0.058169 0.043661
0.465339 -0.085506 -0.005003
0.465339 0.065870 0.044974
0.465339 0.052278 -0.063373
0.465339 -0.087655 0.039713
0.465339 0.014620 -0.060451
0.465339 0.046040 0.077544
0.465339 -0.093307 0.034151
0.465339 -0.017688 0.092742
0.465339 -0.060831 0.047363
0.465339 -0.049182 -0.042463
0.465339 -0.005621 0.065432
0.465339 0.065425 0.011768
0.465339 -0.044618 -0.088374
0.465339 0.069747 -0.022834
0.465339 0.039405 0.019912
0.465339 0.028591 0.070148
0.465339 0.032961 0.010321
0.465339 0.007032 0.087134
0.465339 0.015344 0.007372
0.465339 0.090336 0.002928
0.465339 -0.035543 0.084369
0.465339 0.070009 0.068335
0.465339 -0.042669 0.054781
0.465339 0.087855 0.024615
0.465339 0.084491 0.002086
0.465339 -0.009959 0.007870
0.465339 -0.027058 -0.007760
0.465339 -0.075733 -0.062792
0.465339 -0.024460 -0.071687
0.465339 0.030550 -0.000664
0.465339 -0.072475 0.066314
0.465339 0.061974 -0.034962
0.465339 0.023407 0.093259
0.465339 0.026657 0.091622
0.465339 0.007601 -0.056276
0.465339 0.030514 -0.019794
0.465339 0.025531 0.057384
0.465339 0.081352 -0.057576
0.465339 -0.060065 -0.017276
0.465339 0.004031 0.047067
0.465339 0.020657 -0.033871
0.465339 -0.069746 0.008448
0.465339 0.086770 0.026035
0.465339 0.031647 -0.017176
0.465339 0.033765 0.090239
0.465339 -0.029302 -0.018886
0.465339 -0.066676 0.028269
0.465339 0.037610 -0.083702
0.465339 -0.022760 -0.062958
0.465339 -0.050119 0.038441
0.465339 -0.091026 0.022937
0.465339 -0.014042 0.031732
0.465339 0.022300 -0.016003
0.465339 -0.081742 0.023482
0.465339 0.076642 -0.030356
0.465339 0.044305 -0.083224
0.465339 -0.096044 -0.021605
0.465339 0.012663 0.063848
0.465339 -0.039223 0.036875
0.465339 -0.024010 0.038936
0.465339 0.017622 -0.097970
0.465339 0.063828 -0.016775
0.465339 0.012516 -0.032652
0.465339 -0.035645 -0.082962
0.465339 -0.001544 0.022335
0.465339 0.053248 0.001185
0.465339 0.050990 0.077728
0.465339 -0.086943 0.036477
0.465339 0.023797 0.012908
0.465339 -0.086267 0.026379
0.465339 0.004340 -0.039371
0.465339 -0.013133 0.041096
0.465339 0.056172 -0.000027
0.465339 -0.022544 -0.081392
0.465339 -0.019335 -0.042425
0.465339 0.031420 -0.066946
0.465339 -0.061409 0.050530
0.465339 0.074906 0.006976
0.465339 0.061584 0.011582
0.465339 0.032181 0.041087
0.465339 -0.025809 -0.037449
0.465339 -0.007355 -0.074620
0.465339 -0.031539 0.032981
0.465339 0.003977 0.014144
0.465339 0.022623 -0.069549
0.465339 0.063209 0.045967
0.465339 -0.002835 -0.003401
0.465339 -0.050713 0.051486
0.465339 0.010285 0.050729
0.465339 0.002852 0.015162
0.465339 0.014689 0.057490
0.465339 -0.028476 -0.016236
0.465339 -0.054705 -0.018121
0.465339 0.052530 -0.035579
0.465339 -0.043651 0.053076
0.465339 -0.029910 -0.044500
0.465339 -0.027562 0.001905
0.465339 -0.048206 0.002396
0.465339 -0.017570 0.095987
0.465339 -0.029257 0.066910
0.465339 0.038480 0.049895
0.465339 -0.040989 0.074916
0.465339 0.004514 0.090132
0.465339 -0.076089 -0.011064
0.465339 -0.092057 -0.008485
0.465339 0.047383 0.034524
0.465339 0.011476 0.036195
0.465339 -0.075829 0.017961
0.465339 0.004700 -0.066330
0.465339 0.000825 -0.055335
0.465339 0.031511 0.038018
0.465339 -0.056745 -0.006914
0.465339 0.024758 0.024023
0.465339 0.065088 -0.053052
0.465339 0.044224 -0.014784
0.465339 -0.021189 0.045566
0.465339 -0.045914 0.067078
0.465339 -0.022917 0.074651
0.465339 0.068631 -0.011710
0.465339 0.046222 -0.010531
0.465339 0.013349 -0.084894
0.465339 -0.003178 0.063347
0.465339 -0.037371 -0.085971
0.465339 0.063014 -0.027686
0.465339 0.028811 0.001826
0.465339 -0.078650 0.009025
0.465339 0.039336 0.012736
0.465339 -0.035654 -0.006661
0.465339 -0.057665 -0.038373
0.465339 -0.006437 0.058377
0.465339 -0.074970 0.040760
0.465339 -0.016400 0.042920
0.465339 -0.006546 -0.019076
0.465339 0.015624 0.058860
0.465339 0.038298 0.005252
0.465339 0.033889 0.055654
0.465339 0.082908 -0.002608
0.465339 0.026516 -0.030374
0.465339 -0.044607 0.074531
0.465339 -0.072285 0.018334
0.465339 -0.049973 0.023228
0.465339 -0.044226 0.040379
0.465339 -0.043114 0.011146
0.465339 0.007483 -0.073156
0.465339 0.053350 -0.030485
0.465339 0.028156 0.090216
0.465339 -0.013192 0.087409
0.465339 0.041584 0.046690
0.465339 -0.077011 0.008068
0.465339 -0.042390 -0.063622
0.465339 -0.013691 0.017741
0.465339 -0.038365 -0.011039
0.465339 -0.039873 0.062219
0.465339 0.097084 -0.006608
0.465339 -0.010277 0.083269
0.465339 -0.034728 -0.075028
0.465339 -0.038568 0.061467
0.465339 -0.064155 0.071337
0.465339 -0.082857 -0.039297
0.465339 0.032836 -0.051945
0.465339 -0.034485 -0.026419
0.465339 -0.057693 0.018514
0.465339 -0.044282 -0.006351
0.465339 0.090671 0.015879
0.465339 0.061982 -0.074059
0.465339 0.065790 0.072668
0.465339 -0.000944 -0.031707
0.465339 0.002998 0.008032
0.465339 0.091592 -0.021187
0.465339 0.082802 0.008837
0.465339 -0.027164 -0.023987
0.465339 -0.059162 -0.030063
0.465339 -0.012732 0.082851
0.465339 0.033281 -0.050290
0.465339 -0.061818 -0.030809
0.465339 -0.023973 -0.078655
0.465339 0.061096 -0.069583
0.465339 0.021399 -0.010042
0.465339 -0.089701 -0.000662
0.465339 0.028538 -0.078924
0.465339 -0.040606 0.016059
0.465339 -0.067365 -0.054855
0.465339 -0.017128 0.074211
0.465339 0.058977 -0.054956
0.465339 0.009911 0.098685
0.465339 -0.057587 0.002885
0.465339 0.022489 -0.087658
0.465339 -0.029686 0.075962
0.465339 0.035931 0.081557
0.465339 0.002226 -0.006351
0.465339 0.020604 0.023826
0.465339 -0.032333 0.082495
0.465339 -0.054253 -0.073732
0.465339 0.011049 0.058341
0.465339 0.009593 0.036180
0.465339 -0.056270 0.001247
0.465339 0.026071 -0.039123
0.465339 0.043769 0.076261
0.465339 -0.013452 0.059130
0.465339 -0.046520 0.063250
0.465339 -0.009927 -0.052086
0.465339 0.005263 0.051014
0.465339 0.035120 -0.060011
0.465339 0.030484 0.049255
0.465339 -0.023150 -0.095377
0.465339 -0.034217 -0.033094
0.465339 -0.065599 -0.041642
0.465339 0.030715 -0.022230
0.465339 0.021528 -0.081715
0.465339 0.000064 -0.037690
0.465339 0.072380 -0.042538
0.465339 -0.041429 0.088493
0.465339 0.060636 -0.017361
0.465339 0.002085 -0.069176
0.465339 -0.019555 0.020693
0.465339 0.052740 -0.077544
0.465339 -0.021343 0.086743
0.465339 0.024059 0.081271
0.465339 0.011371 -0.012395
0.465339 0.015387 -0.098438
0.465339 -0.007394 -0.036124
0.465339 -0.010093 -0.090807
0.465339 0.001715 -0.074555
0.465339 0.056161 0.060331
0.465339 0.028883 0.009591
0.465339 0.025666 0.062943
0.465339 0.077480 -0.046594
0.465339 -0.019891 0.024761
0.465339 0.055375 -0.065947
0.465339 -0.022708 -0.001581
0.465339 0.020835 0.042067
0.465339 0.090231 -0.004877
0.465339 -0.036392 -0.092575
0.465339 0.057513 0.003505
0.465339 0.092316 -0.036379
0.465339 0.076140 -0.043702
0.465339 0.051215 0.028742
0.465339 0.023826 0.018531
0.465339 -0.065952 -0.069210
0.465339 0.066560 -0.032851
0.465339 -0.057808 -0.019128
0.465339 -0.042679 0.074884
0.465339 -0.054007 -0.022422
0.465339 0.079307 -0.047277
0.465339 -0.019180 0.010494
0.465339 -0.056746 0.063697
0.465339 -0.022018 -0.040095
0.465339 -0.035342 0.066148
0.465339 0.041974 -0.045141
0.465339 -0.034438 0.011403
0.465339 -0.082589 -0.025373
0.465339 -0.027807 0.078269
0.465339 0.007625 0.083121
0.465339 0.083153 0.026713
0.465339 -0.013759 -0.019014
0.465339 0.034532 0.091758
0.465339 0.072469 0.033096
0.465339 -0.044430 0.076347
0.465339 0.008820 -0.067787
0.465339 -0.021118 -0.038906
0.465339 -0.020274 -0.019427
0.465339 -0.062153 0.023743
0.465339 0.003106 0.041023
0.465339 0.026468 -0.094553
0.465339 -0.091337 -0.000149
0.465339 -0.065946 -0.033167
0.465339 0.027171 -0.040367
0.465339 0.008857 -0.081994
0.465339 -0.053431 -0.036196
0.465339 0.047322 -0.046571
0.465339 -0.003906 -0.047814
0.465339 -0.069748 0.036301
0.465339 -0.080721 -0.031237
0.465339 0.006258 -0.063711
0.465339 -0.009616 -0.081835
0.465339 -0.023574 -0.045037
0.465339 -0.048595 0.023744
0.465339 -0.082187 -0.052574
0.465339 0.047635 -0.014037
0.465339 -0.046471 0.033930
0.465339 0.037643 -0.078824
0.465339 0.022355 0.031001
0.465339 -0.015227 0.098528
0.465339 -0.044775 0.024675
0.465339 0.044082 0.059117
0.465339 0.005470 0.087442
0.465339 0.024783 0.086038
0.465339 -0.084397 -0.039488
0.465339 0.058629 -0.066185
0.465339 0.046301 -0.039960
0.465339 -0.084107 0.012162
0.465339 0.023956 -0.012893
0.465339 -0.038821 0.014152
0.465339 -0.060568 0.035170
0.465339 0.055901 -0.042188
0.465339 -0.030607 -0.026041
0.465339 -0.021937 -0.092017
0.465339 0.089236 -0.024083
0.465339 -0.020321 0.063614
0.465339 0.071597 0.007699
0.465339 -0.026047 0.005801
0.465339 0.015758 -0.025365
0.465339 0.005614 -0.036839
0.465339 0.063969 0.053946
0.465339 0.035623 0.043322
0.465339 0.047356 0.066844
0.465339 0.014938 -0.056282
0.465339 -0.011148 0.011243
0.465339 0.079480 -0.021662
0.465339 0.046736 0.029413
0.465339 0.016507 0.031233
0.465339 -0.038667 -0.025292
0.465339 0.090605 -0.012674
0.465339 0.050440 0.042545
0.465339 0.004847 -0.019339
0.465339 -0.098143 -0.009050
0.465339 0.042486 -0.006282
0.465339 0.069444 0.058021
0.465339 -0.030628 -0.091702
0.465339 0.024267 -0.075799
0.465339 -0.053307 0.004994
0.465339 0.004459 -0.080140
0.465339 0.020690 -0.069406
0.465339 0.002678 -0.029510
0.465339 0.018375 -0.081527
0.465339 -0.027974 0.076362
0.465339 -0.056564 0.054462
0.465339 0.024980 -0.046112
0.465339 0.061725 0.061403
0.465339 -0.043149 -0.072825
0.465339 0.083919 -0.003801
0.465339 -0.054418 0.070436
0.465339 -0.089247 -0.025682
0.465339 0.023844 0.032598
0.465339 0.063241 0.075449
0.465339 0.041655 -0.076801
0.465339 -0.093897 0.020145
0.465339 0.017517 0.025752
0.465339 -0.090465 -0.031436
0.465339 0.025772 -0.028796
0.465339 -0.080744 0.019954
0.465339 -0.034071 0.080857
0.465339 0.020201 0.050796
0.465339 -0.054494 -0.030026
0.465339 0.010682 0.076111
0.465339 -0.047199 0.004182
0.465339 0.065634 0.065863
0.465339 0.010607 0.095693
0.465339 -0.060174 -0.071476
0.465339 0.049457 0.069276
0.465339 -0.050218 -0.022788
0.465339 -0.074994 -0.021746
0.465339 0.067002 0.012280
0.465339 -0.040510 -0.029297
0.465339 -0.021268 0.008446
0.465339 -0.088876 0.037012
0.465339 -0.092707 -0.027315
0.465339 0.029608 0.026373
0.465339 0.043719 0.082739
0.465339 0.018029 0.030355
0.465339 -0.018638 0.094578
0.465339 0.046799 0.016713
0.465339 0.089346 -0.027418
0.465339 0.075024 -0.064412
0.465339 0.023346 0.007385
0.465339 -0.087377 0.031131
0.465339 -0.027412 0.050090
0.465339 0.014479 0.006212
0.465339 -0.065448 -0.074688
0.465339 -0.077654 0.017055
0.465339 0.021939 0.064301
0.465339 0.039743 -0.076976
0.465339 0.011813 -0.092813
0.465339 0.063693 -0.053476
0.465339 -0.053831 0.063282
0.465339 0.005509 -0.068628
0.465339 -0.028552 -0.033940
0.465339 -0.032652 0.009588
0.465339 -0.026836 0.020361
0.465339 -0.037601 -0.062720
0.465339 0.010590 -0.025222
0.465339 -0.010093 0.016840
0.465339 0.056976 -0.023704
0.465339 0.036967 0.055636
0.465339 0.024793 0.078069
0.465339 -0.097988 0.001702
0.465339 0.060356 0.010535
0.465339 0.000572 0.073517
0.465339 0.053979 0.034001
0.465339 0.068213 -0.031757
0.465339 -0.026339 0.091799
0.465339 -0.004862 0.021158
0.465339 0.000137 0.041088
0.465339 0.019400 -0.068285
0.465339 0.050954 0.006478
0.465339 0.082250 0.044653
0.465339 -0.036827 -0.009601
0.465339 0.055060 -0.014569
0.465339 0.024693 0.066945
0.465339 -0.000864 0.009314
0.465339 0.035683 0.079019
0.465339 -0.069971 0.069057
0.465339 -0.070320 0.022720
0.465339 0.013826 -0.045635
0.465339 -0.089239 0.007173
0.465339 0.091105 -0.037800
0.465339 -0.015895 0.007489
0.465339 -0.069362 -0.027736
0.465339 -0.077469 -0.011875
0.465339 -0.015275 0.074313
0.465339 -0.054662 -0.041063
0.465339 -0.012430 0.036874
0.465339 -0.007931 -0.005781
0.465339 0.028648 -0.029641
0.465339 0.050427 -0.044410
0.465339 0.018866 0.029078
0.465339 0.028159 -0.044095
0.465339 0.071829 -0.016554
0.465339 -0.004104 -0.059937
0.465339 0.036064 -0.061641
0.465339 -0.042734 -0.004845
0.465339 -0.033300 0.063853
0.465339 -0.007154 -0.087089
0.465339 0.047991 -0.007381
0.465339 0.029611 -0.030828
0.465339 -0.031576 -0.081220
0.465339 0.008816 -0.048622
0.465339 -0.055517 -0.049200
0.465339 -0.067838 -0.062842
0.465339 0.035209 -0.010203
0.465339 0.011150 0.073941
0.465339 -0.049291 -0.064463
0.465339 0.014801 0.067182
0.465339 -0.056521 -0.071622
0.465339 0.041337 0.053673
0.465339 -0.000184 0.099127
0.465339 0.054860 -0.062720
0.465339 0.013052 0.080331
0.465339 0.005277 0.007910
0.465339 -0.060750 -0.042613
0.465339 0.060813 0.049465
0.465339 -0.009115 -0.084579
0.465339 0.073558 -0.012654
0.465339 -0.090536 0.005312
0.465339 -0.044878 0.034069
0.465339 -0.062639 -0.075133
0.465339 -0.089696 0.027880
0.465339 -0.031635 -0.045078
0.465339 0.046435 0.012376
0.465339 -0.019077 0.023242
0.465339 -0.077028 -0.046698
0.465339 -0.052918 0.079041
0.465339 0.012853 -0.060136
0.465339 0.022952 -0.042715
0.465339 -0.063009 -0.054105
0.465339 0.045395 -0.024214
0.465339 0.038101 -0.028336
0.465339 -0.074170 -0.007763
0.465339 0.021992 0.050754
0.465339 -0.063945 -0.045946
0.465339 -0.053583 0.014881
0.465339 0.071593 0.002933
0.465339 -0.017993 0.046638
0.465339 0.046602 -0.034895
0.465339 -0.013644 -0.051596
0.465339 0.006073 -0.072910
0.465339 -0.020360 0.074949
0.465339 -0.078913 -0.051800
0.465339 -0.052769 -0.017179
0.465339 -0.063625 -0.031333
0.465339 0.017636 -0.054163
0.465339 0.011152 -0.083302
0.465339 0.072495 -0.008928
0.465339 -0.097560 0.008638
0.465339 0.009529 0.060759
0.465339 0.048857 0.085704
0.465339 -0.074297 -0.041413
0.465339 -0.001122 -0.057486
0.465339 -0.016948 -0.000817
0.465339 -0.078504 -0.025516
0.465339 -0.020866 0.060697
0.465339 0.007083 0.047409
0.465339 -0.086753 0.011306
0.465339 -0.086099 0.032114
0.465339 -0.076155 0.054213
0.465339 0.074979 -0.014468
0.465339 0.094643 -0.000384
0.465339 -0.009997 -0.048830
0.465339 0.027728 0.061347
0.465339 -0.024888 -0.089006
0.465339 -0.017962 -0.044452
0.465339 0.054960 0.055166
0.465339 0.013645 -0.011746
0.465339 0.037308 -0.008628
0.465339 0.066315 -0.066587
0.465339 0.015983 0.015679
0.465339 -0.091785 -0.018316
0.465339 0.041351 -0.023929
0.465339 0.000892 -0.069877
0.465339 0.004308 -0.031634
0.465339 -0.072538 0.035575
0.465339 0.039693 0.061521
0.465339 0.049898 0.086713
0.465339 0.061473 -0.030009
0.465339 -0.076203 0.046322
0.465339 0.055863 0.041544
0.465339 0.065083 -0.020885
0.465339 -0.011047 -0.013224
0.465339 0.053434 0.032069
0.465339 0.011300 -0.079480
0.465339 -0.027408 -0.018316
0.465339 0.052983 -0.054505
0.465339 0.045777 -0.055564
0.465339 0.090768 0.022440
0.465339 -0.026247 0.047994
0.465339 -0.070886 0.021286
0.465339 -0.048148 -0.026312
0.465339 -0.068887 0.063771
0.465339 0.043831 0.050377
0.465339 -0.037407 0.068557
0.465339 -0.051862 0.060408
0.465339 -0.001486 0.035278
0.465339 -0.023275 0.040708
0.465339 0.031957 -0.026742
0.465339 0.042267 -0.079515
0.465339 0.010295 -0.072434
0.465339 -0.021107 0.025530
0.465339 -0.044135 -0.000101
0.465339 -0.041648 0.079754
0.465339 0.072626 0.037006
0.465339 -0.005390 -0.050752
0.465339 0.022405 -0.039942
0.465339 -0.035971 -0.044900
0.465339 0.050627 0.083738
0.465339 0.036341 -0.070158
0.465339 0.035222 0.060473
0.465339 0.044334 -0.062441
0.465339 0.064884 -0.044851
0.465339 -0.002011 0.045161
0.465339 0.091819 0.006095
0.465339 0.000740 -0.043298
0.465339 0.030837 -0.073055
0.465339 0.055097 0.030324
0.465339 -0.028743 0.030342
0.465339 0.052242 0.081475
0.465339 0.008178 0.005536
0.465339 -0.089659 -0.041908
0.465339 0.044803 -0.080939
0.465339 -0.026345 -0.057369
0.465339 0.084022 0.016214
0.465339 0.040978 0.027695
0.465339 -0.044223 -0.046447
0.465339 0.003990 0.081278
0.465339 -0.056270 0.075309
0.465339 0.086593 -0.046978
0.465339 0.037814 0.067290
0.465339 -0.001719 -0.095983
0.465339 0.042462 0.064657
0.465339 -0.007385 -0.020976
0.465339 0.073141 0.056444
0.465339 -0.006972 -0.098821
0.465339 -0.009629 -0.067368
0.465339 -0.015502 0.075954
0.465339 0.002049 0.027080
0.465339 -0.001175 0.020005
0.465339 -0.005057 0.033986
0.465339 -0.087203 0.048495
0.465339 0.029766 -0.071354
0.465339 0.063356 0.023389
0.465339 0.068516 -0.051940
0.465339 -0.033825 0.007267
0.465339 -0.008784 -0.083063
0.465339 0.032409 0.064015
0.465339 -0.016184 -0.010830
0.465339 -0.030294 -0.035316
0.465339 0.060516 -0.055443
0.465339 0.023751 -0.045389
0.465339 0.055695 -0.068681
0.465339 0.045453 0.042329
0.465339 0.028562 0.080213
0.465339 -0.083893 -0.053603
0.465339 0.005429 -0.003289
0.465339 0.054715 0.064790
0.465339 -0.043687 -0.062889
0.465339 0.060123 -0.013160
0.465339 -0.042619 -0.070584
0.465339 -0.078977 0.003804
0.465339 -0.025269 0.065142
0.465339 -0.017319 0.026126
0.465339 0.070643 -0.049486
0.465339 0.010489 -0.019603
0.465339 0.019127 0.055107
0.465339 -0.051060 0.053744
0.465339 0.019560 -0.062544
0.465339 -0.022020 -0.004104
0.465339 0.065749 0.062334
0.465339 0.038891 -0.008802
0.465339 -0.008212 -0.015395
0.465339 -0.042725 -0.056240
0.465339 -0.007766 0.088721
0.465339 -0.038373 0.035434
0.465339 0.010277 -0.077263
0.465339 0.086471 -0.027273
0.465339 0.034854 0.021904
0.465339 0.005058 -0.054002
0.465339 -0.047852 -0.074585
0.465339 0.068589 0.025927
0.465339 0.063590 0.067941
0.465339 0.054101 -0.047152
0.465339 -0.075312 0.059453
0.465339 0.030966 0.039981
0.465339 -0.038207 -0.003874
0.465339 0.037535 0.026393
0.465339 0.033999 0.076701
0.465339 -0.039791 -0.016162
0.465339 0.000007 -0.019629
0.465339 0.031207 -0.031454
0.465339 0.035205 0.010280
0.465339 0.059345 -0.022463
0.465339 0.011890 0.019379
0.465339 -0.010384 0.032224
0.465339 -0.039781 0.038215
0.465339 -0.059362 -0.078872
0.465339 -0.036315 -0.024441
0.465339 -0.057140 -0.055202
0.465339 0.037539 0.092197
0.465339 -0.022233 0.031576
0.465339 -0.048739 0.017142
0.465339 -0.045408 0.064499
0.465339 0.067141 0.052146
0.465339 -0.080451 0.042767
0.465339 0.036393 -0.046198
0.465339 -0.095642 -0.012674
0.465339 0.047164 -0.000180
0.465339 -0.061706 -0.073686
0.465339 -0.073895 0.012108
0.465339 -0.024273 0.011859
0.465339 -0.035538 0.019822
0.465339 0.015833 0.003802
0.465339 -0.024512 -0.003493
0.465339 -0.024036 0.095051
0.465339 0.002782 0.038121
0.465339 0.053517 -0.075901
0.465339 0.012768 0.066739
0.465339 0.077261 0.058250
0.465339 -0.056635 0.019457
0.465339 -0.034384 -0.019359
0.465339 0.041316 0.080424
0.465339 -0.026397 0.081207
0.465339 0.012336 0.022311
0.465339 -0.038130 0.041604
0.465339 0.071785 -0.052985
0.465339 -0.021995 0.039971
0.465339 0.074744 -0.020694
0.465339 0.006052 0.023196
0.465339 0.039538 0.021734
0.465339 0.070725 0.032841
0.465339 -0.088166 0.021944
0.465339 -0.024348 -0.062459
0.465339 -0.067885 -0.028590
0.465339 0.064605 -0.007914
0.465339 -0.036029 -0.055077
0.465339 -0.075154 0.042885
0.465339 0.038798 0.083087
0.465339 -0.038628 -0.042281
0.465339 0.047847 0.068309
0.465339 -0.050949 -0.001313
0.465339 0.044410 0.021335
0.465339 0.056170 -0.078860
0.465339 -0.090702 -0.007251
0.465339 -0.014956 0.030023
0.465339 -0.028415 0.087361
0.465339 -0.014640 -0.044742
0.465339 0.099386 0.001898
0.465339 -0.080314 0.054832
0.465339 0.015794 -0.072379
0.465339 0.067523 -0.035610
0.465339 0.086902 0.049478
0.465339 -0.033348 0.061669
0.465339 0.073275 -0.027105
0.465339 -0.034285 0.059233
0.465339 -0.019261 0.096210
0.465339 -0.004853 0.067277
0.465339 -0.009432 -0.030435
0.465339 0.061439 0.073961
0.465339 0.039017 -0.063969
0.465339 0.095925 0.027531
0.465339 -0.046915 0.022176
0.465339 0.002529 0.004700
0.465339 0.041373 -0.043651
0.465339 0.092159 -0.015139
0.465339 -0.001918 -0.073476
0.465339 -0.096304 -0.023808
0.465339 0.058944 -0.027656
0.465339 -0.066131 0.005387
0.465339 0.002311 -0.001541
0.465339 0.024934 -0.048485
0.465339 0.047800 0.060860
0.465339 -0.047798 0.015998
0.465339 0.053455 0.003410
0.465339 0.028601 -0.083788
0.465339 -0.068750 0.021368
0.465339 -0.007575 0.025173
0.465339 -0.024041 0.081302
0.465339 -0.060827 -0.065650
0.465339 -0.042631 0.046650
0.465339 -0.062339 -0.044999
0.465339 -0.053666 -0.023938
0.465339 -0.025595 -0.090325
0.465339 -0.063991 0.072690
0.465339 -0.052930 0.010923
0.465339 0.062530 -0.042127
0.465339 0.051129 0.008616
0.465339 0.049805 -0.010056
0.465339 0.036872 -0.092445
0.465339 -0.035001 0.028685
0.465339 -0.024416 -0.074432
0.465339 0.018180 -0.042911
0.465339 0.042904 -0.043944
0.465339 -0.036028 0.051672
0.465339 0.019612 -0.079614
0.465339 -0.015375 0.044551
0.465339 0.011978 -0.050195
0.465339 0.069649 0.053667
0.465339 0.098206 0.004439
0.465339 -0.053526 0.080473
0.465339 0.085757 0.034700
0.465339 0.001771 -0.044384
0.465339 -0.027877 -0.021012
0.465339 0.043846 0.007923
0.465339 -0.017482 -0.051987
0.465339 -0.053713 0.036968
0.465339 -0.010305 -0.077292
0.465339 0.015012 -0.053720
0.465339 -0.073904 0.067058
0.465339 0.032865 0.008445
0.465339 -0.027586 0.094381
0.465339 0.075303 0.008378
0.465339 0.010908 -0.047782
0.465339 -0.093734 0.021629
0.465339 -0.032308 -0.087340
0.465339 0.036378 0.072603
0.465339 -0.071836 -0.028586
0.465339 -0.062357 -0.066016
0.465339 -0.036496 0.059537
0.465339 0.047128 0.032729
0.465339 0.047721 0.013490
0.465339 0.036154 -0.063814
0.465339 0.054137 -0.008621
0.465339 -0.057505 0.038888
0.465339 0.017034 -0.077643
0.465339 0.006785 -0.077325
0.465339 0.072509 -0.000264
0.465339 0.096384 -0.005442
0.465339 0.029081 0.048369
0.465339 0.040102 -0.022222
0.465339 0.058286 -0.078213
0.465339 -0.011695 -0.044724
0.465339 0.065900 -0.054884
0.465339 0.097097 -0.020945
0.465339 0.013509 0.058565
0.465339 -0.038896 -0.009406
0.465339 0.000321 -0.007526
0.465339 -0.022485 0.094938
0.465339 -0.065891 0.023239
0.465339 0.008155 -0.036400
0.465339 0.039165 -0.003131
0.465339 0.035230 -0.071812
0.465339 -0.002575 -0.064265
0.465339 0.006475 -0.060681
0.465339 0.026032 0.071555
0.465339 -0.044613 0.044698
0.465339 -0.010718 0.057469
0.465339 0.003813 -0.003481
0.465339 0.031527 -0.068889
0.465339 -0.043492 -0.054893
0.465339 -0.094916 -0.022787
0.465339 -0.066063 0.031475
0.465339 0.002289 0.050773
0.465339 0.013532 0.033080
0.465339 0.053860 -0.033453
0.465339 0.070843 0.052038
0.465339 0.085710 -0.007362
0.465339 -0.000812 0.048762
0.465339 0.022125 0.000740
0.465339 0.021211 -0.016784
0.465339 -0.062199 0.040956
0.465339 -0.034171 -0.042716
0.465339 0.065527 -0.028624
0.465339 0.013982 0.099004
0.465339 0.077522 -0.022044
0.465339 -0.047419 -0.029131
0.465339 0.019265 0.025000
0.465339 -0.013812 -0.084544
0.465339 -0.005584 0.088250
0.465339 0.051507 -0.036823
0.465339 0.061096 -0.077928
0.465339 -0.036298 0.006073
0.465339 -0.002651 0.093705
0.465339 0.033853 -0.036328
0.465339 0.010043 0.062498
0.465339 -0.017539 -0.025223
0.465339 -0.084908 0.032920
0.465339 0.062876 -0.007302
0.465339 -0.025044 -0.053062
0.465339 0.029589 0.087133
0.465339 -0.014763 -0.011414
0.465339 -0.020779 -0.010842
0.465339 0.027714 -0.018652
0.465339 -0.048887 0.032922
0.465339 -0.081445 -0.021353
0.465339 0.012842 0.078551
0.465339 0.081105 -0.012603
0.465339 0.027394 0.087025
0.465339 0.084133 0.053385
0.465339 0.031578 0.001267
0.465339 -0.026369 -0.078481
0.465339 0.082419 -0.010201
0.465339 -0.018548 -0.080716
0.465339 -0.040010 -0.057321
0.465339 0.004557 -0.081583
0.465339 0.007830 0.096245
0.465339 -0.047782 0.084377
0.465339 -0.036512 0.082188
0.465339 0.031952 0.066004
0.465339 -0.028880 -0.047054
0.465339 0.094005 -0.031792
0.465339 0.002961 0.052565
0.465339 -0.023502 -0.088829
0.465339 -0.035724 0.088473
0.465339 -0.034334 -0.016559
0.465339 0.092841 -0.001560
0.465339 -0.000235 -0.059174
0.465339 0.046104 -0.076749
0.465339 0.061161 -0.014054
0.465339 0.049048 -0.051830
0.465339 0.054057 -0.068764
0.465339 0.086421 0.039572
0.465339 -0.023956 0.031095
0.465339 -0.055709 0.008593
0.465339 -0.030415 -0.075220
0.465339 -0.043534 0.048815
0.465339 0.005152 -0.028213
0.465339 -0.079690 0.031488
0.465339 -0.036818 0.020450
0.465339 0.024630 0.087544
0.465339 0.009871 0.016551
0.465339 -0.023139 -0.009016
0.465339 -0.001505 0.041846
0.465339 0.065685 0.007973
0.465339 0.010759 -0.055546
0.465339 -0.014209 0.081849
0.465339 0.093100 0.000506
0.465339 0.027541 -0.061239
0.465339 -0.085039 -0.013369
0.465339 -0.071946 -0.047606
0.465339 -0.047464 -0.040319
0.465339 -0.042624 -0.003226
0.465339 0.065532 -0.013663
0.465339 -0.083972 -0.050205
0.465339 0.092078 -0.022821
0.465339 0.042277 0.076870
0.465339 0.050071 0.049875
0.465339 -0.069411 0.062401
0.465339 -0.041370 -0.037663
0.465339 -0.023568 -0.085385
0.465339 -0.001268 0.075550
0.465339 0.029482 -0.090707
0.465339 -0.000409 0.044615
0.465339 0.051382 0.032453
0.465339 -0.067465 -0.018946
0.465339 -0.034973 0.043948
0.465339 0.034170 0.088834
0.465339 -0.039591 -0.071492
0.465339 0.056753 0.029801
0.465339 -0.063479 0.008909
0.465339 0.031842 -0.021065
0.465339 0.085509 -0.036919
0.465339 -0.005543 -0.055427
0.465339 0.026851 0.026388
0.465339 0.036397 -0.054087
0.465339 0.042895 0.061904
0.465339 -0.077680 0.045573
0.465339 -0.069864 -0.055947
0.465339 0.029598 -0.044535
0.465339 -0.036037 -0.040440
0.465339 -0.080423 -0.058026
0.465339 0.006570 0.078329
0.465339 0.014101 -0.071579
0.465339 0.029678 0.089993
0.465339 -0.010210 0.087653
0.465339 -0.056207 0.028899
0.465339 0.078036 -0.031223
0.465339 0.083629 0.052067
0.465339 -0.040141 -0.077298
0.465339 0.013504 -0.061454
0.465339 0.091159 0.036917
0.465339 0.067011 -0.027896
0.465339 -0.071209 0.026517
0.465339 0.043121 -0.081609
0.465339 -0.031717 -0.048942
0.465339 0.061413 0.008184
0.465339 -0.010738 0.018195
0.465339 0.053897 -0.038382
0.465339 -0.086744 -0.009360
0.465339 0.058373 0.057865
0.465339 -0.041481 0.030781
0.465339 -0.085887 0.044862
0.465339 0.080627 -0.048199
0.465339 0.038091 -0.071557
0.465339 0.048248 0.037989
0.465339 -0.027492 -0.005113
0.465339 -0.026119 -0.091764
0.465339 -0.004427 -0.015543
0.465339 0.052636 0.042873
0.465339 0.076143 0.012062
0.465339 0.071070 -0.001391
0.465339 -0.025965 0.001794
0.465339 -0.084428 0.003657
0.465339 -0.011791 0.043201
0.465339 0.010611 -0.023827
0.465339 0.000961 0.002077
0.465339 0.089103 -0.018033
0.465339 0.014568 0.047874
0.465339 0.038818 -0.084508
0.465339 0.021757 0.002466
0.465339 0.040397 -0.065437
0.465339 0.092720 0.018528
0.465339 -0.024115 -0.066161
0.465339 -0.038952 0.026643
0.465339 -0.074529 0.029946
0.465339 -0.078036 -0.030069
0.465339 0.019458 0.026415
0.465339 -0.085038 0.000495
0.465339 0.004849 -0.070373
0.465339 -0.044693 0.009818
0.465339 0.013751 0.081852
0.465339 0.097284 0.013587
0.465339 -0.064311 0.060314
0.465339 -0.062206 0.076249
0.465339 0.016667 0.076953
0.465339 -0.030246 0.041988
0.465339 -0.032112 0.078740
0.465339 -0.039722 0.071208
0.465339 0.029223 0.081769
0.465339 -0.032074 0.057692
0.465339 -0.079832 0.013839
0.465339 0.094512 0.031568
0.465339 0.068955 0.044764
0.465339 -0.054697 0.079569
0.465339 0.097716 0.020139
0.465339 0.043797 -0.037462
0.465339 0.011474 -0.043930
0.465339 -0.039411 0.009426
0.465339 0.001515 -0.092370
0.465339 -0.036929 0.039375
0.465339 0.019672 -0.084595
0.465339 0.008141 -0.027209
0.465339 -0.040931 0.042336
0.465339 0.042817 -0.088415
0.465339 -0.097197 -0.003919
0.465339 -0.079946 0.038029
0.465339 0.006467 0.068792
0.465339 0.036470 0.042161
0.465339 -0.045510 0.085125
0.465339 -0.063178 0.074745
0.465339 0.032198 0.090279
0.465339 -0.060301 0.054673
0.465339 0.057891 0.069129
0.465339 -0.027621 -0.058208
0.465339 0.066086 0.001778
0.465339 -0.070784 0.001783
0.465339 -0.063644 0.006716
0.465339 -0.032715 0.080080
0.465339 0.040238 0.083741
0.465339 -0.031674 -0.003255
0.465339 -0.020192 -0.031638
0.465339 -0.083605 0.041008
0.465339 -0.030929 0.058672
0.465339 0.037341 -0.032974
0.465339 0.072188 0.030285
0.465339 -0.024740 0.013524
0.465339 -0.007211 -0.022549
0.465339 0.040828 0.009097
0.465339 0.089038 0.040543
0.465339 0.010938 -0.022096
0.465339 -0.024952 0.025443
0.465339 0.077513 -0.009995
0.465339 0.066142 0.022225
0.465339 -0.033260 0.055118
0.465339 -0.055424 -0.064255
0.465339 0.045068 0.023094
0.465339 -0.074985 0.033263
0.465339 0.091631 0.025183
0.465339 0.088843 0.003045
0.465339 -0.005796 -0.075482
0.465339 0.001209 -0.081547
0.465339 0.001686 -0.020224
0.465339 -0.015776 -0.002589
0.465339 0.043685 -0.077020
0.465339 -0.052113 -0.050828
0.465339 -0.059400 0.063479
0.465339 -0.017981 -0.007344
0.465339 -0.040189 -0.048034
0.465339 -0.005191 0.014335
0.465339 0.018372 0.020685
0.465339 -0.034334 0.022306
0.465339 0.004316 0.009783
0.465339 -0.009412 -0.014350
0.465339 -0.091164 -0.011730
0.465339 0.023458 -0.006998
0.465339 -0.047368 -0.060584
0.465339 0.074620 0.026151
0.465339 -0.091593 0.002444
0.465339 0.008058 0.002376
0.465339 -0.001611 0.059192
0.465339 -0.058783 0.060164
0.465339 -0.090490 -0.016286
0.465339 0.013153 0.037174
0.465339 0.007144 -0.043548
0.465339 0.012474 0.061830
0.465339 0.025947 -0.091860
0.465339 -0.091597 -0.032298
0.465339 0.023005 -0.010309
0.465339 -0.016714 0.050513
0.465339 0.041178 -0.013300
0.465339 -0.080799 -0.056426
0.465339 0.054145 -0.010036
0.465339 -0.010409 -0.018602
0.465339 0.083982 -0.033440
0.465339 0.037924 -0.010268
0.465339 -0.044007 -0.001613
0.465339 0.003333 0.078565
0.465339 0.014092 -0.019626
0.465339 -0.062064 -0.006169
0.465339 0.090996 -0.014160
0.465339 -0.041169 0.046002
0.465339 0.064605 0.045965
0.465339 -0.065824 0.068288
0.465339 -0.092001 -0.001436
0.465339 -0.030819 -0.001247
0.465339 -0.073850 0.041885
0.465339 -0.010462 -0.015496
0.465339 -0.041503 -0.022977
0.465339 -0.083470 0.024846
0.465339 0.091157 0.017872
0.465339 -0.053379 -0.053234
0.465339 -0.090890 -0.030061
0.465339 0.008828 -0.044035
0.465339 0.048422 0.004311
0.465339 0.006638 -0.055132
0.465339 -0.083488 0.054324
0.465339 -0.046223 0.055091
0.465339 -0.068045 -0.021246
0.465339 -0.021590 0.016714
0.465339 0.025196 -0.063065
0.465339 0.068331 0.050974
0.465339 -0.014141 -0.013301
0.465339 -0.042473 0.006554
0.465339 0.044523 0.040087
0.465339 0.041860 -0.070737
0.465339 0.069651 0.012900
0.465339 -0.087218 -0.012157
0.465339 0.009971 -0.086823
0.465339 -0.012014 -0.077359
0.465339 0.013762 0.024249
0.465339 0.036938 0.075350
0.465339 0.078249 -0.058428
0.465339 0.010760 0.056321
0.465339 0.049672 0.082586
0.465339 -0.010470 0.052031
0.465339 0.024867 -0.023758
0.465339 0.018759 0.090350
0.465339 -0.034080 -0.034590
0.465339 0.033767 -0.059421
0.465339 -0.047012 -0.023451
0.465339 -0.003992 -0.064501
0.465339 -0.045714 0.088701
0.465339 0.009654 -0.035457
0.465339 -0.047119 -0.021239
0.465339 0.019643 0.013066
0.465339 0.006919 -0.037565
0.465339 0.018783 -0.092537
0.465339 -0.009074 -0.075101
0.465339 0.090663 0.033896
0.465339 -0.069902 0.047660
0.465339 -0.040630 0.066296
0.465339 -0.045819 0.045709
0.465339 0.005341 -0.017411
0.465339 0.070255 -0.029348
0.465339 -0.020050 0.013732
0.465339 -0.026803 0.039373
0.465339 -0.046081 -0.041854
0.465339 -0.069603 0.037877
0.465339 -0.095428 0.019380
0.465339 0.064350 -0.076097
0.465339 0.056702 -0.019841
0.465339 0.000699 0.015732
0.465339 0.055532 0.069754
0.465339 -0.042000 -0.029098
0.465339 -0.027786 -0.077795
0.465339 0.024507 -0.020665
0.465339 0.003465 0.075089
0.465339 0.015620 -0.095983
0.465339 -0.003706 -0.053201
0.465339 0.000259 -0.002238
0.465339 0.035376 0.012511
0.465339 0.067113 -0.018496
0.465339 -0.095805 -0.025731
0.465339 0.031124 -0.038770
0.465339 -0.039516 -0.075825
0.465339 -0.036819 0.090145
0.465339 0.036208 -0.057773
0.465339 0.038019 -0.045360
0.465339 0.085012 0.026329
0.465339 0.093640 -0.025205
0.465339 -0.005967 -0.093067
0.465339 -0.001051 -0.045563
0.465339 -0.079759 0.033348
0.465339 -0.040363 0.001149
0.465339 -0.085092 -0.017872
0.465339 -0.025504 -0.064384
0.465339 0.076147 0.035411
0.465339 -0.071825 -0.051179
0.465339 0.001249 -0.061905
0.465339 0.039855 0.049964
0.465339 0.049060 0.071010
0.465339 0.064302 0.049121
0.465339 -0.014970 -0.069688
0.465339 -0.069361 -0.044886
0.465339 0.074433 -0.045521
0.465339 0.071222 -0.044142
0.465339 -0.056293 -0.024344
0.465339 -0.043904 -0.019967
0.465339 0.063829 0.066480
0.465339 0.002287 0.034844
0.465339 -0.036197 -0.064593
0.465339 0.056385 -0.081992
0.465339 0.012837 -0.095306
