-0.466955 0.068010 -0.000813
-0.466955 -0.046789 0.011094
-0.466955 0.047354 0.054007
-0.466955 0.021133 0.000084
-0.466955 -0.078540 -0.008093
-0.466955 -0.071372 -0.020064
-0.466955 0.013616 -0.097276
-0.466955 -0.030314 0.091722
-0.466955 -0.025863 0.069603
-0.466955 0.090245 -0.006598
-0.466955 0.071216 -0.028323
-0.466955 0.009962 0.024130
-0.466955 -0.007679 -0.059234
-0.466955 0.088138 -0.021016
-0.466955 -0.011645 -0.074587
-0.466955 0.015393 0.079851
-0.466955 -0.044500 -0.060347
-0.466955 0.067083 -0.048223
-0.466955 0.055083 -0.042407
-0.466955 -0.029426 0.033723
-0.466955 -0.025806 0.028819
-0.466955 -0.062014 0.069988
-0.466955 -0.015963 -0.051221
-0.466955 0.000657 0.043026
-0.466955 -0.051203 0.080280
-0.466955 -0.013012 0.093463
-0.466955 0.016018 -0.071138
-0.466955 -0.023842 0.066136
-0.466955 0.066071 -0.025572
-0.466955 0.059124 -0.047269
-0.466955 0.004005 0.049640
-0.466955 0.057250 0.006222
-0.466955 0.056126 -0.075021
-0.466955 0.061164 -0.010176
-0.466955 0.033737 -0.071378
-0.466955 0.036408 0.088941
-0.466955 0.041702 0.068047
-0.466955 -0.028111 -0.069648
-0.466955 0.021163 0.032872
-0.466955 -0.081457 -0.019852
-0.466955 0.036453 -0.063681
-0.466955 0.077475 -0.011874
-0.466955 -0.051869 0.074072
-0.466955 0.057933 -0.062139
-0.466955 -0.010895 0.023590
-0.466955 0.061437 -0.046432
-0.466955 0.024029 0.033151
-0.466955 0.082381 -0.052581
-0.466955 0.091312 -0.002865
-0.466955 -0.048054 0.046589
-0.466955 0.049355 -0.051076
-0.466955 -0.020624 0.075961
-0.466955 -0.066463 0.024765
-0.466955 0.094506 -0.010935
-0.466955 -0.032476 -0.083609
-0.466955 -0.042190 -0.042328
-0.466955 0.028701 0.063793
-0.466955 -0.006879 0.084942
-0.466955 -0.002901 -0.093208
-0.466955 0.077197 -0.016869
-0.466955 0.083099 0.052905
-0.466955 0.060483 -0.049292
-0.466955 0.036996 -0.047523
-0.466955 0.021009 -0.067657
-0.466955 -0.040182 0.067720
-0.466955 0.017227 0.012233
-0.466955 -0.078984 -0.028361
-0.466955 -0.057030 0.056793
-0.466955 -0.077282 -0.025667
-0.466955 -0.027841 -0.046093
-0.466955 -0.039728 0.065205
-0.466955 -0.065183 -0.043753
-0.466955 0.091254 0.038085
-0.466955 -0.000333 -0.034653
-0.466955 0.063596 -0.021507
-0.466955 -0.025121 -0.009801
-0.466955 0.028353 0.011892
-0.466955 -0.064944 -0.047453
-0.466955 0.074878 -0.014836
-0.466955 -0.069152 0.070815
-0.466955 -0.009128 0.076862
-0.466955 0.074641 -0.035226
-0.466955 -0.011952 0.097370
-0.466955 0.062202 0.008248
-0.466955 -0.052400 0.045360
-0.466955 -0.037322 0.091809
-0.466955 0.031194 0.005205
-0.466955 0.017342 0.025751
-0.466955 0.066192 0.031298
-0.466955 0.086280 0.019570
-0.466955 -0.004102 0.053111
-0.466955 -0.013516 -0.044183
-0.466955 0.021211 0.030880
-0.466955 0.032691 -0.073105
-0.466955 -0.047592 0.060439
-0.466955 0.017610 0.058993
-0.466955 -0.028888 -0.038706
-0.466955 0.006793 -0.011057
-0.466955 -0.073243 -0.037146
-0.466955 -0.000729 -0.063264
-0.466955 0.060961 -0.040113
-0.466955 -0.028545 -0.062697
-0.466955 -0.051526 -0.004375
-0.466955 0.001103 0.082031
-0.466955 -0.047614 0.078558
-0.466955 -0.085265 0.007108
-0.466955 -0.028581 -0.012878
-0.466955 0.063863 -0.014569
-0.466955 -0.062207 0.024341
-0.466955 -0.034626 0.061270
-0.466955 -0.051381 -0.072035
-0.466955 0.037103 0.050127
-0.466955 0.046736 0.010515
-0.466955 0.050434 0.003961
-0.466955 -0.043687 -0.001435
-0.466955 0.070986 -0.026930
-0.466955 -0.024554 0.090165
-0.466955 0.029339 -0.002839
-0.466955 0.057483 -0.081123
-0.466955 -0.069659 0.033668
-0.466955 -0.008046 -0.008210
-0.466955 0.000995 0.090457
-0.466955 0.036507 0.031711
-0.466955 -0.065435 0.010267
-0.466955 0.055988 0.078726
-0.466955 -0.058230 0.006280
-0.466955 -0.065757 -0.005233
-0.466955 -0.070871 -0.057710
-0.466955 0.061940 -0.030111
-0.466955 -0.044866 -0.017856
-0.466955 -0.004427 -0.067076
-0.466955 0.091070 0.002750
-0.466955 0.037382 0.067414
-0.466955 -0.076094 0.039458
-0.466955 0.057826 -0.042663
-0.466955 -0.057637 0.009167
-0.466955 0.025813 0.091540
-0.466955 0.000863 -0.039228
-0.466955 0.079977 -0.012205
-0.466955 -0.048340 -0.058273
-0.466955 -0.048536 0.001916
-0.466955 0.063815 -0.049328
-0.466955 -0.027847 0.061152
-0.466955 -0.067421 -0.073075
-0.466955 0.016318 -0.038520
-0.466955 0.086920 -0.046065
-0.466955 -0.045200 0.013427
-0.466955 -0.061063 0.065785
-0.466955 0.056960 0.059537
-0.466955 -0.073888 0.061308
-0.466955 -0.040656 -0.062100
-0.466955 0.041151 -0.044949
-0.466955 -0.031190 -0.011877
-0.466955 0.039520 -0.072564
-0.466955 -0.007002 0.090322
-0.466955 -0.041128 0.071683
-0.466955 -0.012922 -0.069293
-0.466955 -0.048126 0.052565
-0.466955 -0.064678 0.060613
-0.466955 -0.083956 -0.040709
-0.466955 0.042017 -0.040481
-0.466955 -0.042175 0.047657
-0.466955 -0.008607 0.065954
-0.466955 0.097054 0.020644
-0.466955 -0.016993 -0.076122
-0.466955 0.040827 0.041487
-0.466955 -0.042429 0.025060
-0.466955 -0.000502 -0.014564
-0.466955 -0.019310 0.085467
-0.466955 0.069977 -0.034341
-0.466955 -0.044049 0.081730
-0.466955 0.007427 0.021621
-0.466955 0.064727 0.007470
-0.466955 0.027028 -0.075788
-0.466955 -0.053957 0.025887
-0.466955 -0.029162 -0.084017
-0.466955 -0.053635 -0.036066
-0.466955 0.020699 -0.050768
-0.466955 -0.058684 0.030043
-0.466955 0.052159 0.069272
-0.466955 0.024772 -0.050354
-0.466955 0.057567 -0.037454
-0.466955 0.018252 -0.023305
-0.466955 -0.043622 0.006576
-0.466955 -0.025592 -0.085629
-0.466955 0.054228 0.083657
-0.466955 -0.079738 0.057769
-0.466955 -0.040577 0.025613
-0.466955 0.032981 0.084721
-0.466955 -0.009613 -0.038382
-0.466955 0.036695 0.000418
-0.466955 -0.014780 -0.010365
-0.466955 0.035500 0.049695
-0.466955 0.055913 0.032934
-0.466955 0.049961 -0.067633
-0.466955 -0.006297 0.036848
-0.466955 -0.040745 -0.015935
-0.466955 -0.047934 -0.055665
-0.466955 0.013279 -0.058655
-0.466955 -0.062663 -0.054275
-0.466955 0.020512 -0.041351
-0.466955 0.056276 0.008880
-0.466955 0.080498 0.053981
-0.466955 0.022815 -0.024728
-0.466955 0.036171 -0.061401
-0.466955 0.046233 -0.086426
-0.466955 0.036792 0.058336
-0.466955 0.009738 -0.030507
-0.466955 0.030858 -0.086309
-0.466955 -0.060554 0.054985
-0.466955 0.060161 0.069089
-0.466955 -0.070799 0.070452
-0.466955 -0.017869 -0.052947
-0.466955 0.036472 -0.032403
-0.466955 0.053932 -0.006025
-0.466955 -0.092914 0.017790
-0.466955 0.011373 0.078510
-0.466955 -0.000381 -0.078908
-0.466955 0.054562 0.001746
-0.466955 -0.058053 -0.009580
-0.466955 -0.081124 -0.021546
-0.466955 -0.050958 0.056669
-0.466955 -0.010675 0.056970
-0.466955 0.083195 -0.039411
-0.466955 -0.027728 0.034642
-0.466955 0.007328 0.014377
-0.466955 -0.009454 0.078441
-0.466955 -0.022561 -0.025635
-0.466955 0.005997 0.005693
-0.466955 0.001574 0.025612
-0.466955 0.019478 0.083970
-0.466955 -0.097092 -0.017446
-0.466955 -0.090946 0.004542
-0.466955 -0.038779 0.055737
-0.466955 -0.014226 -0.002578
-0.466955 -0.090326 -0.000378
-0.466955 0.052854 0.079501
-0.466955 -0.001022 -0.023719
-0.466955 -0.086404 -0.001255
-0.466955 0.049587 -0.069100
-0.466955 0.008182 0.056552
-0.466955 0.043344 0.056940
-0.466955 0.045633 0.082417
-0.466955 -0.058782 0.047274
-0.466955 -0.008966 0.064443
-0.466955 0.015648 -0.008661
-0.466955 -0.070567 -0.053750
-0.466955 -0.026765 0.006170
-0.466955 -0.074614 -0.012933
-0.466955 -0.055084 -0.033117
-0.466955 -0.080298 -0.056725
-0.466955 0.061276 0.031945
-0.466955 0.075142 0.003493
-0.466955 -0.044484 -0.058720
-0.466955 -0.010276 -0.035511
-0.466955 0.080628 -0.035638
-0.466955 0.057856 0.009066
-0.466955 0.091091 0.018271
-0.466955 0.020232 0.044397
-0.466955 0.035878 0.005154
-0.466955 0.040687 -0.010316
-0.466955 -0.025067 0.074718
-0.466955 -0.035909 -0.016707
-0.466955 0.044661 -0.022860
-0.466955 -0.063917 -0.012846
-0.466955 -0.054625 -0.007899
-0.466955 -0.091296 0.009842
-0.466955 -0.045523 -0.044044
-0.466955 0.033757 0.089770
-0.466955 0.080473 -0.053996
-0.466955 0.020916 0.008855
-0.466955 0.051148 0.010879
-0.466955 0.034940 -0.051354
-0.466955 0.040852 0.053995
-0.466955 -0.000943 0.062016
-0.466955 -0.052080 -0.017563
-0.466955 -0.034359 0.071056
-0.466955 0.047852 -0.023602
-0.466955 0.028929 -0.093209
-0.466955 0.098672 -0.009133
-0.466955 -0.010706 0.004103
-0.466955 -0.061971 -0.046853
-0.466955 0.070818 -0.031686
-0.466955 0.038340 0.084310
-0.466955 -0.040279 0.049354
-0.466955 -0.011219 -0.090975
-0.466955 -0.084725 -0.020793
-0.466955 -0.056904 0.073082
-0.466955 0.015264 0.000184
-0.466955 0.006276 0.041572
-0.466955 0.061812 0.058546
-0.466955 -0.003130 -0.001582
-0.466955 0.034974 0.068137
-0.466955 0.021847 0.053901
-0.466955 0.002554 -0.038469
-0.466955 0.021532 -0.020156
-0.466955 0.045328 -0.063094
-0.466955 0.063734 0.033839
-0.466955 0.089101 0.027188
-0.466955 0.046247 -0.018001
-0.466955 0.045920 0.074634
-0.466955 -0.079694 0.033522
-0.466955 0.000820 -0.074366
-0.466955 -0.012071 0.057951
-0.466955 -0.029572 0.021505
-0.466955 -0.037124 0.015258
-0.466955 0.083326 0.010208
-0.466955 0.000586 -0.023331
-0.466955 -0.020571 -0.083915
-0.466955 0.029424 0.004905
-0.466955 -0.002086 -0.073886
-0.466955 0.089550 0.034708
-0.466955 -0.051644 0.058904
-0.466955 -0.004277 0.042479
-0.466955 -0.006773 -0.093677
-0.466955 -0.041981 0.061099
-0.466955 0.024046 0.057934
-0.466955 0.086051 0.027251
-0.466955 0.052031 -0.050247
-0.466955 0.011658 0.056896
-0.466955 -0.030594 -0.045865
-0.466955 0.029906 -0.029923
-0.466955 0.005309 0.072130
-0.466955 0.032878 0.039537
-0.466955 -0.032972 -0.041100
-0.466955 0.015403 0.026620
-0.466955 -0.064020 -0.009369
-0.466955 -0.079219 -0.016958
-0.466955 -0.061849 0.001542
-0.466955 -0.017082 -0.070686
-0.466955 0.046628 0.086309
-0.466955 -0.065731 -0.034977
-0.466955 -0.065502 -0.021337
-0.466955 -0.042286 0.062413
-0.466955 -0.051695 -0.022836
-0.466955 0.050323 0.002118
-0.466955 0.078026 -0.055818
-0.466955 -0.006138 -0.035750
-0.466955 -0.022427 -0.092119
-0.466955 0.067784 0.066563
-0.466955 0.077133 0.018229
-0.466955 -0.073177 0.050713
-0.466955 0.008332 -0.077297
-0.466955 0.076166 0.037435
-0.466955 0.066664 0.047881
-0.466955 0.035780 -0.076620
-0.466955 -0.064992 -0.061846
-0.466955 0.017310 -0.060971
-0.466955 0.002867 0.082790
-0.466955 0.003451 0.002912
-0.466955 0.066534 -0.024325
-0.466955 0.073886 0.007366
-0.466955 -0.022979 0.079788
-0.466955 -0.019452 0.053156
-0.466955 -0.046863 -0.015678
-0.466955 -0.012394 0.079737
-0.466955 0.063233 0.064846
-0.466955 -0.062158 -0.003362
-0.466955 0.026875 0.050622
-0.466955 -0.007463 0.059983
-0.466955 0.005903 -0.048287
-0.466955 -0.001509 -0.060329
-0.466955 -0.037994 -0.011348
-0.466955 0.074635 -0.024554
-0.466955 0.003800 -0.012740
-0.466955 -0.023901 -0.088233
-0.466955 -0.010097 -0.044240
-0.466955 0.058258 0.068263
-0.466955 0.024546 -0.073055
-0.466955 -0.001681 0.067419
-0.466955 -0.001409 0.043805
-0.466955 -0.044102 0.066286
-0.466955 -0.016768 -0.022202
-0.466955 0.023789 0.030704
-0.466955 -0.011953 -0.097866
-0.466955 -0.067475 -0.031550
-0.466955 -0.055123 0.040400
-0.466955 0.035164 0.061945
-0.466955 0.039573 0.074109
-0.466955 -0.038599 0.003578
-0.466955 -0.065307 -0.040781
-0.466955 0.018470 0.046708
-0.466955 -0.091566 0.019469
-0.466955 0.015143 0.049014
-0.466955 -0.006407 0.010545
-0.466955 0.089611 -0.008701
-0.466955 0.020624 0.085646
-0.466955 0.097127 0.022752
-0.466955 -0.000282 0.072521
-0.466955 0.076375 -0.019719
-0.466955 -0.012828 0.071360
-0.466955 0.093766 0.028876
-0.466955 -0.019536 -0.029646
-0.466955 0.075772 0.050055
-0.466955 0.056868 0.004015
-0.466955 -0.038838 0.006996
-0.466955 0.017040 -0.004502
-0.466955 0.026258 -0.057351
-0.466955 -0.006598 0.012000
-0.466955 -0.002939 -0.066601
-0.466955 0.048692 -0.059401
-0.466955 0.065377 0.020029
-0.466955 -0.087335 -0.036839
-0.466955 0.001180 -0.072585
-0.466955 -0.069887 0.021270
-0.466955 0.084062 -0.024560
-0.466955 0.026563 0.058932
-0.466955 0.019947 -0.064862
-0.466955 0.056841 0.055492
-0.466955 -0.027090 -0.092900
-0.466955 -0.007268 -0.074139
-0.466955 -0.068933 -0.058764
-0.466955 0.007567 -0.098422
-0.466955 -0.000643 -0.005996
-0.466955 0.033597 -0.021178
-0.466955 0.010048 -0.092489
-0.466955 0.017929 -0.000973
-0.466955 -0.018181 -0.002344
-0.466955 -0.075666 0.054420
-0.466955 0.019815 -0.023037
-0.466955 0.059351 -0.034399
-0.466955 0.055313 -0.071721
-0.466955 -0.036600 -0.042368
-0.466955 -0.002393 -0.026300
-0.466955 0.035999 -0.085764
-0.466955 -0.064704 -0.031850
-0.466955 0.032564 0.037414
-0.466955 0.061251 -0.068400
-0.466955 0.050659 0.055899
-0.466955 0.053942 -0.058855
-0.466955 -0.035119 -0.044986
-0.466955 0.074121 -0.019456
-0.466955 -0.090003 -0.016368
-0.466955 0.066945 0.007772
-0.466955 0.015124 -0.019728
-0.466955 -0.015345 -0.056862
-0.466955 -0.030201 -0.033847
-0.466955 -0.059077 -0.031607
-0.466955 -0.006588 -0.048535
-0.466955 0.049899 0.086450
-0.466955 -0.005391 0.038823
-0.466955 -0.026884 0.016468
-0.466955 -0.033989 0.057651
-0.466955 -0.030923 0.059551
-0.466955 -0.023162 0.029747
-0.466955 0.053135 0.075031
-0.466955 -0.083953 0.011959
-0.466955 -0.034370 0.055029
-0.466955 0.001840 -0.025952
-0.466955 0.027340 -0.092379
-0.466955 -0.091082 -0.019138
-0.466955 -0.033545 0.049920
-0.466955 0.023271 0.072185
-0.466955 0.009933 -0.024929
-0.466955 0.050465 -0.072626
-0.466955 0.090328 0.042230
-0.466955 -0.019820 0.005851
-0.466955 0.021016 -0.005351
-0.466955 0.052255 -0.064468
-0.466955 -0.028167 0.017119
-0.466955 -0.046882 -0.036583
-0.466955 0.020544 -0.079466
-0.466955 -0.049364 0.084364
-0.466955 -0.028343 -0.071315
-0.466955 0.085895 -0.013829
-0.466955 -0.080630 0.056345
-0.466955 0.023232 0.037571
-0.466955 -0.040918 -0.011264
-0.466955 -0.039214 0.042187
-0.466955 0.047913 0.074911
-0.466955 0.082595 -0.018415
-0.466955 0.035584 0.059257
-0.466955 -0.055382 -0.062113
-0.466955 -0.023415 0.067850
-0.466955 0.031051 0.033929
-0.466955 -0.002362 -0.096350
-0.466955 0.040398 0.060127
-0.466955 -0.039899 -0.041968
-0.466955 -0.040038 -0.004139
-0.466955 -0.041016 -0.030781
-0.466955 -0.045865 0.037769
-0.466955 -0.066195 0.048810
-0.466955 -0.040851 -0.036186
-0.466955 0.040066 -0.052248
-0.466955 0.022751 -0.096140
-0.466955 0.008095 -0.091085
-0.466955 -0.001331 -0.030389
-0.466955 0.056618 0.051662
-0.466955 0.059884 -0.005118
-0.466955 0.042082 0.059482
-0.466955 -0.086183 -0.030816
-0.466955 -0.070834 0.059469
-0.466955 -0.087644 -0.021793
-0.466955 -0.081336 0.019584
-0.466955 0.021301 0.086796
-0.466955 0.026320 0.048985
-0.466955 0.072330 0.051079
-0.466955 0.049842 0.066154
-0.466955 -0.036357 -0.029368
-0.466955 -0.039131 -0.035401
-0.466955 -0.048466 -0.028529
-0.466955 0.053065 -0.041700
-0.466955 0.031404 0.003768
-0.466955 -0.017243 0.082457
-0.466955 0.063718 0.009771
-0.466955 0.012273 0.099180
-0.466955 0.026078 -0.072549
-0.466955 0.044201 0.025350
-0.466955 -0.013935 0.069686
-0.466955 -0.037667 0.026548
-0.466955 -0.084205 0.030632
-0.466955 -0.002643 0.030702
-0.466955 -0.036971 -0.014426
-0.466955 -0.074596 0.042393
-0.466955 0.004108 0.077165
-0.466955 -0.024542 -0.047677
-0.466955 0.005458 -0.010035
-0.466955 0.057780 0.037825
-0.466955 0.023661 0.089399
-0.466955 0.067059 0.027290
-0.466955 0.025576 -0.095985
-0.466955 -0.084843 -0.033434
-0.466955 -0.023406 -0.027491
-0.466955 -0.047717 0.087828
-0.466955 -0.079698 0.020083
-0.466955 0.034196 -0.005680
-0.466955 0.001148 0.075523
-0.466955 0.006996 0.087032
-0.466955 0.043932 -0.071032
-0.466955 -0.000034 0.088510
-0.466955 -0.088847 -0.033967
-0.466955 0.068046 -0.038241
-0.466955 -0.077545 0.017824
-0.466955 0.055320 0.024075
-0.466955 0.017130 0.088991
-0.466955 -0.018727 0.054522
-0.466955 -0.042057 0.030553
-0.466955 0.035951 0.013432
-0.466955 -0.072492 0.012639
-0.466955 -0.079062 -0.055961
-0.466955 0.016749 0.078376
-0.466955 -0.056005 0.053197
-0.466955 0.004795 0.095496
-0.466955 -0.043214 -0.005089
-0.466955 -0.029458 0.053221
-0.466955 -0.029961 0.056315
-0.466955 -0.011133 0.081156
-0.466955 0.062574 0.020935
-0.466955 -0.052154 -0.015989
-0.466955 0.005871 0.065030
-0.466955 0.069264 0.029523
-0.466955 -0.004333 -0.020664
-0.466955 0.027082 0.092111
-0.466955 -0.057466 0.030634
-0.466955 -0.035221 0.021977
-0.466955 -0.074911 0.040666
-0.466955 0.031782 0.064431
-0.466955 0.020674 -0.034931
-0.466955 0.009034 0.065315
-0.466955 -0.018150 0.072256
-0.466955 0.047885 0.083720
-0.466955 0.057251 0.074516
-0.466955 -0.049198 0.066064
-0.466955 -0.015416 -0.025941
-0.466955 0.075194 0.006892
-0.466955 0.080481 -0.045315
-0.466955 -0.054368 0.070375
-0.466955 0.029037 0.080622
-0.466955 -0.021788 0.052620
-0.466955 0.080424 0.039535
-0.466955 0.019781 0.000556
-0.466955 -0.076416 0.059971
-0.466955 0.019014 -0.068466
-0.466955 0.087389 0.007239
-0.466955 -0.094332 -0.012779
-0.466955 -0.012798 -0.049855
-0.466955 -0.081551 -0.048544
-0.466955 0.025238 -0.088589
-0.466955 -0.055295 -0.075938
-0.466955 0.083426 -0.014081
-0.466955 0.086254 -0.003035
-0.466955 -0.044264 0.085874
-0.466955 0.049881 -0.008213
-0.466955 -0.035526 -0.072205
-0.466955 -0.035536 -0.035415
-0.466955 0.024009 0.012746
-0.466955 -0.073253 -0.049107
-0.466955 0.002853 0.087138
-0.466955 -0.070005 0.018324
-0.466955 -0.002956 0.074581
-0.466955 -0.018426 -0.087805
-0.466955 -0.045959 -0.037872
-0.466955 0.041369 0.073690
-0.466955 -0.008390 0.071964
-0.466955 0.075170 0.060272
-0.466955 -0.019948 0.017829
-0.466955 -0.098274 0.017102
-0.466955 0.050332 -0.082516
-0.466955 -0.064983 0.027741
-0.466955 0.038003 -0.061007
-0.466955 0.005731 0.017611
-0.466955 -0.013820 0.077564
-0.466955 0.081589 -0.028945
-0.466955 0.082784 -0.054738
-0.466955 -0.067822 0.023724
-0.466955 0.054856 0.052616
-0.466955 0.028253 -0.017724
-0.466955 0.097231 -0.019388
-0.466955 -0.027278 -0.091363
-0.466955 0.073819 -0.000687
-0.466955 0.048078 -0.043226
-0.466955 -0.024177 0.087639
-0.466955 -0.085856 0.018434
-0.466955 0.016870 -0.096074
-0.466955 -0.014609 0.074779
-0.466955 -0.049529 0.049942
-0.466955 0.018679 0.098130
-0.466955 -0.052609 -0.060822
-0.466955 -0.011414 -0.043381
-0.466955 0.002917 -0.051549
-0.466955 -0.038141 -0.020071
-0.466955 -0.073900 0.027944
-0.466955 0.069457 0.019669
-0.466955 0.052525 0.028410
-0.466955 -0.060556 -0.073208
-0.466955 0.029338 -0.087521
-0.466955 0.078203 -0.052371
-0.466955 -0.064320 -0.074955
-0.466955 -0.085151 0.029339
-0.466955 0.068064 0.068095
-0.466955 0.053111 0.082685
-0.466955 -0.081306 -0.034446
-0.466955 -0.030895 -0.004126
-0.466955 0.088314 0.006007
-0.466955 -0.052366 -0.032123
-0.466955 0.081543 0.048950
-0.466955 -0.017181 0.019752
-0.466955 -0.018759 0.067786
-0.466955 0.090585 0.033624
-0.466955 0.079088 -0.002159
-0.466955 -0.019790 0.037165
-0.466955 -0.080219 0.018718
-0.466955 0.011527 -0.073959
-0.466955 0.012219 0.006960
-0.466955 -0.049759 0.080101
-0.466955 -0.038358 0.080243
-0.466955 0.002087 -0.024523
-0.466955 0.040878 -0.079024
-0.466955 0.078963 -0.060195
-0.466955 0.057861 -0.044488
-0.466955 0.091031 -0.007882
-0.466955 -0.056907 0.047952
-0.466955 -0.039833 0.039653
-0.466955 -0.002306 -0.090404
-0.466955 -0.088275 0.000607
-0.466955 0.080659 -0.009522
-0.466955 -0.003250 -0.041981
-0.466955 0.044205 0.075132
-0.466955 -0.024151 -0.086742
-0.466955 0.024959 -0.006975
-0.466955 -0.081375 -0.016752
-0.466955 0.066220 -0.042846
-0.466955 0.057309 0.065096
-0.466955 0.063582 -0.027967
-0.466955 0.047578 -0.040919
-0.466955 -0.003180 -0.071402
-0.466955 -0.046605 -0.059112
-0.466955 0.087428 0.039220
-0.466955 0.071144 -0.020550
-0.466955 0.032300 -0.059364
-0.466955 -0.035385 0.025005
-0.466955 0.044579 0.001616
-0.466955 0.044643 0.089363
-0.466955 0.095485 0.016313
-0.466955 0.025200 -0.086833
-0.466955 0.040065 0.076434
-0.466955 0.054025 -0.032591
-0.466955 0.051422 0.065938
-0.466955 -0.088400 -0.023548
-0.466955 -0.086225 -0.006767
-0.466955 -0.008733 -0.060252
-0.466955 -0.074095 0.000726
-0.466955 0.059948 0.030773
-0.466955 -0.063644 0.027178
-0.466955 0.050446 -0.070759
-0.466955 -0.041306 0.069216
-0.466955 -0.070173 -0.042232
-0.466955 -0.011513 0.033488
-0.466955 0.072857 -0.038680
-0.466955 -0.047644 0.003190
-0.466955 0.085207 0.022735
-0.466955 0.049508 0.077200
-0.466955 -0.065449 0.075400
-0.466955 0.002091 -0.032177
-0.466955 -0.019767 0.092774
-0.466955 0.071804 -0.060258
-0.466955 -0.090131 -0.006630
-0.466955 0.086935 -0.027467
-0.466955 0.034568 0.035867
-0.466955 0.071063 0.069518
-0.466955 -0.059843 0.028216
-0.466955 -0.006141 0.058679
-0.466955 -0.067328 -0.057219
-0.466955 0.083456 -0.026029
-0.466955 0.029662 0.009012
-0.466955 0.058535 0.079338
-0.466955 -0.040588 -0.076022
-0.466955 0.046119 0.080865
-0.466955 0.014214 -0.006792
-0.466955 0.050434 0.032349
-0.466955 0.046313 -0.021004
-0.466955 -0.001293 -0.097195
-0.466955 -0.078968 -0.022253
-0.466955 0.000367 0.009868
-0.466955 -0.031935 0.080979
-0.466955 0.034372 0.002640
-0.466955 -0.025282 -0.050802
-0.466955 -0.018760 -0.035321
-0.466955 0.079003 -0.017046
-0.466955 -0.048977 0.023975
-0.466955 0.078724 0.018315
-0.466955 0.000663 0.086425
-0.466955 0.013412 0.030792
-0.466955 -0.012212 -0.047772
-0.466955 0.083599 0.020166
-0.466955 -0.076386 -0.055798
-0.466955 0.011840 0.043287
-0.466955 0.029672 0.089254
-0.466955 0.010465 0.089519
-0.466955 0.050919 0.061040
-0.466955 0.008656 0.058246
-0.466955 0.023575 0.019594
-0.466955 -0.091497 -0.006002
-0.466955 0.046993 -0.001708
-0.466955 0.033643 -0.082093
-0.466955 0.066701 0.002043
-0.466955 0.048707 -0.015814
-0.466955 -0.011761 0.084834
-0.466955 0.065961 -0.041262
-0.466955 0.004680 -0.079897
-0.466955 -0.081999 0.014974
-0.466955 -0.011261 -0.003065
-0.466955 -0.021475 0.071409
-0.466955 0.019679 0.042340
-0.466955 0.067691 0.030427
-0.466955 -0.081838 0.051666
-0.466955 -0.036268 -0.060194
-0.466955 0.009910 -0.019029
-0.466955 0.004499 0.084206
-0.466955 0.029250 0.083643
-0.466955 -0.030567 -0.067691
-0.466955 0.027307 -0.058357
-0.466955 -0.087682 -0.010881
-0.466955 0.029035 0.067541
-0.466955 0.029140 -0.053225
-0.466955 -0.011054 0.044347
-0.466955 0.019668 -0.063225
-0.466955 0.069163 -0.040918
-0.466955 -0.000180 -0.058991
-0.466955 0.062505 -0.024903
-0.466955 0.053494 -0.045262
-0.466955 0.084434 0.026492
-0.466955 0.057866 0.021919
-0.466955 -0.042496 -0.075603
-0.466955 0.049832 0.020973
-0.466955 0.073086 -0.035670
-0.466955 -0.058246 -0.005373
-0.466955 -0.076955 0.052250
-0.466955 -0.083427 -0.038973
-0.466955 -0.021842 0.014376
-0.466955 0.068699 -0.064475
-0.466955 -0.034676 -0.078613
-0.466955 -0.017273 0.014163
-0.466955 0.021180 -0.048939
-0.466955 0.053475 0.004963
-0.466955 0.042250 0.008775
-0.466955 0.026605 0.075552
-0.466955 -0.015597 -0.015004
-0.466955 -0.027874 -0.006244
-0.466955 0.050607 0.081560
-0.466955 -0.081684 0.036450
-0.466955 0.056693 0.067923
-0.466955 0.044382 -0.025812
-0.466955 0.048946 0.003425
-0.466955 0.033412 -0.017876
-0.466955 -0.007269 -0.041431
-0.466955 -0.043744 0.050752
-0.466955 -0.039499 -0.013452
-0.466955 -0.047151 0.001379
-0.466955 0.052666 -0.006805
-0.466955 0.088512 0.042457
-0.466955 -0.035964 0.037773
-0.466955 -0.066302 0.063874
-0.466955 0.031055 0.072422
-0.466955 0.032821 -0.000393
-0.466955 0.007582 0.037519
-0.466955 -0.032574 -0.092037
-0.466955 -0.043178 -0.046585
-0.466955 -0.012153 0.082031
-0.466955 -0.089419 -0.041324
-0.466955 0.078788 0.007880
-0.466955 -0.007400 0.020936
-0.466955 -0.053106 0.080076
-0.466955 -0.066824 -0.018439
-0.466955 -0.050779 -0.002126
-0.466955 0.034333 -0.044867
-0.466955 -0.071735 -0.060301
-0.466955 -0.060004 -0.018288
-0.466955 0.089994 -0.010677
-0.466955 0.018972 0.069505
-0.466955 0.078277 0.045466
-0.466955 0.054919 -0.009764
-0.466955 -0.057081 0.003988
-0.466955 -0.069596 0.001869
-0.466955 0.010901 -0.032227
-0.466955 -0.020749 0.054050
-0.466955 -0.031718 0.010792
-0.466955 -0.039244 -0.031037
-0.466955 -0.068337 0.015112
-0.466955 -0.055421 -0.082426
-0.466955 -0.076323 0.004912
-0.466955 -0.038499 0.057333
-0.466955 0.004029 0.024748
-0.466955 -0.039792 -0.010315
-0.466955 0.036141 0.071401
-0.466955 0.045634 -0.032334
-0.466955 0.023757 -0.061788
-0.466955 -0.082927 -0.030092
-0.466955 -0.069431 -0.057174
-0.466955 0.013804 -0.061436
-0.466955 -0.017825 0.066363
-0.466955 -0.065786 -0.048643
-0.466955 0.090319 0.036142
-0.466955 0.028339 -0.012723
-0.466955 0.025972 -0.056006
-0.466955 0.031619 -0.017690
-0.466955 -0.055573 0.057392
-0.466955 -0.007910 0.025799
-0.466955 0.058058 0.045630
-0.466955 -0.029148 -0.021516
-0.466955 0.069137 0.055319
-0.466955 0.081231 0.031352
-0.466955 0.088998 0.044224
-0.466955 0.046185 -0.042225
-0.466955 -0.091721 0.011242
-0.466955 -0.022308 -0.032706
-0.466955 -0.014111 -0.077896
-0.466955 0.062742 0.031863
-0.466955 -0.008161 -0.009761
-0.466955 0.024177 -0.077219
-0.466955 0.084861 0.020847
-0.466955 -0.078173 0.027029
-0.466955 -0.016219 0.066898
-0.466955 -0.039980 0.024305
-0.466955 -0.029131 -0.049545
-0.466955 -0.089387 0.028764
-0.466955 0.088643 -0.036984
-0.466955 0.013313 0.060960
-0.466955 0.060886 -0.038235
-0.466955 -0.045955 0.032345
-0.466955 0.008382 0.015550
-0.466955 0.024334 0.045876
-0.466955 0.009537 0.012416
-0.466955 0.040661 -0.011731
-0.466955 -0.034243 0.091459
-0.466955 -0.032611 -0.003742
-0.466955 0.000665 0.001148
-0.466955 0.000277 0.034437
-0.466955 -0.010465 0.025188
-0.466955 0.066455 -0.008049
-0.466955 -0.003403 -0.037083
-0.466955 0.031290 -0.058339
-0.466955 -0.076126 -0.018364
-0.466955 -0.056078 -0.025035
-0.466955 0.010442 0.044260
-0.466955 -0.027049 0.020215
-0.466955 -0.014195 -0.048938
-0.466955 -0.032987 -0.034827
-0.466955 -0.024956 0.055744
-0.466955 -0.071251 0.048678
-0.466955 -0.024363 0.079274
-0.466955 -0.030741 -0.025527
-0.466955 0.084405 -0.052311
-0.466955 -0.018447 0.073721
-0.466955 -0.085672 0.002965
-0.466955 0.092526 -0.013140
-0.466955 -0.058294 0.053231
-0.466955 0.010872 -0.057165
-0.466955 0.039274 -0.082638
-0.466955 -0.077823 -0.030234
-0.466955 -0.044209 -0.015110
-0.466955 -0.005547 0.047446
-0.466955 -0.032392 0.060319
-0.466955 -0.059173 -0.072026
-0.466955 0.033466 -0.088639
-0.466955 -0.023837 -0.025095
-0.466955 0.056061 -0.080120
-0.466955 0.025230 -0.013453
-0.466955 0.085204 0.044606
-0.466955 0.064244 -0.034631
-0.466955 0.039811 -0.063103
-0.466955 0.001129 0.018347
-0.466955 0.022502 0.076799
-0.466955 -0.011138 -0.049312
-0.466955 -0.016315 -0.095709
-0.466955 0.086768 0.003643
-0.466955 -0.053195 0.031211
-0.466955 0.032465 -0.038854
-0.466955 0.019521 0.031091
-0.466955 -0.081524 0.042230
-0.466955 0.075687 0.028978
-0.466955 -0.079852 -0.020996
-0.466955 -0.036199 0.026998
-0.466955 -0.084103 -0.004488
-0.466955 -0.029303 0.025562
-0.466955 0.084985 0.004152
-0.466955 0.031114 0.006753
-0.466955 0.068887 0.038454
-0.466955 -0.022486 0.081794
-0.466955 0.059264 -0.028441
-0.466955 0.025055 -0.094319
-0.466955 0.068244 0.002752
-0.466955 -0.045825 0.063672
-0.466955 -0.011300 -0.012200
-0.466955 0.019001 -0.061458
-0.466955 0.025679 0.028049
-0.466955 -0.004845 -0.076669
-0.466955 -0.023771 0.023877
-0.466955 0.007915 0.097578
-0.466955 0.076779 0.015502
-0.466955 0.009338 0.007158
-0.466955 0.024003 -0.048650
-0.466955 0.043171 0.067903
-0.466955 0.012384 0.018242
-0.466955 -0.008107 0.015844
-0.466955 -0.037261 -0.064893
-0.466955 0.037950 0.034777
-0.466955 0.021421 0.036076
-0.466955 -0.060187 -0.028514
-0.466955 0.042088 0.048446
-0.466955 -0.010512 0.049422
-0.466955 0.062871 -0.004738
-0.466955 -0.037475 0.071995
-0.466955 -0.086466 -0.002872
-0.466955 0.067502 -0.070449
-0.466955 0.026573 0.029844
-0.466955 0.005511 -0.059980
-0.466955 0.017353 0.020306
-0.466955 0.027891 0.020753
-0.466955 -0.011563 -0.018504
-0.466955 -0.088418 0.040919
-0.466955 -0.042317 -0.090160
-0.466955 0.011306 0.003852
-0.466955 0.060801 0.007521
-0.466955 -0.011971 -0.023675
-0.466955 0.092782 -0.008590
-0.466955 -0.021801 -0.042411
-0.466955 0.083131 0.003161
-0.466955 -0.080403 0.059138
-0.466955 -0.039448 -0.062828
-0.466955 0.031494 -0.076051
-0.466955 -0.026065 0.040703
-0.466955 -0.046269 0.033749
-0.466955 0.010822 -0.028982
-0.466955 0.003327 0.022382
-0.466955 -0.067584 0.060338
-0.466955 -0.046140 0.030839
-0.466955 -0.076220 0.032679
-0.466955 0.086177 0.005010
-0.466955 0.033188 -0.053602
-0.466955 0.081720 0.050484
-0.466955 -0.027717 -0.080624
-0.466955 0.011276 -0.098948
-0.466955 -0.085834 0.039037
-0.466955 -0.038529 -0.004531
-0.466955 0.014102 -0.057169
-0.466955 -0.022493 0.075984
-0.466955 0.022896 -0.020884
-0.466955 -0.011988 0.010929
-0.466955 -0.071004 -0.012136
-0.466955 0.053479 -0.025425
-0.466955 0.064671 -0.062363
-0.466955 -0.033149 0.012104
-0.466955 0.027761 -0.069525
-0.466955 -0.022278 -0.094583
-0.466955 0.037742 -0.058919
-0.466955 -0.067814 -0.039354
-0.466955 0.070150 -0.068245
-0.466955 -0.019232 0.088853
-0.466955 0.066282 -0.000740
-0.466955 0.080626 -0.027380
-0.466955 -0.033819 0.092763
-0.466955 -0.060224 0.002093
-0.466955 0.054215 0.021380
-0.466955 -0.058655 0.026375
-0.466955 0.052547 -0.058480
-0.466955 -0.009271 0.026039
-0.466955 0.002154 0.071346
-0.466955 -0.011603 -0.015003
-0.466955 0.009997 0.087064
-0.466955 -0.016724 -0.041200
-0.466955 0.034293 0.014506
-0.466955 0.019869 -0.047522
-0.466955 -0.053795 0.043975
-0.466955 -0.001166 0.086680
-0.466955 -0.054462 0.003132
-0.466955 -0.008269 -0.027428
-0.466955 -0.022775 -0.014778
-0.466955 0.049110 0.009903
-0.466955 -0.082652 0.047319
-0.466955 -0.004916 -0.085189
-0.466955 -0.009243 -0.036748
-0.466955 0.058633 0.013960
-0.466955 -0.090570 -0.036071
-0.466955 -0.009845 0.093523
-0.466955 0.069482 0.017260
-0.466955 -0.060964 -0.013246
-0.466955 -0.090356 -0.021349
-0.466955 0.093053 -0.003723
-0.466955 0.035007 0.072665
-0.466955 -0.050742 0.039468
-0.466955 -0.002333 0.028810
-0.466955 0.067585 -0.019398
-0.466955 -0.014919 -0.073521
-0.466955 0.038071 0.021391
-0.466955 -0.007739 0.098918
-0.466955 -0.033393 -0.063330
-0.466955 0.036731 0.084822
-0.466955 0.039039 0.025996
-0.466955 0.040343 -0.055142
-0.466955 -0.059183 0.008656
-0.466955 0.061842 0.002997
-0.466955 0.006014 0.099224
-0.466955 -0.053068 0.036881
-0.466955 0.002364 0.003803
-0.466955 0.060571 0.038744
-0.466955 0.010326 0.083551
-0.466955 0.017885 -0.074739
-0.466955 -0.011181 -0.033736
-0.466955 -0.008376 -0.018598
-0.466955 0.072078 -0.022020
-0.466955 -0.031727 -0.080679
-0.466955 0.000150 -0.091277
-0.466955 0.050996 -0.010870
-0.466955 -0.002072 -0.075984
-0.466955 0.031256 0.048970
-0.466955 -0.057046 0.049335
-0.466955 0.037127 0.006567
-0.466955 -0.053822 -0.063116
-0.466955 0.076798 0.040809
-0.466955 -0.097823 -0.006879
-0.466955 0.091380 0.026420
-0.466955 0.060952 -0.073017
-0.466955 0.048902 0.082175
-0.466955 -0.036426 0.064589
-0.466955 -0.014154 0.051537
-0.466955 0.059289 -0.054700
-0.466955 -0.076690 -0.006572
-0.466955 0.083668 0.016450
-0.466955 -0.017167 -0.088900
-0.466955 0.008795 -0.033306
-0.466955 0.001817 -0.033631
-0.466955 0.071749 -0.043463
-0.466955 -0.081145 -0.046285
-0.466955 -0.082839 0.004987
-0.466955 -0.018875 0.009790
-0.466955 -0.082416 -0.018297
-0.466955 0.032595 0.048863
-0.466955 -0.048401 -0.026917
-0.466955 0.019852 -0.028211
-0.466955 0.059455 -0.061581
-0.466955 0.042271 -0.060956
-0.466955 0.070274 -0.061643
-0.466955 0.025684 0.054499
-0.466955 -0.032045 0.016009
-0.466955 -0.080844 0.054304
-0.466955 0.061333 0.053916
-0.466955 0.077153 -0.059718
-0.466955 -0.069643 0.051920
-0.466955 -0.072322 0.060554
-0.466955 -0.025064 -0.066239
-0.466955 0.011750 -0.055292
-0.466955 0.070129 0.018486
-0.466955 -0.081684 -0.014946
-0.466955 0.007163 -0.006513
-0.466955 0.035855 0.020337
-0.466955 -0.054462 -0.053674
-0.466955 -0.064033 0.035130
-0.466955 -0.045062 -0.087353
-0.466955 -0.036513 -0.077911
-0.466955 0.047593 0.087850
-0.466955 -0.013087 0.011792
-0.466955 -0.040400 -0.028235
-0.466955 -0.062599 -0.005495
-0.466955 -0.049420 0.015005
-0.466955 0.018765 -0.015563
-0.466955 -0.041911 0.022979
-0.466955 0.075385 -0.018292
-0.466955 -0.032809 -0.064794
-0.466955 -0.051754 -0.082406
-0.466955 0.051432 -0.022785
-0.466955 -0.009441 -0.021680
-0.466955 0.065900 0.072144
-0.466955 0.002679 -0.071756
-0.466955 0.010008 0.078945
-0.466955 -0.034793 0.085644
-0.466955 -0.069134 0.043996
-0.466955 -0.087419 0.018536
-0.466955 -0.038097 -0.025139
-0.466955 0.001870 0.037195
-0.466955 0.099875 0.001849
-0.466955 -0.045986 0.018445
-0.466955 -0.004963 0.054701
-0.466955 -0.071588 -0.031516
-0.466955 -0.076262 -0.049523
-0.466955 -0.005058 -0.024222
-0.466955 0.079016 -0.013586
-0.466955 -0.067150 0.000623
-0.466955 0.039719 0.014263
-0.466955 -0.037694 0.045967
-0.466955 -0.056005 0.070439
-0.466955 -0.056307 0.069129
-0.466955 0.054366 -0.026686
-0.466955 -0.024134 -0.035837
-0.466955 -0.017662 -0.054835
-0.466955 0.032851 0.016643
-0.466955 -0.038577 0.051995
-0.466955 -0.013508 0.038133
-0.466955 -0.006666 -0.003463
-0.466955 -0.020778 -0.061938
-0.466955 -0.011058 -0.072563
-0.466955 0.083141 0.024899
-0.466955 -0.051971 0.078713
-0.466955 0.059297 0.008061
-0.466955 -0.053708 -0.065570
-0.466955 0.080407 -0.050664
-0.466955 -0.085056 0.051722
-0.466955 -0.024187 -0.058647
-0.466955 0.046927 0.036231
-0.466955 0.015627 -0.037267
-0.466955 0.056667 0.077408
-0.466955 0.002857 -0.027173
-0.466955 -0.033357 -0.018583
-0.466955 0.082414 0.012053
-0.466955 -0.000001 -0.096609
-0.466955 -0.005070 0.065584
-0.466955 -0.041568 -0.027463
-0.466955 0.047900 -0.053588
-0.466955 -0.055144 -0.010991
-0.466955 0.080570 -0.020687
-0.466955 -0.030158 -0.039741
-0.466955 0.045399 0.049232
-0.466955 -0.026575 0.083614
-0.466955 -0.020945 0.069997
-0.466955 -0.004054 -0.019060
-0.466955 0.025339 -0.070672
-0.466955 -0.037901 -0.053078
-0.466955 -0.037922 0.019278
-0.466955 -0.033385 -0.006869
-0.466955 0.020337 0.003405
-0.466955 0.003456 0.032878
-0.466955 -0.003391 -0.012904
-0.466955 0.062991 -0.009943
-0.466955 0.056815 -0.078377
-0.466955 0.043484 0.059981
-0.466955 0.007029 -0.053773
-0.466955 -0.069123 0.061539
-0.466955 -0.047076 -0.043879
-0.466955 -0.011427 0.072951
-0.466955 0.018562 -0.079198
-0.466955 0.014544 0.091610
-0.466955 0.057966 -0.019542
-0.466955 -0.079382 -0.054462
-0.466955 0.020732 -0.073536
-0.466955 -0.053661 -0.038154
-0.466955 0.032714 0.005664
-0.466955 0.027794 0.049541
-0.466955 -0.006030 0.073546
-0.466955 -0.049371 0.053426
-0.466955 -0.057628 0.034259
-0.466955 -0.063783 0.020802
-0.466955 -0.031075 -0.016266
-0.466955 0.078168 -0.024213
-0.466955 -0.014417 0.076169
-0.466955 -0.027890 0.039403
-0.466955 -0.014487 0.044056
-0.466955 -0.004587 0.092415
-0.466955 -0.031860 0.088529
-0.466955 -0.065176 -0.001520
-0.466955 0.025142 0.015668
-0.466955 0.004351 -0.019243
-0.466955 -0.001451 0.048592
-0.466955 0.095817 -0.023141
-0.466955 -0.003801 0.029817
-0.466955 0.005894 -0.005957
-0.466955 -0.065695 0.016282
-0.466955 -0.075262 0.045116
-0.466955 0.074183 0.023683
-0.466955 0.080182 -0.038350
-0.466955 0.073029 -0.027222
-0.466955 0.026665 0.007241
-0.466955 -0.031443 0.083725
-0.466955 -0.047862 -0.025516
-0.466955 0.058311 0.063672
-0.466955 0.018610 -0.024759
-0.466955 0.037214 -0.075469
-0.466955 0.061871 -0.055364
-0.466955 0.097759 -0.005488
-0.466955 0.064759 0.025909
-0.466955 -0.018569 0.036177
-0.466955 -0.018969 -0.097838
-0.466955 0.035992 0.065920
-0.466955 0.024725 -0.027660
-0.466955 -0.048686 0.009309
-0.466955 0.038698 -0.047513
-0.466955 -0.061200 -0.004606
-0.466955 -0.049402 -0.035389
-0.466955 -0.059537 -0.055322
-0.466955 -0.041260 0.078257
-0.466955 -0.066259 0.046106
-0.466955 0.086690 -0.037814
-0.466955 -0.020270 0.048575
-0.466955 0.076764 0.038871
-0.466955 -0.033761 -0.069028
-0.466955 0.062467 -0.037459
-0.466955 0.089025 -0.040109
-0.466955 -0.021628 0.011790
-0.466955 -0.020083 -0.052072
-0.466955 -0.048634 -0.020446
-0.466955 0.075510 -0.028515
-0.466955 -0.005069 0.009280
-0.466955 0.073874 0.033092
-0.466955 -0.088678 0.021014
-0.466955 0.001601 -0.058744
-0.466955 -0.049084 0.081492
-0.466955 -0.042330 -0.052484
-0.466955 -0.012748 0.017794
-0.466955 -0.075230 -0.035158
-0.466955 0.029971 -0.054297
-0.466955 0.039052 -0.053652
-0.466955 0.069823 0.051463
-0.466955 -0.068918 0.058742
-0.466955 0.004705 -0.082352
-0.466955 0.050751 -0.036579
-0.466955 0.048511 -0.039452
-0.466955 -0.038424 0.073829
-0.466955 -0.007181 0.061673
-0.466955 0.028909 -0.091504
-0.466955 0.024625 0.009416
-0.466955 -0.072382 -0.016554
-0.466955 0.064216 0.016209
-0.466955 -0.009884 0.054604
-0.466955 -0.083001 0.019991
-0.466955 -0.007578 0.044114
-0.466955 0.061336 -0.031626
-0.466955 -0.016960 0.084193
-0.466955 0.034677 0.000337
-0.466955 0.081816 -0.003108
-0.466955 -0.057310 -0.027942
-0.466955 -0.035221 -0.074276
-0.466955 0.023145 -0.046876
-0.466955 0.059555 0.077896
-0.466955 -0.034271 0.011331
-0.466955 -0.085609 0.011939
-0.466955 -0.089020 -0.031008
-0.466955 -0.009110 0.038782
-0.466955 -0.092415 -0.025004
-0.466955 -0.046337 0.043795
-0.466955 0.012790 0.003670
-0.466955 0.059466 0.015606
-0.466955 -0.015208 0.083437
-0.466955 0.046895 0.046056
-0.466955 0.038170 -0.000357
-0.466955 0.011634 -0.051415
-0.466955 0.011246 -0.076144
-0.466955 0.027221 -0.043422
-0.466955 0.041063 -0.004202
-0.466955 0.014898 -0.079374
-0.466955 -0.000423 0.065161
-0.466955 -0.065888 0.031370
-0.466955 -0.073477 -0.005784
-0.466955 0.032282 -0.026964
-0.466955 0.033397 0.076181
-0.466955 -0.054115 0.018236
-0.466955 0.079018 0.027511
-0.466955 0.053953 0.045414
-0.466955 -0.001911 -0.077635
-0.466955 -0.030372 -0.083010
-0.466955 0.014233 -0.016329
-0.466955 0.039274 -0.004525
-0.466955 -0.011910 -0.086601
-0.466955 -0.091759 0.014997
-0.466955 0.053533 -0.004293
-0.466955 -0.027756 -0.042222
-0.466955 -0.077298 0.029675
-0.466955 0.036582 -0.082647
-0.466955 0.046073 0.044916
-0.466955 -0.027937 -0.028112
-0.466955 -0.030909 0.040152
-0.466955 -0.034751 0.027570
-0.466955 -0.033681 -0.082569
-0.466955 0.041267 0.042821
-0.466955 -0.023929 -0.091174
-0.466955 -0.042431 -0.032201
-0.466955 0.058538 -0.005686
-0.466955 -0.016620 0.075715
-0.466955 -0.035175 -0.050485
-0.466955 -0.035145 0.019031
-0.466955 0.016866 0.053109
-0.466955 0.023560 -0.040957
-0.466955 -0.020025 -0.092467
-0.466955 0.025829 -0.022315
-0.466955 0.057289 -0.071026
-0.466955 -0.047698 -0.046448
-0.466955 0.081451 -0.042397
-0.466955 -0.096935 -0.003357
-0.466955 -0.015487 -0.003111
-0.466955 -0.022547 -0.066318
-0.466955 -0.033571 0.026620
-0.466955 0.022297 0.010554
-0.466955 -0.008113 -0.054713
-0.466955 -0.070841 -0.043966
-0.466955 0.002704 0.084385
-0.466955 -0.010371 -0.079020
-0.466955 -0.060159 -0.035423
-0.466955 -0.060422 0.044750
-0.466955 0.021599 0.072681
-0.466955 -0.017507 -0.096791
-0.466955 -0.022868 0.044528
-0.466955 -0.022682 0.074457
-0.466955 -0.018368 -0.060955
-0.466955 -0.055500 0.082614
-0.466955 0.016859 0.005890
-0.466955 0.087779 -0.003154
-0.466955 -0.069101 0.000246
-0.466955 -0.019962 -0.018487
-0.466955 0.055061 0.065552
-0.466955 -0.032746 -0.048101
-0.466955 0.014924 0.013895
-0.466955 0.085000 -0.014936
-0.466955 0.051309 0.026548
-0.466955 0.089941 -0.017116
-0.466955 0.011996 -0.000997
-0.466955 -0.005487 -0.039112
-0.466955 -0.053014 0.014880
-0.466955 0.040214 -0.002854
-0.466955 -0.062432 0.020128
-0.466955 0.066428 -0.066359
-0.466955 0.034509 -0.077188
-0.466955 0.008533 -0.058102
-0.466955 0.040783 -0.026052
-0.466955 -0.039130 -0.058165
-0.466955 -0.044500 -0.051768
-0.466955 -0.005821 -0.011825
-0.466955 0.023810 0.078100
-0.466955 0.053817 0.030233
-0.466955 -0.062414 0.043595
-0.466955 0.066741 0.053503
-0.466955 0.074010 -0.037528
-0.466955 0.041052 -0.060358
-0.466955 -0.074734 0.021888
-0.466955 0.024681 0.067105
-0.466955 0.043587 0.015667
-0.466955 0.048636 0.085496
-0.466955 0.087517 0.031262
-0.466955 -0.034599 0.002901
-0.466955 0.027461 0.028050
-0.466955 0.040224 0.084459
-0.466955 -0.014984 0.038502
-0.466955 -0.011885 0.041746
-0.466955 -0.030087 -0.079496
-0.466955 -0.074929 0.019128
-0.466955 0.057353 -0.000459
-0.466955 -0.012663 0.043153
-0.466955 -0.038170 0.023184
-0.466955 0.011273 -0.097271
-0.466955 -0.040703 -0.032308
-0.466955 -0.054553 0.007369
-0.466955 -0.050164 0.008162
-0.466955 -0.020256 -0.079729
-0.466955 -0.059676 -0.059572
-0.466955 -0.050841 -0.035016
-0.466955 -0.003454 0.077468
-0.466955 -0.023191 0.013859
-0.466955 -0.042193 -0.074201
-0.466955 -0.017261 0.087826
-0.466955 0.007380 0.043373
-0.466955 -0.031221 0.070131
-0.466955 -0.088390 0.005344
-0.466955 -0.025949 0.093139
-0.466955 0.021779 0.012821
-0.466955 0.035848 0.023209
-0.466955 0.035909 0.091938
-0.466955 -0.029279 0.067956
-0.466955 -0.045610 -0.004684
-0.466955 -0.031384 -0.006897
-0.466955 -0.084578 0.005821
-0.466955 0.014928 0.088650
-0.466955 -0.023948 -0.044324
-0.466955 -0.006110 -0.060000
-0.466955 -0.044257 -0.023178
-0.466955 0.060078 0.047987
-0.466955 0.035271 -0.058899
-0.466955 0.025262 0.036013
-0.466955 -0.052000 0.001443
-0.466955 0.084728 0.048261
-0.466955 -0.081986 0.049023
-0.466955 0.065626 -0.061040
-0.466955 -0.095395 0.021399
-0.466955 0.064142 -0.076075
-0.466955 0.076296 0.063630
-0.466955 -0.080836 -0.028199
-0.466955 0.090058 0.011978
-0.466955 -0.050544 0.018003
-0.466955 0.032230 0.050690
-0.466955 -0.085960 -0.013582
-0.466955 -0.034274 0.035509
-0.466955 -0.076034 -0.058787
-0.466955 -0.037179 0.066113
-0.466955 0.019423 -0.088539
-0.466955 -0.077587 -0.054888
-0.466955 0.014988 -0.012443
-0.466955 0.023408 -0.054865
-0.466955 -0.071585 -0.022892
-0.466955 0.003673 -0.031508
-0.466955 0.032603 0.072109
-0.466955 0.045444 0.037084
-0.466955 0.046472 -0.059578
-0.466955 -0.020856 -0.025416
-0.466955 -0.063174 -0.066362
-0.466955 0.033446 0.068329
-0.466955 0.004243 -0.006435
-0.466955 -0.087656 0.010079
-0.466955 0.009065 0.042122
-0.466955 0.060818 0.041644
-0.466955 -0.041000 -0.043424
-0.466955 0.042976 0.010316
-0.466955 -0.086450 -0.041313
-0.466955 -0.034536 -0.036546
-0.466955 0.062685 0.026343
-0.466955 -0.003064 0.043703
-0.466955 0.076867 0.034466
-0.466955 -0.059237 0.036012
-0.466955 -0.000279 -0.082488
-0.466955 0.070640 0.045761
-0.466955 0.043080 -0.018560
-0.466955 -0.024029 -0.001127
-0.466955 -0.021828 -0.013711
-0.466955 -0.041370 0.081988
-0.466955 0.024810 0.072151
-0.466955 -0.077986 0.020844
-0.466955 -0.044373 0.038911
-0.466955 0.080934 0.000476
-0.466955 -0.078379 0.005381
-0.466955 -0.070475 0.005813
-0.466955 -0.081186 0.029136
-0.466955 -0.035611 0.089342
-0.466955 -0.048899 -0.006021
-0.466955 0.035796 0.042469
-0.466955 0.043123 -0.005424
-0.466955 -0.041458 -0.067643
-0.466955 0.071376 -0.039502
-0.466955 -0.057373 0.022353
-0.466955 -0.022762 -0.045436
-0.466955 -0.007593 -0.037461
-0.466955 0.005387 0.009001
-0.466955 -0.056048 -0.047719
-0.466955 -0.034474 0.087076
-0.466955 0.072619 0.041158
-0.466955 0.096694 0.012502
-0.466955 0.008583 -0.034863
-0.466955 -0.018416 -0.092897
-0.466955 -0.047318 0.008149
-0.466955 -0.079020 -0.014439
-0.466955 0.027994 0.062529
-0.466955 -0.021175 -0.059713
-0.466955 0.024302 -0.042186
-0.466955 -0.083678 -0.013976
-0.466955 -0.089870 0.016769
-0.466955 0.079169 0.042204
-0.466955 0.025127 -0.026168
-0.466955 0.028162 0.003437
-0.466955 0.060092 -0.006733
-0.466955 0.094160 -0.016375
-0.466955 0.056061 -0.058965
-0.466955 0.011840 0.036782
-0.466955 0.045198 -0.054830
-0.466955 -0.043342 0.019837
-0.466955 0.059479 -0.067276
-0.466955 -0.075943 -0.003105
-0.466955 0.025612 0.022310
-0.466955 -0.042636 -0.036654
-0.466955 0.039241 -0.020088
-0.466955 0.038490 0.016749
-0.466955 0.031236 -0.083583
-0.466955 0.000869 -0.000435
-0.466955 -0.064509 0.011624
-0.466955 -0.055209 -0.017669
-0.466955 0.045719 0.084543
-0.466955 0.001066 -0.035119
-0.466955 0.056785 -0.030087
-0.466955 -0.035201 -0.057121
-0.466955 0.041926 0.034736
-0.466955 0.003845 -0.014979
-0.466955 0.052704 0.070822
-0.466955 -0.058551 0.068561
-0.466955 0.015057 0.098625
-0.466955 0.011490 0.025997
-0.466955 -0.094482 0.024614
-0.466955 0.064955 0.065457
-0.466955 -0.040397 0.022836
-0.466955 0.092431 -0.035515
-0.466955 0.007110 -0.062249
-0.466955 -0.067056 -0.070019
-0.466955 -0.081935 0.024395
-0.466955 0.077123 0.028881
-0.466955 0.054618 0.056504
-0.466955 -0.006854 0.083343
-0.466955 0.012323 -0.033054
-0.466955 -0.045856 -0.041179
-0.466955 0.031792 0.000581
-0.466955 0.090951 -0.000579
-0.466955 0.017179 -0.017371
-0.466955 0.026775 -0.068140
-0.466955 -0.072587 -0.009603
-0.466955 0.029422 -0.028011
-0.466955 -0.071988 0.069153
-0.466955 -0.012945 0.013429
-0.466955 0.004661 0.043308
-0.466955 0.090670 -0.039658
-0.466955 0.068887 -0.048615
-0.466955 0.082483 0.035813
-0.466955 -0.025950 0.088988
-0.466955 0.001654 -0.065850
-0.466955 -0.019504 -0.039589
-0.466955 0.064962 -0.016752
-0.466955 -0.011733 0.067164
-0.466955 0.034131 -0.057891
-0.466955 -0.076007 0.006698
-0.466955 0.088427 0.013309
-0.466955 0.034750 0.040815
-0.466955 0.045015 -0.043227
-0.466955 0.072163 -0.054367
-0.466955 -0.039699 -0.052146
-0.466955 0.035772 -0.073646
-0.466955 0.054874 0.054832
-0.466955 -0.011929 0.049146
-0.466955 0.055315 0.038925
-0.466955 -0.028311 0.036160
-0.466955 -0.053333 0.002012
-0.466955 0.098352 0.016674
-0.466955 -0.038956 0.054255
-0.466955 0.075529 0.033663
-0.466955 0.032099 -0.088916
-0.466955 0.058752 -0.022823
-0.466955 -0.071198 0.054303
-0.466955 -0.009153 -0.058432
-0.466955 0.083146 0.000111
-0.466955 0.037130 -0.044237
-0.466955 0.069698 -0.062966
-0.466955 -0.001329 0.069020
-0.466955 -0.066401 -0.068283
-0.466955 0.046949 0.079276
-0.466955 -0.057915 -0.011525
-0.466955 -0.047644 0.037520
-0.466955 -0.039203 -0.053636
-0.466955 -0.072473 0.053417
-0.466955 0.064915 0.061899
-0.466955 -0.050273 0.059792
-0.466955 -0.032817 0.023455
-0.466955 0.071999 0.065814
-0.466955 -0.002023 0.016923
-0.466955 0.042372 -0.050109
-0.466955 0.069789 0.001225
-0.466955 -0.030273 0.010915
-0.466955 -0.018723 -0.024390
-0.466955 -0.052611 0.025165
-0.466955 0.099295 -0.000718
-0.466955 0.065086 0.074367
-0.466955 0.013419 0.038916
-0.466955 -0.024131 -0.021266
-0.466955 0.044631 0.045002
-0.466955 0.084927 0.010803
-0.466955 0.017196 -0.067950
-0.466955 0.013891 0.041121
-0.466955 0.032488 -0.085708
-0.466955 -0.042667 -0.077105
-0.466955 0.028862 -0.058077
-0.466955 0.028928 0.028102
-0.466955 0.051283 0.014824
-0.466955 -0.018620 0.083914
-0.466955 0.057727 -0.052339
-0.466955 0.003798 -0.039221
-0.466955 -0.055248 0.016978
-0.466955 -0.092130 0.026171
-0.466955 0.045259 0.046801
-0.466955 0.075299 0.044820
-0.466955 0.037705 -0.019098
-0.466955 -0.003905 -0.054898
-0.466955 0.076672 -0.045725
-0.466955 -0.075556 0.012493
-0.466955 -0.038817 0.063794
-0.466955 0.068669 -0.047258
-0.466955 0.091017 0.040984
-0.466955 0.075200 -0.061918
-0.466955 -0.003589 0.067152
-0.466955 0.025229 -0.035612
-0.466955 0.002196 0.000485
-0.466955 0.037056 -0.021608
-0.466955 -0.082175 0.008808
-0.466955 -0.057760 0.041353
-0.466955 -0.017171 0.096529
-0.466955 -0.020300 -0.042969
-0.466955 0.082052 -0.006425
-0.466955 -0.027023 0.059827
-0.466955 0.034253 -0.034811
-0.466955 -0.078839 -0.036934
-0.466955 -0.055277 -0.043787
-0.466955 -0.070642 0.000592
-0.466955 0.056897 -0.060541
-0.466955 0.030022 -0.076455
-0.466955 -0.004129 0.034510
-0.466955 -0.028413 -0.035482
-0.466955 0.012526 -0.021714
-0.466955 0.033156 0.035112
-0.466955 0.052522 0.021139
-0.466955 -0.081991 0.021127
-0.466955 0.068477 -0.011480
-0.466955 -0.002848 -0.030656
-0.466955 0.006039 -0.024852
-0.466955 0.011832 -0.070906
-0.466955 0.060580 0.011322
-0.466955 0.013326 0.042744
-0.466955 -0.024616 0.000323
-0.466955 -0.012031 -0.065285
-0.466955 -0.005204 0.030467
-0.466955 -0.036306 0.084121
-0.466955 -0.002286 -0.057782
-0.466955 0.050625 0.049903
-0.466955 0.054166 -0.014140
-0.466955 -0.059229 -0.034379
-0.466955 0.016580 -0.020079
-0.466955 -0.033576 -0.077008
-0.466955 -0.005776 0.025602
-0.466955 -0.007383 -0.020072
-0.466955 -0.023491 0.089012
-0.466955 -0.032080 0.003825
-0.466955 0.085477 -0.025342
-0.466955 -0.012680 -0.055713
-0.466955 0.020108 0.067110
-0.466955 -0.071155 0.052378
-0.466955 0.003330 -0.093577
-0.466955 -0.031685 -0.063665
-0.466955 0.055019 -0.022255
-0.466955 0.043474 0.028487
