-0.279473 -0.092101 -0.038106
-0.201578 -0.077801 0.062625
0.225694 0.016531 0.098665
-0.096765 -0.090421 0.042351
0.182817 -0.094041 -0.033023
0.151624 0.085442 0.052036
0.394304 0.022713 -0.097071
-0.141009 0.090579 0.042525
0.191781 -0.099567 -0.006169
-0.195095 -0.031167 0.095031
-0.285090 0.069059 0.072433
-0.434110 -0.070539 -0.070357
-0.102254 -0.097101 0.022933
0.179696 -0.064154 0.076618
-0.218167 0.087798 0.048011
0.125187 -0.096785 -0.023983
0.324632 -0.053431 -0.084141
0.193689 -0.098902 0.013217
0.111535 -0.051421 -0.085332
-0.292023 -0.098277 -0.016803
0.070829 -0.071958 -0.068938
-0.010445 -0.040260 0.091495
0.033848 0.034684 0.093849
-0.195033 0.064539 -0.076122
0.176348 -0.073607 0.067529
-0.240579 -0.051868 -0.085067
0.359690 0.092392 0.038337
-0.239930 0.086502 0.050244
0.204661 0.033966 -0.093745
-0.253850 -0.085647 -0.050932
-0.407253 0.006790 0.099835
0.262914 0.099262 -0.011866
-0.107986 -0.090534 0.042090
-0.424584 -0.040102 0.091564
-0.149512 0.099952 0.001887
0.280445 0.069658 0.071834
0.367666 -0.027110 0.096239
-0.317525 -0.075586 -0.064922
0.339095 -0.097021 0.023292
0.014983 0.052759 -0.084678
-0.289222 0.048291 -0.087320
-0.180454 -0.071077 -0.069819
-0.376358 0.095941 -0.027848
0.374245 -0.014653 0.098926
-0.411231 -0.024054 0.097082
-0.079860 -0.013438 0.099118
0.269171 -0.089418 0.044375
-0.129140 -0.023582 -0.096824
-0.173805 -0.045066 0.089212
0.409484 -0.080675 0.058920
-0.325114 -0.086169 -0.050050
-0.278997 0.020052 0.098028
0.214509 0.096483 -0.025982
0.353354 0.096486 0.026336
-0.321981 0.037060 -0.092618
0.367998 -0.017234 -0.098154
0.418732 -0.038027 0.092462
-0.044952 -0.011302 0.099386
-0.067966 -0.044874 -0.088947
0.181712 -0.000852 0.100040
0.317273 0.039328 -0.091637
0.398291 -0.041152 -0.090746
0.121127 -0.044494 0.089504
0.016636 0.092145 -0.038545
-0.282868 -0.092048 0.038592
-0.220438 -0.001238 0.100027
-0.283440 -0.094804 -0.030906
-0.420094 0.000704 0.100051
-0.081010 -0.029933 -0.095056
0.297305 -0.099728 -0.001214
0.289831 0.089024 -0.045243
-0.240889 -0.077170 0.063439
-0.405574 0.096607 0.025917
0.350202 -0.094324 0.032602
0.370550 0.099206 0.012771
-0.071918 -0.096626 -0.024687
-0.101065 -0.025736 -0.096275
0.248493 -0.098674 -0.014295
-0.371511 -0.018566 0.098306
-0.279267 -0.064502 0.076312
0.410576 -0.099695 0.002635
0.348240 -0.099688 -0.002493
-0.155678 0.006541 0.099858
-0.224735 0.037910 -0.092251
-0.187225 0.031628 -0.094586
-0.460213 -0.077931 0.062458
-0.413787 -0.048371 0.087498
0.222542 0.038924 0.092175
-0.427680 -0.021755 0.097596
-0.433972 0.055031 0.083574
-0.430620 -0.072137 0.069122
-0.448988 0.087675 -0.047891
0.104414 -0.099465 -0.007248
0.464955 -0.089949 -0.042969
-0.352763 -0.095359 -0.029048
-0.444100 -0.087689 0.047767
0.207313 0.099784 -0.006346
0.463901 -0.088091 0.046979
-0.120214 -0.001692 -0.099650
0.066215 -0.020695 0.097833
0.159637 -0.097652 -0.020106
0.455382 -0.077941 0.062444
0.366986 -0.001869 -0.099645
-0.094334 0.049413 0.087019
0.340216 0.019905 -0.097698
-0.263785 -0.032087 -0.094337
0.308373 -0.092437 0.037692
0.122598 0.023436 0.097272
0.115758 0.099906 -0.002967
-0.036691 0.003517 0.099963
0.132527 -0.004985 -0.099547
0.042244 0.081632 -0.057496
0.067905 0.073132 0.068333
-0.465038 0.075236 0.065947
-0.435803 -0.053578 -0.084041
0.126302 -0.018344 0.098341
-0.404326 -0.092151 0.038355
-0.413418 0.098729 -0.015421
-0.287613 0.015112 0.098890
0.043934 0.048029 0.087821
-0.145085 0.047161 0.088263
-0.082618 0.020022 0.098035
0.420051 -0.038897 -0.091722
-0.114348 -0.088573 -0.045670
-0.033413 0.085830 0.051381
0.102231 -0.047111 -0.087807
-0.059594 0.036444 0.093215
-0.226207 -0.035561 0.093449
-0.004101 0.070196 -0.070933
0.006877 0.073048 0.068429
0.134171 -0.020481 -0.097517
0.042061 0.067239 -0.073742
0.011296 0.046865 0.088414
-0.107040 -0.062020 0.078337
0.221966 0.096890 0.024921
-0.085400 0.038995 -0.091781
0.183181 0.052314 0.085304
0.419701 0.087693 0.048219
0.378444 -0.099042 -0.011723
-0.091866 -0.083550 -0.054331
0.001079 0.093168 0.036461
-0.249208 -0.026506 -0.096052
0.254130 -0.080645 0.058959
-0.409869 -0.099333 0.009012
0.389601 -0.024135 -0.096701
0.169061 0.051164 -0.085621
-0.464579 -0.097724 -0.019783
-0.114391 -0.012275 -0.098932
-0.391368 0.035686 -0.093125
0.465014 -0.019033 0.098204
-0.364114 -0.055808 -0.082525
0.143652 0.068845 -0.072284
-0.216910 -0.099656 0.003864
0.393893 0.085634 0.051712
0.345286 -0.099691 0.002748
-0.189751 0.007712 0.099748
-0.419220 0.098607 -0.016195
0.241238 0.099954 0.001814
-0.145447 0.099830 -0.005390
-0.380106 0.068932 -0.072198
0.369945 -0.020446 0.097888
0.045221 0.094496 0.032773
-0.133526 -0.093919 0.033726
0.059678 -0.018505 -0.097953
-0.196345 -0.059060 -0.080271
0.406828 -0.015644 -0.098406
0.313838 -0.099032 -0.011834
-0.430142 0.098365 -0.017722
0.249658 -0.013231 0.099151
-0.123219 -0.058151 0.081295
0.113999 0.008975 0.099628
0.358143 -0.098708 0.014445
-0.128130 0.099808 -0.006090
0.311529 -0.002394 -0.099628
0.247521 -0.074489 -0.066167
0.112858 -0.014438 -0.098597
-0.190714 -0.057883 0.081478
-0.051788 -0.058581 0.081003
-0.349149 -0.086854 -0.048892
-0.226872 0.051494 0.085789
-0.035588 0.093214 0.036333
-0.396018 0.006094 -0.099519
-0.150123 -0.096455 0.025636
-0.398540 0.021400 -0.097364
-0.336245 -0.028673 -0.095422
-0.373181 0.093761 -0.034452
-0.410965 0.069623 -0.071507
0.073627 -0.089553 -0.043747
0.121807 0.036222 -0.092933
-0.030834 0.047413 -0.087772
0.330715 -0.040887 0.091224
-0.429266 -0.077285 0.063290
0.024095 -0.099185 -0.010217
0.086336 -0.099620 0.005028
-0.259643 0.062547 0.078110
0.255681 -0.067324 0.073824
-0.082851 -0.037671 0.092616
0.402774 0.092603 0.037848
-0.316657 -0.010689 0.099444
0.344440 0.060094 0.080012
0.161067 -0.093169 -0.035448
0.263053 -0.045613 0.088933
0.349519 -0.098302 0.017006
0.071469 -0.001115 0.100031
-0.203675 0.048227 0.087720
-0.337642 0.000513 0.100058
0.137766 -0.027235 0.096202
-0.107564 -0.044564 -0.089105
0.419681 0.099990 0.000659
-0.196526 -0.098682 -0.014245
-0.274084 0.070850 -0.070280
-0.079071 0.077205 0.063694
-0.294579 -0.099200 -0.010060
0.059205 0.099003 -0.013691
0.126223 0.013047 -0.098854
0.463832 0.100003 0.000264
0.360710 -0.038878 0.092093
0.053518 0.079881 0.060244
-0.427595 -0.058947 0.080721
0.431071 0.065318 -0.075436
0.115903 -0.098905 -0.012837
-0.349440 0.007198 0.099796
-0.096384 -0.069715 0.071544
-0.250102 0.092620 -0.037447
0.408089 0.099439 -0.009998
-0.342887 0.050447 0.086408
0.321938 -0.063673 -0.076679
0.329480 -0.010060 0.099504
0.243903 0.087823 -0.047601
-0.023827 -0.037861 0.092534
0.364229 -0.097500 0.021145
0.091047 0.029029 -0.095386
0.204123 -0.069401 -0.071495
0.079682 -0.019706 -0.097691
0.229117 0.087915 -0.047419
-0.108601 -0.004330 0.099930
0.386837 0.034224 -0.093652
-0.104321 0.057640 -0.081439
-0.417100 -0.022232 0.097489
-0.080640 -0.005425 0.099896
-0.436501 -0.007851 -0.099350
-0.449188 0.030589 -0.094933
0.455183 -0.042367 -0.090221
0.287676 0.001062 -0.099677
-0.431244 0.056641 -0.082118
-0.300468 -0.024530 -0.096613
-0.076834 0.042831 -0.090107
-0.444617 0.096593 0.025966
0.297510 -0.096649 0.024954
0.238421 -0.078801 -0.060973
-0.063496 -0.000857 0.100039
-0.396422 -0.027492 -0.095765
-0.393427 -0.037597 -0.092285
0.204569 -0.089223 -0.044394
-0.216163 0.096125 0.027576
0.017145 -0.079973 0.059825
-0.077047 -0.046841 -0.087945
-0.249373 -0.016362 0.098655
0.186505 -0.081800 -0.056906
-0.325497 -0.092885 -0.036236
0.185698 0.069747 -0.071382
-0.335634 0.039198 -0.091693
-0.122885 0.039425 0.091958
0.113664 -0.096058 -0.026643
-0.440601 -0.046549 -0.088094
-0.365537 -0.015032 -0.098503
-0.106014 -0.037793 0.092563
0.256434 0.060005 0.080081
-0.431208 0.062284 -0.077951
-0.290985 0.035492 0.093558
-0.061320 -0.082265 0.056584
-0.252936 0.015439 -0.098476
-0.223445 0.047041 0.088324
-0.302383 0.031244 -0.094725
0.019006 0.050804 0.086197
0.342715 -0.038215 0.092380
-0.316603 -0.082446 0.056318
0.322124 0.015063 0.098898
-0.252700 0.097669 0.021435
0.110967 -0.059081 0.080617
0.275590 0.035703 0.093482
-0.461033 -0.061306 -0.078528
0.273557 -0.094258 -0.032422
-0.245759 0.061913 0.078601
0.367921 -0.079993 0.059800
0.350521 0.057706 -0.081394
-0.365773 0.033759 -0.093819
-0.389186 0.057978 0.081572
-0.190296 0.091126 -0.040900
-0.322915 0.080747 -0.058766
-0.362751 -0.030315 0.095308
-0.304863 0.083285 0.055426
0.028877 0.031053 0.095156
0.431702 -0.096780 0.024370
0.222013 0.098341 0.018237
-0.207290 -0.020539 0.097867
0.276111 -0.089068 0.045061
-0.127669 0.081623 0.057872
-0.192615 -0.020699 0.097831
0.357907 0.025593 -0.096385
-0.075137 0.069830 0.071662
-0.099607 -0.093755 0.034183
0.028740 0.091551 -0.039918
0.093978 -0.006387 0.099851
0.318981 0.052717 -0.084703
-0.424405 -0.084388 -0.053061
0.298552 0.016475 0.098674
0.206931 -0.099008 -0.012091
0.110839 0.095466 0.029846
-0.312186 0.014063 -0.098693
-0.239911 0.081503 -0.057686
-0.160111 0.023018 -0.097003
0.373410 0.074288 -0.066659
-0.013439 -0.098007 0.018870
-0.385410 0.010356 -0.099135
-0.234196 -0.030306 0.095310
0.162647 -0.099150 -0.010584
0.401815 0.099296 -0.011506
0.317777 -0.039250 0.091932
-0.134151 0.097700 -0.020934
0.171961 0.081707 0.057748
0.217269 0.090355 -0.042630
-0.285267 0.056311 -0.082342
0.373815 0.099866 0.004614
0.464287 -0.093343 0.035325
0.250026 0.052189 -0.085016
0.083057 0.060533 -0.079309
0.275984 -0.040616 0.091341
-0.431032 0.043107 0.090329
-0.185233 0.084996 0.052791
0.412533 0.099921 0.002866
-0.160609 -0.094119 -0.032808
0.123707 0.086941 -0.049139
0.132404 -0.060924 -0.078825
0.419925 -0.096076 0.026942
-0.073608 0.099020 -0.013584
0.387651 -0.095618 -0.028155
-0.009869 0.083319 0.055377
0.205879 0.099329 0.011519
-0.119577 -0.068208 0.073045
0.292131 0.018245 0.098394
0.329911 0.092605 -0.037481
-0.088667 0.061427 -0.078615
0.441725 0.076374 0.064657
0.115168 -0.063828 -0.076543
-0.377513 0.092204 -0.038409
0.169128 0.083397 -0.054899
0.084329 0.011485 -0.099028
-0.007730 0.097569 0.021884
0.442400 -0.027260 0.096195
0.058988 0.000476 -0.099696
0.244497 -0.024962 -0.096500
0.423020 -0.043695 -0.089548
-0.450299 0.033057 0.094435
0.078948 -0.058801 -0.080471
0.337495 0.068007 0.073428
-0.392868 0.003595 0.099961
0.078059 0.074308 0.067000
0.261704 0.083236 0.055498
0.348977 0.078091 -0.062190
-0.352023 0.019803 0.098084
-0.370966 -0.023348 -0.096877
-0.402607 -0.099155 0.010894
0.146892 -0.003587 0.099954
-0.249382 0.096221 -0.026883
0.151072 0.007427 -0.099412
-0.035550 -0.016171 -0.098323
-0.224531 0.085356 0.052181
0.370812 0.006779 0.099836
-0.338319 -0.098131 0.018090
0.022435 -0.024528 -0.096613
-0.251698 -0.094193 -0.032604
0.004841 -0.007133 0.099780
-0.182060 0.094199 -0.033235
0.123482 0.099858 -0.004500
0.035608 0.093444 0.035693
0.237492 0.099855 -0.004588
-0.167550 0.097653 -0.021146
-0.347891 -0.096540 -0.024981
-0.072084 -0.021832 -0.097216
0.412761 0.084228 -0.053676
0.074588 0.029345 -0.095294
0.223071 0.020578 -0.097548
-0.264801 0.048201 -0.087371
0.155460 -0.099181 -0.010253
0.172632 -0.096430 -0.025360
0.171510 0.021423 0.097722
0.269665 -0.080977 0.058479
-0.385529 0.023198 -0.096963
0.130910 0.099853 -0.004677
0.023676 -0.098363 -0.016257
-0.127801 0.052422 -0.084877
0.236090 -0.011028 -0.099049
0.029034 -0.096385 0.025877
-0.020684 0.053694 0.084483
0.437280 -0.083050 -0.055066
-0.249894 -0.088362 -0.046085
0.354938 -0.093416 -0.034762
-0.254963 -0.098724 0.014343
0.059227 0.086308 -0.050208
-0.241625 0.063482 -0.077022
-0.096148 -0.053618 0.084376
-0.130364 -0.078662 0.061515
-0.044228 -0.085057 -0.051929
-0.219565 0.088373 -0.046522
0.271499 -0.076938 0.063738
0.454772 0.100005 0.000173
0.270568 -0.054720 -0.083265
0.261946 -0.090520 0.042123
-0.219033 -0.048102 0.087657
-0.355586 0.099946 -0.001718
-0.341021 -0.094940 -0.030491
0.083938 0.064849 0.076212
0.053969 -0.046323 0.088572
0.370645 -0.096969 -0.023158
0.023249 0.099833 -0.005299
-0.072708 0.074974 0.066244
0.127261 -0.099642 0.004329
0.006771 0.099902 0.003477
-0.372042 0.083641 0.054903
-0.061779 -0.098089 -0.017988
-0.395166 0.009363 0.099592
0.322533 -0.093105 0.035988
0.381622 0.052865 0.084978
0.340527 0.077532 -0.062911
-0.124638 0.059686 -0.079966
0.430993 -0.045793 0.088841
0.050720 -0.090996 0.041023
0.025283 0.097473 -0.021950
0.444246 0.093186 0.036410
-0.006208 0.089659 -0.043997
-0.377963 0.055678 0.083135
-0.412391 0.051098 -0.085661
0.059818 0.089046 0.045562
-0.338108 -0.063109 0.077493
-0.118139 -0.097708 -0.019853
0.399510 -0.098956 0.012878
0.122592 0.077509 -0.062940
0.291103 -0.047055 -0.087835
0.315107 -0.091534 -0.039418
-0.215387 -0.075583 -0.064926
-0.224299 -0.025284 0.096769
0.227145 -0.030146 -0.094994
0.092025 -0.079749 -0.059751
0.321197 0.045283 0.089220
0.299755 0.079604 0.060602
-0.404719 -0.068635 -0.072261
-0.106381 -0.098250 0.017338
0.425715 0.032111 -0.094413
-0.314718 0.056458 -0.082242
-0.059849 0.099775 -0.006436
0.437790 -0.099735 0.001343
0.458376 -0.095232 0.029846
0.132023 -0.066992 -0.073754
0.129108 0.072491 0.069002
-0.286956 -0.099713 0.002069
-0.461100 0.078917 -0.061125
-0.455384 -0.077571 -0.062559
0.394281 -0.045595 -0.088580
-0.227388 0.073358 -0.067715
-0.116738 -0.099403 -0.007905
-0.339852 0.078755 0.061696
-0.105692 0.031739 0.094909
-0.263782 0.080757 0.059116
-0.139532 0.076051 -0.064660
-0.158419 0.097311 -0.022673
0.115797 0.052593 -0.084776
0.350126 0.050403 -0.086072
0.128232 -0.031381 -0.094591
-0.429666 0.084719 -0.052896
0.369923 -0.060619 -0.079061
0.121128 -0.032522 -0.094180
0.261160 0.041412 0.091098
0.009022 -0.041657 -0.090528
-0.066895 0.012485 0.099297
0.315893 -0.003629 0.099952
-0.056958 -0.074426 0.066601
0.074132 -0.048957 0.087151
-0.378962 0.066668 0.074608
-0.298865 -0.097949 -0.018777
-0.042571 0.099943 -0.001811
0.144394 0.053131 -0.084458
-0.444852 0.075840 0.065261
0.043724 0.099314 0.011676
-0.219066 0.098390 0.017929
0.448550 0.078307 -0.061911
-0.056305 -0.063572 0.077132
0.336525 -0.095226 0.029867
-0.303016 0.059431 -0.080164
0.301120 -0.036076 0.093264
-0.193934 0.099998 0.000398
-0.197200 0.081561 -0.057600
-0.193650 -0.052949 -0.084428
0.276020 0.055427 -0.082943
-0.337872 0.051318 -0.085530
0.285138 -0.088904 0.045384
0.004931 -0.022244 0.097486
-0.154590 -0.085851 0.050951
0.136133 0.029655 0.095567
-0.129361 -0.042771 0.090381
-0.024147 0.060815 0.079453
-0.140178 0.029323 -0.095301
0.014031 -0.053780 0.084266
-0.183377 0.024421 0.097052
0.363334 0.021981 0.097597
-0.399289 0.051870 -0.085204
0.453118 -0.010836 -0.099068
0.376204 -0.059650 0.080175
-0.026963 -0.099669 -0.003092
0.101991 -0.097811 -0.019395
0.214147 -0.064261 -0.076162
0.028255 -0.090139 -0.042596
-0.063383 0.096390 -0.026303
0.053631 -0.082753 0.055866
-0.071539 0.087453 0.048637
0.220858 0.097254 -0.022930
0.145552 0.067729 0.073673
-0.176745 0.035370 -0.093239
0.137160 0.013356 0.099168
0.203593 -0.074909 -0.065690
0.223133 -0.006058 -0.099513
-0.065877 0.073385 0.068046
0.354651 -0.099593 -0.005524
0.160429 0.029941 0.095484
-0.127197 -0.074305 -0.066375
0.418116 0.098349 0.018183
0.012672 0.022501 0.097481
-0.212890 0.040703 -0.091042
0.154318 -0.066791 0.074294
0.195032 0.067754 -0.073288
0.420956 -0.099549 -0.006362
0.431275 -0.099680 0.003114
-0.136650 0.062689 -0.077637
0.161981 -0.041703 -0.090508
-0.377956 0.045387 -0.088804
-0.432552 -0.095293 0.029636
0.346907 -0.053779 -0.083904
-0.213025 0.038536 0.092342
0.200816 -0.048837 0.087223
0.229935 0.024277 0.097084
0.117464 0.075500 -0.065285
-0.449142 -0.031826 0.094794
0.024642 -0.090814 0.041443
-0.328079 0.073805 -0.067208
-0.464474 -0.045007 -0.088879
0.116888 -0.056045 -0.082364
0.456561 0.097940 -0.019858
0.391792 -0.077583 -0.062543
0.410800 -0.097343 -0.021485
0.091868 -0.088825 -0.045176
0.343519 -0.066711 0.074364
0.150024 0.090167 0.043362
-0.063908 0.083940 0.054463
0.314952 -0.092998 0.036285
-0.069276 -0.006125 0.099874
-0.360552 -0.093500 -0.034528
-0.260130 -0.056087 -0.082335
0.125863 0.009347 0.099593
0.313464 -0.069200 0.072058
-0.206532 -0.060377 0.079612
-0.056606 -0.099653 0.003973
0.012510 0.005698 -0.099532
-0.357947 0.017967 -0.098075
0.148776 -0.096727 -0.024241
-0.366228 -0.090191 0.042857
0.090197 0.066947 0.074362
-0.177950 0.082336 0.056824
-0.267387 -0.096327 -0.025717
-0.193372 0.097026 -0.023948
0.209716 0.038956 0.092161
-0.126490 -0.000967 -0.099673
0.335688 0.099474 0.009987
-0.109884 -0.033054 0.094352
-0.192731 0.096839 0.025120
-0.198772 -0.019326 -0.097776
-0.331982 -0.072890 -0.067980
-0.248962 0.098570 0.016787
0.145047 0.021205 0.097771
0.413982 -0.095717 0.028177
-0.448409 -0.011998 0.099321
-0.266238 0.098243 -0.018492
0.393020 -0.050666 -0.085778
-0.148852 -0.094826 0.031208
0.030879 0.098621 -0.016106
-0.340753 0.091106 -0.040946
-0.003095 -0.099576 0.006405
-0.309939 0.064202 -0.076419
-0.227251 -0.002855 0.099977
-0.020703 -0.069165 0.072094
-0.042434 -0.078588 -0.061248
-0.314450 -0.078953 0.061140
0.442338 0.049817 -0.086418
-0.112534 -0.032352 -0.094242
0.396241 0.057526 -0.081516
0.410313 0.070941 -0.070188
0.140588 0.054943 0.083634
-0.184756 0.092985 0.036966
0.050886 -0.040187 -0.091164
0.256862 -0.016787 0.098588
0.260956 0.095538 0.029598
0.462699 -0.067447 0.073715
-0.130149 0.057071 -0.081825
0.244696 -0.088328 0.046515
-0.358117 0.071724 0.069768
-0.165742 0.028416 -0.095565
0.361684 0.054288 -0.083717
-0.244350 0.099873 -0.004034
-0.383677 -0.098856 -0.013146
0.134136 -0.099431 0.007979
-0.213104 0.073013 -0.068106
0.206152 0.079349 -0.060567
-0.338903 0.094628 0.032406
-0.196220 0.092248 0.038669
0.336088 0.099337 -0.011071
0.121858 -0.099715 -0.001621
0.390606 0.015689 0.098799
0.087829 -0.099298 -0.009022
0.213710 0.062874 -0.077493
-0.089298 -0.079572 -0.059979
-0.091348 -0.043696 0.089910
0.414863 -0.032882 -0.094051
-0.088076 0.028355 0.095945
0.078056 0.025090 0.096893
-0.138748 0.096939 0.024703
0.043256 -0.089890 -0.043086
0.077003 -0.053783 -0.083901
0.196506 0.071786 -0.069343
-0.288382 0.096213 -0.026910
0.066718 -0.040015 0.091601
0.027155 0.084179 0.054112
-0.397607 -0.049504 -0.086465
-0.033534 -0.068888 0.072371
0.395166 -0.093002 0.036273
0.037839 0.063741 0.077183
0.240816 -0.097111 0.022885
0.322948 0.068854 -0.072275
0.179416 0.080627 -0.058920
-0.203145 -0.030825 0.095154
-0.118672 -0.035354 -0.093161
0.367404 0.074960 0.066260
-0.041863 -0.071904 -0.068992
0.425219 -0.008724 0.099630
0.339141 -0.073451 0.067707
0.198774 -0.040191 -0.091162
-0.178527 0.061286 -0.078725
-0.155247 -0.016674 0.098606
0.201249 -0.061770 -0.078168
0.286184 -0.094222 -0.032521
0.283025 0.059830 -0.079854
-0.454125 -0.092847 -0.036341
0.226737 -0.081176 0.058186
-0.087630 -0.015677 -0.098401
-0.272778 0.068024 0.073412
-0.359940 -0.004482 0.099925
0.102671 -0.082049 0.056902
0.010826 -0.006688 0.099823
0.431015 0.070678 -0.070451
-0.237508 -0.020726 0.097825
0.150549 0.015455 0.098836
-0.086670 0.076592 -0.064046
-0.209475 -0.099575 0.006433
-0.163893 -0.080034 0.059746
0.281241 0.083117 -0.055310
-0.026254 0.083267 0.055453
-0.220028 0.053389 0.084668
-0.406781 -0.004132 -0.099574
-0.008955 0.099703 -0.007204
-0.115943 0.068800 0.072693
-0.099227 0.099837 -0.005165
0.108623 -0.094826 -0.030844
-0.010392 -0.093049 -0.035781
-0.344673 0.095181 -0.030465
0.222687 -0.091478 0.039910
0.424759 0.098542 0.016969
-0.283230 -0.060594 0.079443
-0.115159 -0.094408 0.032369
-0.287579 -0.099034 -0.011809
0.333812 -0.054405 -0.083479
0.163572 0.058014 0.081547
0.432965 0.091616 -0.039767
-0.167304 0.047895 0.087889
0.438257 0.096629 0.025841
-0.055525 -0.012108 0.099310
0.447528 -0.057049 0.082044
0.309313 -0.089019 0.045157
-0.009076 0.083298 -0.055045
-0.060487 -0.095284 0.029669
0.297948 -0.012598 -0.098889
0.028696 0.099814 0.006266
-0.075499 0.096982 0.024510
-0.229469 -0.085000 0.052389
-0.068308 0.061298 -0.078716
0.127299 0.099379 -0.010632
0.396375 0.097887 -0.020099
-0.083916 -0.022490 0.097431
0.219992 0.054124 -0.083828
-0.171341 0.055756 0.083082
0.069070 -0.013016 -0.098822
-0.285828 -0.063290 -0.076989
-0.263602 -0.096578 0.025215
-0.407852 -0.037980 -0.092119
-0.063578 0.041180 0.091198
-0.217804 0.094607 -0.032100
-0.421401 -0.074241 -0.066448
-0.290458 0.097886 -0.020100
-0.125288 0.044195 -0.089412
-0.370116 -0.098480 -0.015523
-0.051465 -0.039344 0.091892
-0.192332 -0.066900 0.074197
-0.385829 -0.001129 0.100031
-0.096035 -0.066688 -0.074021
-0.457235 0.059813 -0.079868
-0.247039 -0.078931 0.061169
-0.003902 -0.091560 0.039719
-0.044923 0.099442 0.010329
0.342254 -0.098204 0.017627
0.020090 -0.003529 0.099955
0.403066 -0.004876 -0.099550
-0.068107 0.001761 -0.099656
-0.065260 0.089302 -0.044698
-0.307637 -0.082824 0.055761
-0.258905 -0.005182 -0.099541
0.055559 0.009644 -0.099202
0.215570 -0.088044 0.047072
-0.318003 0.046612 0.088543
0.428022 -0.092941 0.036443
0.260139 0.099014 0.013983
0.418675 -0.006401 0.099850
-0.107066 -0.095565 -0.028338
-0.183257 0.078032 -0.062265
0.048951 0.054577 0.083883
0.001035 0.030827 0.095227
-0.413276 -0.099636 -0.004142
0.194645 0.093999 -0.033790
-0.263957 -0.055983 0.082769
0.210773 0.032588 -0.094241
0.382675 -0.051492 0.085652
0.084109 0.033183 -0.094027
-0.055992 -0.079075 0.060982
0.402137 -0.077069 -0.063205
-0.135094 -0.041949 -0.090402
-0.149005 0.024383 0.097060
-0.110851 0.028422 -0.095563
-0.029509 -0.088468 0.046240
-0.180010 -0.008986 0.099605
0.230238 0.075363 -0.065440
0.247564 0.096487 0.026330
0.354408 -0.088141 0.046880
0.068161 -0.014465 0.098956
0.114229 -0.087202 0.048666
0.048199 -0.098293 0.017062
0.082320 0.093543 0.035420
-0.074655 0.056198 0.082782
0.246629 -0.085185 0.052075
-0.391743 -0.086703 0.049509
0.057815 -0.027350 0.096169
0.021078 0.088318 -0.046628
0.243975 0.037953 0.092595
-0.055199 -0.069376 0.071883
-0.402033 0.007355 -0.099419
0.436908 0.015618 0.098810
-0.398396 0.027036 0.096328
-0.079718 0.099690 0.007704
-0.419226 0.087063 -0.048933
0.234337 0.056103 0.082846
0.429735 -0.006267 -0.099500
-0.079368 -0.089603 0.044011
-0.073669 0.004442 -0.099571
-0.326259 0.068995 -0.072135
0.329378 -0.099717 -0.001564
0.088341 -0.022624 -0.097039
-0.206457 -0.035594 0.093437
-0.359403 -0.009818 -0.099164
0.269618 0.039222 0.092046
-0.340694 -0.027536 0.096115
0.064563 0.096572 0.026040
-0.098584 0.082153 0.057092
-0.145846 -0.076309 0.064465
0.192425 -0.025942 -0.096215
0.366773 0.073624 -0.067413
-0.091067 0.097000 -0.024067
0.209572 0.021399 -0.097365
0.419670 -0.098339 0.016771
-0.352400 -0.053312 -0.084213
-0.027612 0.034502 -0.093552
0.124203 0.065954 0.075237
0.091746 0.099967 0.001385
0.371386 -0.066072 -0.074565
-0.345846 0.085980 -0.050763
0.005197 0.067771 0.073636
-0.298131 0.095353 -0.029873
-0.293621 -0.091957 -0.038439
0.385860 -0.068487 0.072772
-0.423451 -0.099298 0.009386
0.118301 -0.090741 -0.041249
-0.113252 -0.080669 -0.058565
0.351931 0.068024 -0.073049
0.381308 -0.096447 -0.025301
-0.178396 0.006779 -0.099473
-0.424551 0.097130 0.023847
0.017926 0.061506 0.078917
0.114869 -0.033740 -0.093742
0.285656 0.084329 0.053891
0.334015 0.099926 -0.002354
-0.252267 -0.072966 -0.067894
-0.174616 0.088642 -0.045992
-0.383876 0.090485 -0.042376
-0.192091 0.015527 0.098824
0.096285 0.061419 0.078984
-0.358059 0.099719 -0.007035
0.281673 -0.066218 -0.074436
-0.182279 0.065567 -0.075216
-0.177746 -0.098751 0.014172
-0.130716 0.083467 -0.054796
-0.324927 0.048584 0.087510
0.147935 -0.003686 -0.099588
0.194644 -0.070091 0.071168
0.412533 0.018104 -0.098053
-0.005218 -0.061056 -0.078723
-0.003587 0.043434 -0.089799
0.156824 0.095097 -0.030739
0.182417 -0.043784 -0.089503
-0.386597 0.094561 -0.032228
0.054808 0.082188 -0.056678
0.407231 -0.079484 -0.060092
-0.330037 -0.035166 0.093591
0.391648 -0.065927 -0.074693
0.334561 -0.032815 0.094438
-0.235037 -0.095434 0.029152
-0.342220 0.017756 -0.098109
-0.139640 -0.058562 -0.080654
-0.333670 0.064734 -0.075950
-0.073506 -0.027909 -0.095644
0.407203 -0.006253 0.099864
0.124407 0.098794 0.015375
-0.054136 0.048088 -0.087428
0.272798 -0.024238 -0.096678
-0.346719 -0.098369 -0.016225
0.362702 -0.097858 -0.019183
0.186213 0.039513 -0.091557
-0.165896 -0.054425 0.083828
0.385308 -0.063240 0.077391
-0.225643 0.047761 -0.087595
-0.013850 0.085408 -0.051732
-0.210724 0.050684 0.086268
0.254706 0.030887 -0.094847
-0.214120 0.099818 -0.005791
0.368790 0.081783 0.057636
-0.109487 0.083571 0.055006
0.287595 -0.088850 -0.045127
-0.304082 0.099460 0.010138
0.392548 -0.068427 0.072832
-0.259513 0.072480 0.069012
0.326555 0.011838 -0.098995
0.158105 0.083358 0.055319
-0.212904 0.070724 0.070768
-0.178437 -0.083207 -0.054835
0.326488 0.095317 0.030358
0.116107 -0.097800 -0.019440
-0.406963 -0.049374 0.086905
0.060532 0.065644 0.075510
0.389457 0.097086 -0.023680
-0.049087 0.081548 -0.057619
0.373779 -0.011179 -0.099035
-0.399840 0.031373 -0.094678
0.149197 -0.069295 -0.071601
0.156116 0.019036 -0.097893
-0.168960 -0.098368 -0.016227
0.191256 -0.065511 -0.075059
0.365630 -0.064211 -0.076205
0.337945 0.089335 -0.044632
0.074980 0.081028 -0.058385
0.195553 -0.036461 0.093125
0.311957 0.036452 0.093212
-0.293460 -0.003420 -0.099596
0.174125 0.030125 0.095431
-0.119869 0.029678 0.095561
-0.384824 0.064775 0.076276
0.113306 -0.002034 -0.099640
-0.294533 -0.025471 -0.096352
-0.413545 -0.074043 0.067036
-0.389179 -0.065794 0.075172
-0.125257 -0.099320 -0.008783
0.031145 -0.098458 -0.015661
-0.283899 0.073981 0.067371
0.285570 0.093785 -0.034384
0.199722 -0.090274 0.042693
-0.138772 -0.036979 -0.092553
0.110649 0.015135 -0.098524
0.411053 0.093834 -0.034248
-0.043387 0.059855 0.080198
-0.085038 0.075734 0.065382
0.077085 -0.088155 0.046854
0.203240 0.081964 0.057370
0.444206 -0.076233 0.064551
-0.281094 0.066046 -0.074794
0.320205 0.063387 -0.077096
-0.100471 -0.004501 -0.099562
0.044513 -0.031568 0.094887
0.195424 0.077006 0.063939
-0.384890 -0.036435 0.093134
0.070863 0.098938 0.014467
-0.243818 -0.004289 0.099932
-0.402537 -0.045800 -0.088475
-0.365376 0.059993 0.080091
-0.174709 -0.047185 -0.087770
0.422510 -0.054563 0.083734
0.293284 0.071684 -0.069445
0.299924 -0.021923 -0.097195
-0.029070 0.076139 0.064923
0.020716 -0.075746 0.065103
-0.244648 -0.098207 0.017606
-0.267194 -0.087707 -0.047370
-0.160153 0.044550 -0.089231
0.227000 -0.083085 -0.055014
0.458740 0.091582 0.040209
0.239387 -0.085426 0.051668
-0.387164 -0.042962 0.090284
0.153062 0.098852 0.015009
-0.384975 0.096837 0.025125
0.413446 -0.012175 -0.098941
-0.323741 -0.098752 -0.013802
-0.259153 0.078140 0.062489
0.262107 -0.064836 0.076017
0.386806 0.099437 0.010382
0.011929 0.028383 0.095937
0.176985 0.053838 0.084385
0.455636 -0.045903 0.088786
0.136472 -0.096389 -0.025502
-0.231243 0.097937 -0.019873
0.383625 -0.000247 0.100059
-0.073655 -0.083708 0.054461
0.190889 0.099677 -0.007481
0.074358 -0.047396 -0.087662
0.421075 0.022944 0.097382
-0.266946 0.083901 0.054520
-0.267791 0.000448 0.100060
0.190139 -0.098694 -0.014173
-0.279663 -0.061400 -0.078455
0.107471 0.093028 0.036848
-0.454344 -0.071489 -0.069407
0.192771 -0.099758 0.000616
0.141187 0.064693 -0.075986
-0.115367 0.098565 0.016820
-0.269659 0.092492 -0.037743
0.436905 -0.004658 0.099920
-0.275603 -0.095463 0.029051
-0.160512 -0.029769 0.095466
-0.252125 -0.091125 -0.040362
0.086821 0.098670 -0.015796
0.443966 -0.012338 0.099288
-0.028469 -0.058762 0.080865
-0.008291 0.091708 0.039917
-0.108780 0.016392 0.098687
0.412475 0.043632 0.090062
0.048732 -0.002195 0.099997
0.034557 0.099314 -0.011320
0.296389 -0.088752 -0.045319
0.087434 -0.040333 0.091463
0.069805 -0.079560 -0.059994
-0.296965 0.003729 -0.099594
0.383841 -0.088949 0.045295
0.275348 0.042109 0.090796
-0.179920 0.015438 -0.098476
-0.254117 0.084663 0.053353
0.457927 0.085934 0.051205
-0.122819 -0.080427 -0.058876
-0.298124 -0.080667 0.058931
0.258311 0.092137 0.038925
-0.354426 0.056116 -0.082475
0.281937 -0.096285 -0.025861
-0.383314 -0.099469 -0.007207
-0.339185 -0.072148 -0.068748
-0.047502 -0.090289 -0.042293
0.029439 -0.094957 -0.030430
0.116562 -0.094837 0.031178
-0.331996 -0.098756 -0.013781
-0.169899 -0.090725 -0.041287
0.412286 -0.090071 -0.042730
0.455508 -0.053004 0.084758
-0.349474 -0.096443 0.025678
-0.308985 0.005126 -0.099550
-0.056495 0.002496 0.099995
-0.273195 0.099885 -0.003645
0.373853 -0.054652 -0.083310
-0.320231 0.072059 -0.069071
0.108074 -0.059645 -0.079817
-0.322589 -0.098917 0.013125
0.350263 0.098102 0.019496
-0.133321 -0.097760 -0.019620
-0.254819 0.088058 -0.047140
0.147218 -0.057877 0.081482
0.344191 0.032741 -0.094186
-0.257829 -0.099644 -0.003882
0.206778 -0.099748 0.000928
0.298472 0.098906 -0.014305
0.391126 0.052241 0.085347
0.157550 -0.093697 0.034342
-0.358470 -0.028559 -0.095455
-0.000595 -0.025608 0.096675
-0.257247 -0.047984 -0.087363
0.180075 -0.058436 -0.080739
0.185897 -0.022574 -0.097050
-0.203385 -0.058149 -0.080934
0.326612 -0.095278 0.029689
0.147346 -0.076577 -0.063799
-0.243081 -0.033517 -0.093822
-0.271963 0.047510 -0.087723
-0.245797 -0.090781 -0.041157
0.233121 0.071853 0.069639
0.147084 -0.086646 -0.049243
0.222019 0.032097 0.094780
0.121223 -0.086910 0.049160
-0.403802 -0.098556 -0.015040
-0.026772 0.053495 -0.084243
-0.409183 -0.078596 -0.061238
0.365715 0.095068 -0.030821
0.347098 -0.018376 0.098336
0.047224 -0.086819 0.049312
0.122278 -0.050226 0.086401
0.401664 -0.099639 0.004427
-0.314255 -0.093993 0.033522
-0.328394 0.078322 0.062255
-0.374628 0.080336 0.059658
0.217726 0.063868 0.077076
-0.290916 0.007312 -0.099423
0.042210 -0.020630 0.097847
0.362073 -0.076054 -0.064391
0.008436 -0.091636 0.039543
0.425872 0.082914 -0.055610
-0.005868 -0.029294 0.095604
-0.343588 -0.093033 -0.035823
-0.228038 0.096847 0.025091
0.259220 -0.032744 0.094463
-0.208209 0.032340 0.094693
-0.327727 -0.000545 -0.099686
0.233848 0.071444 -0.069686
0.259992 0.054812 0.083724
-0.244679 -0.099626 0.004809
-0.031534 0.029483 -0.095254
0.024098 -0.087362 -0.048032
-0.126841 -0.018664 0.098287
0.219315 0.086125 -0.050518
0.240440 -0.093226 0.035651
-0.352052 0.099454 -0.009834
-0.071044 -0.096978 0.023483
-0.214241 -0.078252 0.062043
0.398445 -0.080471 -0.058820
-0.375680 0.099686 0.007746
0.187959 0.013386 -0.098801
0.206661 0.097736 0.021137
-0.197460 -0.099702 -0.002028
-0.206527 0.089441 -0.044425
-0.123198 0.007355 -0.099419
-0.262859 0.031111 -0.094772
0.381492 0.099825 0.005911
-0.428583 0.051462 -0.085445
0.302645 0.094671 -0.031922
0.397597 0.061371 0.079022
-0.277198 0.055828 -0.082670
0.117617 0.040332 0.091565
0.135467 -0.098632 0.014927
-0.020955 0.037328 0.092865
0.252763 -0.047895 0.087770
0.291120 0.096754 0.025412
0.224247 -0.053812 -0.083882
0.395504 0.099923 0.002809
0.321856 -0.070209 0.071050
-0.291624 0.077769 -0.062605
0.027027 0.096966 0.024582
0.066448 -0.090962 -0.040739
0.061254 -0.042284 -0.090257
0.102771 0.099414 -0.010256
-0.420576 0.043531 -0.089750
0.029086 -0.017111 -0.098174
0.068300 -0.064879 0.075979
-0.283155 -0.030215 0.095337
-0.103886 0.029404 -0.095277
-0.261210 0.099019 0.013958
0.284297 0.064615 -0.076055
0.057269 0.022155 -0.097196
0.408599 0.091046 -0.041084
-0.375315 -0.072891 -0.067979
-0.454894 -0.066743 -0.073973
0.343275 0.089451 0.044768
0.060375 -0.039656 0.091757
-0.294286 0.063929 -0.076660
-0.125193 -0.069289 0.071969
-0.062085 0.021637 -0.097311
-0.075800 0.092283 0.038588
-0.056827 0.057027 -0.081856
0.399389 -0.015780 -0.098385
0.261125 -0.006854 0.099807
0.390443 -0.060203 -0.079384
-0.367425 0.082585 -0.056093
-0.408466 -0.031834 -0.094428
-0.433246 -0.017906 -0.098048
-0.032482 -0.097383 -0.021306
0.439084 0.041029 -0.090901
0.170222 -0.098712 -0.014057
0.354491 -0.066034 0.074961
0.433083 -0.087295 0.048508
0.190712 -0.050458 0.086264
0.212398 -0.088836 -0.045155
0.218449 -0.083389 -0.054568
-0.303145 0.098555 -0.016522
0.147906 0.095444 0.029921
-0.341188 0.063625 0.077274
0.185609 0.094436 0.032938
0.187133 0.046951 0.088370
-0.194757 -0.077654 0.062815
0.346314 0.043698 0.090028
-0.271002 0.023370 0.097287
0.392251 0.064060 0.076907
0.093842 -0.098874 -0.013031
0.454830 -0.083652 -0.054180
0.045626 0.098208 0.019023
0.107220 -0.086029 0.050649
-0.009695 -0.099547 -0.006387
-0.328810 0.008912 0.099634
-0.041533 -0.094043 0.033381
0.167325 0.093787 -0.034379
-0.322887 -0.076989 -0.063309
0.056896 -0.007821 -0.099353
-0.227500 -0.050942 0.085977
-0.183005 0.099681 -0.007436
0.161050 0.003828 -0.099591
-0.013334 0.089180 -0.044937
0.136162 0.074273 0.067039
-0.451647 0.098524 -0.016717
-0.340987 0.081275 -0.058022
-0.160096 0.084298 0.053936
0.446477 -0.096496 0.025498
-0.187753 0.056675 -0.082095
0.339314 -0.044643 -0.089064
0.391938 0.021422 0.097722
0.280909 -0.076062 -0.064383
-0.233139 0.056227 0.082761
-0.200209 -0.081784 0.057292
0.377495 -0.085427 0.051667
-0.175790 -0.024609 -0.096595
-0.086002 0.054577 -0.083520
-0.432328 -0.061491 0.078748
0.332788 0.029997 0.095468
0.426909 0.012656 -0.098916
-0.037575 -0.051982 0.085362
0.006413 -0.097242 -0.021937
0.276745 0.015205 0.098875
-0.378817 -0.090772 0.041542
0.358276 0.013765 0.099104
-0.286288 0.013317 -0.098812
0.002529 0.079712 0.060463
0.464824 -0.099673 -0.002965
0.328690 0.089843 -0.043636
-0.431403 -0.063668 -0.076684
-0.351035 -0.026513 -0.096049
0.156643 -0.018826 0.098250
-0.330862 0.094486 0.032800
-0.247608 0.025113 -0.096524
-0.271928 -0.006513 -0.099476
0.197832 0.034057 -0.093712
-0.057582 -0.091658 -0.039131
0.247703 0.034296 -0.093626
-0.132291 0.072634 -0.068495
0.331895 0.098645 -0.015955
0.000447 -0.063756 -0.076607
0.368547 0.099600 -0.008295
-0.447906 -0.058620 0.080974
-0.077526 -0.017497 -0.098113
0.233579 0.017062 -0.098218
0.082844 -0.093243 -0.035241
-0.179372 -0.006924 -0.099437
-0.377593 0.096775 0.025340
-0.269613 -0.008358 0.099665
0.330328 -0.097054 -0.022777
-0.375516 -0.093007 -0.035897
-0.128516 0.063180 0.077618
0.408816 0.080232 -0.059429
0.430390 0.083192 0.055564
0.063373 0.020692 0.097885
-0.424044 0.058259 -0.081018
-0.212841 -0.071400 -0.069496
0.417525 0.099268 0.012170
0.227906 0.097692 -0.020971
-0.207576 0.053815 -0.084038
-0.134927 0.099921 -0.002492
0.450151 -0.028513 0.095831
-0.177539 0.008724 0.099652
-0.412930 0.091050 -0.041076
0.403374 -0.012464 0.099273
-0.243830 0.058059 -0.081154
0.102428 -0.090808 -0.041095
0.207211 -0.012036 0.099317
0.266548 0.057644 0.081799
0.172326 0.003516 0.099963
0.404712 0.021994 -0.097232
-0.100861 -0.062889 0.077663
-0.318564 -0.091378 -0.039777
-0.009589 0.098377 -0.017643
-0.391316 0.069080 0.072412
-0.258100 -0.081890 -0.056773
0.143707 0.088767 -0.045747
-0.041202 -0.095938 0.027418
0.208941 0.074986 -0.065868
0.258547 0.094548 -0.032266
0.408991 0.064217 -0.076406
-0.274233 0.081001 -0.058425
0.460540 -0.099696 0.002594
0.270684 -0.017448 0.098483
-0.465431 -0.032718 0.094473
-0.315861 -0.099141 0.011042
0.048232 0.094594 -0.032137
-0.232054 -0.088089 0.046984
-0.337478 0.061296 -0.078717
0.363243 0.099313 -0.011330
0.260333 -0.085274 -0.051563
0.238501 0.016053 0.098741
0.300760 0.067687 -0.073347
0.341704 0.071064 0.070429
0.053974 -0.099267 -0.009342
0.083022 -0.098142 0.018020
0.039885 -0.032862 -0.094058
-0.060909 -0.014993 -0.098509
0.093787 0.043653 0.090051
-0.389162 0.085234 -0.052024
0.380976 -0.046387 0.088539
0.072506 0.081229 0.058452
-0.228125 -0.020499 -0.097514
0.434756 -0.021761 0.097594
-0.421909 0.059677 0.080336
-0.458018 -0.057007 -0.081710
0.243688 -0.059887 -0.079629
0.382824 0.020074 -0.097661
0.389671 0.008880 -0.099275
0.424639 -0.065678 0.075275
-0.424751 -0.094706 -0.031177
0.067456 -0.051783 0.085480
0.437313 0.029030 -0.095386
0.118144 -0.058433 0.081104
0.194388 -0.093518 0.034841
-0.231535 0.086820 0.049706
0.104756 0.068343 -0.072768
0.190662 -0.078737 0.061418
0.225121 0.090718 -0.041842
-0.115842 -0.053808 0.084247
0.461096 0.040286 0.091585
0.103561 -0.036000 0.093291
0.413336 0.043110 -0.089964
-0.114943 0.050522 -0.086001
-0.004994 0.076097 -0.064608
0.217245 -0.002678 0.099982
0.430714 0.099493 -0.009427
-0.397537 -0.085976 -0.050375
0.264348 -0.056271 0.082573
0.169069 -0.046680 -0.088027
0.141060 -0.037291 -0.092417
-0.154950 0.001509 -0.099663
-0.254625 0.062666 -0.077655
0.381921 0.028721 -0.095476
0.038085 0.058878 -0.080593
0.095815 -0.047827 -0.087442
-0.417616 0.097437 -0.022108
0.414445 0.006555 0.099857
-0.374642 -0.052400 0.085115
0.314681 0.055784 0.083063
0.165494 0.045890 -0.088548
-0.256705 -0.041435 0.090987
0.154060 -0.043130 -0.089835
-0.035206 -0.096947 0.023619
0.331299 0.067336 -0.073656
-0.033271 -0.073578 -0.067200
-0.060352 0.074870 -0.065999
-0.427934 0.073081 -0.068028
-0.416747 -0.011011 0.099414
-0.193701 0.069527 0.071965
-0.292457 0.093226 0.036298
0.047450 0.082166 0.057073
0.190897 -0.018350 -0.097978
0.359620 -0.099714 0.002009
0.062954 0.041260 0.091163
0.173043 0.096156 0.027471
0.414253 0.059651 -0.079993
0.376311 0.091561 0.040258
-0.358941 0.082582 0.056461
-0.021347 -0.097394 0.021620
-0.224850 -0.090472 0.042233
0.434154 0.066938 0.074369
0.312882 -0.028336 -0.095520
-0.321154 0.017299 0.098544
-0.018897 -0.074321 0.066720
0.105519 0.093750 -0.034482
0.454507 0.024268 0.097086
0.137494 -0.009515 0.099555
0.349723 -0.096423 0.025749
-0.381847 -0.084012 0.054014
0.297473 -0.099017 0.012352
-0.170350 -0.063232 0.077397
-0.453239 0.000726 0.100051
0.108735 0.089077 -0.045139
-0.437283 -0.099712 -0.001712
-0.014067 -0.069622 0.071637
0.141858 0.094025 -0.033718
-0.050530 -0.045859 -0.088445
0.453890 -0.074930 -0.065667
-0.005953 -0.080027 -0.059393
-0.030745 -0.048473 0.087438
-0.357192 -0.077933 -0.062092
0.094067 0.084501 0.053627
-0.319497 -0.034641 -0.093417
0.341499 -0.081203 0.058147
-0.040928 0.035792 0.093450
0.168561 0.034161 0.094037
0.300843 0.074432 0.066859
0.424210 -0.046952 0.088251
0.191670 -0.097034 -0.022867
-0.063136 -0.081164 -0.057841
0.408362 -0.034814 -0.093355
0.018728 0.096866 0.025027
0.211878 -0.084936 0.052497
0.460042 0.093310 -0.035702
0.225857 -0.087122 -0.048437
-0.016170 -0.035035 0.093638
-0.425482 -0.070355 -0.070541
-0.135878 0.045633 0.089042
0.244269 0.031776 0.094896
0.068746 0.004329 0.099938
-0.030639 0.031578 0.094967
-0.423369 0.093526 0.035465
-0.439485 0.095770 -0.028435
-0.017476 0.091999 -0.038881
0.143622 0.049391 0.087033
-0.349543 -0.067519 0.073652
0.361046 0.043789 -0.089619
-0.002456 -0.048078 0.087671
0.439271 -0.012800 -0.098857
0.120070 -0.066524 -0.074167
-0.153671 -0.062093 -0.077918
0.181635 0.097436 -0.022117
-0.233427 0.048853 0.087351
-0.410680 -0.086767 -0.049039
-0.071309 0.073672 -0.067359
0.063823 -0.075793 0.065051
0.041113 -0.086734 0.049457
-0.228676 0.099553 -0.008784
-0.287083 -0.096622 -0.024698
0.258079 0.090952 -0.041302
0.265390 -0.043858 -0.089465
0.083567 -0.005158 -0.099541
-0.369230 0.095266 -0.030170
0.121515 -0.092306 0.037995
0.026505 -0.067140 0.073986
-0.076531 -0.010106 -0.099137
0.080665 0.066530 -0.074366
0.455229 -0.086651 -0.049235
0.443845 0.072345 -0.068784
-0.421414 0.086857 0.049643
-0.435738 -0.081434 -0.057445
0.377388 -0.076810 0.063897
-0.205245 -0.093380 -0.034860
0.418321 -0.057059 -0.081675
-0.456946 0.005228 -0.099547
0.378766 -0.063984 0.076768
0.175722 0.040113 -0.091297
-0.338600 -0.068906 0.072353
0.301887 0.099778 -0.006415
0.462502 -0.097500 0.021148
-0.011230 -0.098225 -0.017131
0.201503 -0.098420 -0.015901
-0.028517 0.014515 -0.098622
0.268291 0.012042 -0.098976
-0.431410 -0.029254 0.095616
-0.172375 -0.099326 0.009091
-0.350967 -0.098343 0.016747
0.116239 -0.037906 0.092514
-0.402580 -0.019619 -0.097710
0.448068 0.078421 0.062127
-0.350169 -0.075780 0.065065
0.265534 -0.050516 0.086229
-0.090437 -0.099423 -0.007700
-0.188575 -0.078790 0.061350
0.018694 0.099650 0.008124
-0.019316 -0.099428 0.008007
0.094874 -0.071191 0.070068
-0.310909 0.044233 -0.089393
0.435709 -0.099399 -0.007951
0.071792 -0.081213 0.058133
0.026862 -0.099572 0.006478
0.431759 0.001794 0.100017
-0.376752 0.076616 0.064382
-0.347736 0.082811 -0.055762
0.317334 0.099120 0.013319
0.421350 0.076534 0.064475
-0.334641 0.097659 -0.021117
-0.045773 0.096093 0.027688
-0.397952 0.077447 -0.063019
-0.069204 -0.079815 -0.059665
-0.048938 -0.044804 0.089346
0.419890 0.071970 -0.069160
0.187768 0.081333 -0.057937
-0.264087 0.096969 0.024567
-0.441006 -0.099690 0.002789
-0.293191 0.089865 0.043956
0.125969 0.061395 0.079003
0.138020 0.099944 -0.001771
0.072552 0.099630 0.008341
0.143756 0.016421 -0.098320
0.285712 -0.086100 -0.050167
0.070309 0.024346 -0.096706
-0.081929 -0.058443 -0.080734
0.090339 0.062242 0.078346
0.045115 0.096462 -0.026053
0.130801 -0.024741 0.096927
-0.385786 -0.027263 0.096194
-0.412082 -0.088355 0.046461
-0.401619 0.067182 -0.073792
0.068528 0.077698 0.063059
-0.159699 -0.037807 -0.092194
-0.077505 0.008779 0.099647
0.189749 0.027475 -0.095838
-0.431043 -0.043842 0.089835
-0.104759 0.098233 -0.018550
0.175595 0.088404 0.046823
-0.114562 0.002147 -0.099643
0.313236 0.094829 0.031846
-0.160949 0.099562 0.009058
0.373710 -0.097047 0.023172
0.209519 0.097795 -0.020510
-0.386653 0.098573 0.016769
0.030512 -0.086137 -0.050104
0.389840 0.008625 0.099662
0.169556 0.028905 -0.095422
-0.380331 -0.060988 -0.078775
0.149215 -0.021932 0.097556
0.199793 0.001186 -0.099674
0.437269 -0.029669 -0.095133
-0.353811 0.012092 0.099334
-0.311633 0.076919 0.064038
0.346840 -0.086924 0.049135
-0.039903 -0.097589 -0.020385
0.458583 -0.020339 0.097912
0.276767 -0.099745 0.001045
-0.356039 -0.026564 0.096397
-0.141513 -0.045540 -0.088608
-0.143146 -0.071566 0.069693
-0.018595 0.094859 0.031763
-0.030889 -0.091786 -0.038834
-0.060197 0.066641 0.074632
-0.165987 -0.099067 0.011830
-0.408075 -0.098637 0.014891
0.320433 0.045621 -0.088685
0.152779 -0.071608 0.069650
0.106722 0.099919 -0.002576
-0.396929 -0.089529 0.044156
0.287021 0.048647 -0.087110
0.153230 -0.005720 0.099887
0.141725 -0.060858 0.079238
0.011062 0.071030 -0.070100
-0.358673 0.054089 0.084215
-0.315267 -0.099696 0.002585
-0.197352 -0.039899 -0.091289
0.409675 -0.047502 0.087971
-0.276436 -0.092497 0.037555
-0.331114 -0.097714 0.020187
0.138112 0.087480 -0.048228
0.230847 0.005485 0.099901
0.211376 -0.099511 0.007124
0.168315 0.087203 0.049058
0.152167 0.080870 -0.058606
-0.186597 -0.002720 0.099981
0.293393 0.098288 -0.018206
-0.120565 0.062152 0.078416
0.005188 0.049662 0.086873
-0.416138 -0.062499 0.077966
-0.113756 0.022663 -0.097082
0.021110 -0.044092 0.089708
0.015801 -0.098539 0.015510
0.061518 -0.052640 -0.084611
0.355792 0.040615 0.091443
0.296997 -0.041755 0.090849
-0.340199 -0.099594 0.005853
0.062691 0.053805 -0.084045
-0.238036 0.036502 0.093194
-0.180987 0.099972 0.001243
-0.127542 0.015937 0.098760
0.062069 -0.067315 0.073832
-0.416888 0.089353 0.044959
0.387920 -0.054771 0.083593
0.088507 -0.054938 0.083479
0.049096 0.089958 -0.043411
0.140794 -0.099030 -0.011858
0.464939 0.061701 0.078766
0.117417 0.056505 0.082573
0.444752 -0.090819 0.041431
-0.078976 -0.089423 -0.044002
0.046699 0.024088 0.097126
-0.207085 -0.074256 -0.066431
-0.240082 0.032809 -0.094161
0.450170 -0.022569 0.097414
-0.026020 0.027106 -0.095945
0.166371 0.098251 0.018805
-0.367904 -0.098262 0.017262
-0.134447 0.092292 -0.038205
-0.028475 0.094812 -0.031532
0.445410 0.013906 -0.098718
-0.321695 0.006687 -0.099482
0.438001 -0.073774 0.067341
-0.456735 -0.032591 -0.094156
0.069243 0.099858 -0.004496
-0.327902 0.044021 0.089864
0.269435 0.032884 0.094497
0.345123 -0.078398 -0.061492
0.458654 0.085119 -0.052220
-0.078712 0.053891 -0.083986
-0.373280 0.088787 0.046071
0.448491 0.097769 -0.020624
0.274012 -0.042818 -0.089995
0.371215 0.011776 -0.099001
-0.314842 0.097620 0.021655
-0.043373 -0.092619 -0.036909
-0.363596 0.003599 0.099961
-0.232908 -0.048350 0.087511
0.217377 -0.040033 0.091594
0.076914 -0.099600 0.005666
-0.273623 0.090156 -0.043022
0.227305 -0.043936 -0.089425
-0.244220 0.048518 -0.087186
-0.104082 -0.099758 0.000629
0.302054 -0.058185 -0.080909
-0.195569 -0.065804 -0.074801
-0.386522 -0.015904 -0.098365
-0.308552 -0.077783 0.062649
-0.435131 -0.099302 0.009344
-0.301466 0.096242 0.027174
-0.343734 0.018228 0.098397
0.446490 -0.043314 -0.089742
0.401319 -0.082027 0.056934
0.067425 0.015823 0.098778
0.263352 0.016750 0.098631
-0.120799 -0.090361 -0.042128
-0.175323 -0.083786 0.054346
-0.034443 0.099819 -0.005756
0.413716 -0.038935 -0.091706
0.388942 -0.049609 0.086766
0.296553 -0.051214 -0.085454
-0.169389 -0.065648 -0.074939
0.144700 -0.017499 0.098475
-0.196296 0.084294 0.053942
-0.109838 -0.096828 0.024153
0.312387 0.028716 0.095840
0.401386 0.089406 -0.044493
0.435055 0.023236 -0.096954
0.042109 -0.096418 0.025766
0.276505 -0.010484 -0.099101
-0.193534 -0.022700 -0.097022
-0.200092 -0.094597 0.031842
0.180718 -0.096086 0.026906
-0.261796 0.099673 0.007878
0.086110 -0.082437 -0.055968
0.450782 0.050454 -0.086042
-0.179722 0.074736 -0.066151
0.311564 -0.029761 0.095469
-0.101821 0.002774 -0.099624
0.038243 -0.098208 -0.017240
-0.168778 0.023175 -0.096968
-0.356222 -0.082245 0.056614
0.387252 0.094459 0.032876
-0.033951 0.053098 -0.084477
0.257363 -0.092851 -0.036331
0.115027 0.098899 0.014712
0.268057 0.005777 0.099892
0.242354 0.093021 -0.036507
0.282571 -0.083525 -0.054368
-0.052507 0.089162 0.045335
0.258956 -0.073084 -0.067760
-0.018994 0.030042 0.095455
0.033916 -0.057264 -0.081535
0.148125 0.058356 0.081315
0.080065 0.053457 0.084628
-0.017095 0.021699 0.097660
-0.357949 -0.035828 -0.092990
-0.021985 -0.099699 0.002513
0.372861 -0.048977 0.087140
0.212094 -0.084775 -0.052406
0.008422 -0.094243 0.032825
-0.261588 -0.000118 0.100063
0.261747 0.062373 -0.077881
0.448801 -0.079988 0.059806
0.004109 -0.030225 0.095334
0.381274 -0.099586 -0.005749
0.108453 0.012453 0.099300
-0.063556 -0.003254 -0.099601
0.331691 -0.058120 0.081317
-0.042158 -0.076150 0.064645
-0.087753 -0.093887 0.033816
0.156763 0.067344 -0.073649
-0.008405 0.052375 -0.084905
0.267026 0.081680 0.057788
-0.223925 -0.094258 -0.032421
0.265863 -0.028442 0.095852
0.432617 -0.098411 0.016318
-0.103704 -0.032144 0.094680
-0.289667 0.031491 -0.094636
-0.177125 0.024987 0.096923
0.051795 0.094036 0.034051
0.333753 0.055292 0.083397
-0.343581 -0.065474 0.075455
0.015102 -0.051205 -0.085459
-0.153662 -0.090630 -0.041507
-0.112480 0.097066 0.024132
0.363197 -0.089945 0.043340
-0.057618 0.070563 -0.070567
-0.220980 -0.059312 -0.080075
0.360748 -0.086943 0.049103
-0.154495 0.062439 0.078194
0.011197 0.012973 0.099229
-0.345003 0.010238 -0.099146
0.007665 0.077800 0.062928
0.217288 0.049293 -0.086728
0.432127 -0.063578 0.077127
0.276687 0.099957 0.001708
0.240376 0.096519 0.026219
-0.412649 0.069229 0.072263
0.166780 -0.094059 -0.032976
-0.377582 -0.022987 -0.096958
0.245989 -0.036716 0.093029
-0.060074 -0.057560 0.081697
-0.030465 0.096966 -0.024218
0.397959 -0.023176 0.097278
0.174377 -0.079857 0.059975
-0.408537 0.099049 0.013767
0.266535 -0.073729 -0.067029
0.396469 -0.012412 0.099281
-0.387720 0.015915 -0.098400
0.015161 0.099964 0.001495
-0.327335 0.073422 0.068005
0.187480 -0.095495 0.028941
-0.447234 0.099049 0.013762
-0.365968 -0.051315 0.085757
0.102030 0.091701 -0.039570
-0.183861 0.071768 -0.069361
0.367256 -0.064017 0.076740
-0.266086 -0.043259 0.090133
-0.261859 -0.085259 -0.051589
0.143222 0.081156 -0.058197
0.448727 0.088342 -0.046581
-0.447024 -0.099618 -0.004732
-0.118916 0.068647 -0.072483
-0.142587 -0.085899 0.050869
0.064028 0.099648 0.008149
-0.414877 0.035956 0.093391
0.093986 0.001223 -0.099672
0.422893 0.097187 -0.023227
-0.228192 -0.096296 0.026184
-0.198956 -0.025754 0.096633
0.234510 -0.066860 0.074233
-0.270016 0.009309 0.099597
0.253676 0.064295 0.076700
-0.276593 -0.087843 -0.047103
0.381205 0.027471 0.096202
0.212979 0.053019 0.084887
0.155996 -0.084248 0.053660
0.256618 0.000468 0.100059
-0.041351 0.088945 -0.045399
-0.317538 0.002966 0.099980
-0.133007 -0.099210 0.010311
-0.335917 -0.068715 -0.072181
0.444132 0.033006 -0.094090
0.089425 -0.094294 -0.032323
-0.442694 -0.054741 -0.083250
-0.147380 -0.002241 0.099996
0.438126 -0.060889 0.079215
-0.047875 -0.085296 0.051889
0.198666 -0.087241 -0.048236
-0.323039 -0.096835 0.024122
0.413533 0.095841 0.028555
0.338803 -0.073620 -0.067152
-0.228200 0.027926 -0.095707
-0.148098 -0.093964 -0.033239
-0.145842 0.078316 -0.061899
0.068481 0.035765 0.093460
-0.272656 0.044254 0.089745
0.057238 0.096327 0.026881
-0.249395 -0.038249 0.092365
0.460768 -0.097101 -0.022568
0.202721 -0.041073 0.091144
