0.222462 -0.062165 0.078225
0.165662 -0.098686 0.014585
0.144731 -0.070001 -0.070895
0.437598 0.075463 -0.065327
0.132334 -0.029789 0.095460
-0.398711 -0.026372 0.096453
-0.302509 -0.096299 -0.025813
-0.259109 -0.089394 -0.044058
-0.095694 -0.051146 -0.085494
-0.140639 -0.064223 0.076558
0.106760 0.041602 -0.090653
0.058159 0.017691 -0.098119
0.254136 0.042005 0.090841
-0.151679 0.041502 0.091059
0.057314 -0.012995 0.099189
-0.336831 0.089619 -0.044076
0.269107 0.038652 -0.091930
0.114493 0.084880 -0.052623
-0.440716 0.063325 -0.077143
-0.177240 0.028770 -0.095462
0.323787 -0.086353 -0.049739
0.138622 0.079759 -0.060039
-0.135134 -0.095677 0.028317
0.171895 0.067272 -0.073713
0.450151 -0.028035 -0.095607
0.252167 -0.091580 -0.039312
0.195469 0.096778 0.025331
-0.377421 -0.086773 -0.049028
0.325374 0.090328 0.043047
0.133522 0.040162 0.091639
-0.102127 0.066602 -0.074303
0.296172 -0.055865 -0.082486
-0.182271 -0.055830 -0.082510
-0.231313 0.032080 -0.094424
-0.324070 0.098015 -0.019524
-0.125421 -0.097787 0.019863
-0.304903 -0.081869 -0.056803
-0.424976 0.076128 -0.064573
0.064537 -0.098562 0.015367
0.088638 0.098094 0.019536
0.379696 0.064855 0.076206
0.039970 0.034403 -0.093587
-0.200877 0.034474 0.093925
0.368299 0.000661 0.100053
-0.131576 0.099247 0.012386
0.445040 -0.096246 0.026357
0.290302 -0.086380 0.050056
-0.148170 0.066220 -0.074640
0.159261 0.010018 -0.099167
-0.130300 -0.089934 0.043361
-0.101612 0.014552 0.098979
-0.410956 -0.054193 0.083986
0.012475 0.018753 -0.097951
0.252209 -0.098886 -0.012956
-0.112563 -0.069090 -0.071806
-0.323101 -0.027920 -0.095641
0.276866 0.021063 -0.097440
-0.085065 0.039452 0.091946
-0.072615 0.080845 -0.058639
-0.441630 -0.080671 0.058925
0.378791 -0.095468 0.029036
0.400074 0.096817 0.025196
0.270598 -0.000076 -0.099701
-0.117123 0.097296 -0.022743
-0.436748 -0.045386 -0.088686
0.370327 0.006790 -0.099472
0.442054 0.070275 0.071217
0.252214 -0.099659 0.003773
0.296482 -0.042316 -0.090243
-0.160771 -0.099710 -0.001784
0.319642 0.087055 -0.048945
0.397747 0.019411 -0.097809
-0.416147 0.058237 -0.081033
-0.350064 0.077162 -0.063387
0.062669 0.086694 -0.049556
-0.302607 0.099162 0.013050
-0.176745 -0.041009 0.091171
0.081939 0.098913 0.014623
0.305744 -0.099228 0.010120
-0.214326 0.056454 -0.082245
-0.407332 -0.077143 0.063474
0.062740 -0.066826 -0.073900
0.325351 -0.048230 -0.087219
-0.177753 -0.016502 0.098633
-0.174755 -0.029327 -0.095232
-0.298772 0.087189 0.049082
-0.212144 0.088021 -0.047211
-0.260086 0.099200 -0.012450
-0.079445 -0.086358 -0.049730
-0.048600 0.057426 -0.081584
-0.117332 -0.050034 0.086514
0.065144 -0.029685 -0.095128
0.345526 -0.081211 0.058136
0.354898 -0.096733 0.024577
-0.023721 -0.068839 -0.072057
0.051056 0.094224 -0.033166
-0.238006 -0.026737 -0.095984
0.342728 0.048682 0.087452
-0.095475 -0.093657 -0.034092
-0.311526 0.010713 -0.099101
-0.291811 -0.095218 0.029897
-0.014611 0.075338 -0.065468
0.106276 0.070249 0.071243
0.036020 0.047541 -0.087707
0.190653 -0.097328 0.021914
0.198191 0.098877 -0.014486
0.362228 -0.050900 -0.085640
-0.322405 0.010865 0.099450
-0.285699 0.035569 -0.093168
-0.169206 -0.082790 -0.055449
0.184598 -0.094464 0.032213
-0.429823 -0.055157 -0.082967
0.233345 0.096751 0.025423
0.228514 -0.095318 -0.029190
0.106136 0.053310 -0.084352
-0.204941 0.078009 -0.062295
0.117441 0.096494 0.026308
-0.222001 -0.089105 0.044989
-0.442282 -0.074158 -0.066542
-0.244618 0.028129 -0.095648
-0.315346 0.099236 0.012508
0.444110 0.005100 0.099913
0.324844 -0.019453 0.098110
0.384242 0.003191 0.099973
0.446853 -0.091280 -0.040004
0.382794 0.079579 0.060634
-0.139640 -0.099716 -0.001584
0.166693 -0.080070 0.059699
0.436118 0.013224 -0.098826
-0.279766 0.097088 -0.023673
0.263409 0.051143 0.085997
0.083182 0.095218 0.030699
-0.206930 0.088406 0.046819
0.389785 0.098642 0.016334
-0.258323 0.087678 0.048247
0.408449 0.061711 0.078758
0.099462 -0.059406 0.080365
0.094189 0.092689 0.037650
-0.279632 0.092981 0.036975
-0.408884 0.062207 -0.078011
-0.341960 0.021084 0.097798
0.083614 0.039118 0.092091
-0.397706 -0.067542 0.073631
-0.221650 -0.098280 -0.016784
0.425195 0.098712 -0.015532
-0.385592 0.013050 -0.098854
-0.058624 0.095870 -0.028093
0.068589 0.037238 0.092904
-0.397287 0.037892 0.092621
-0.063079 -0.094100 0.033223
-0.089551 -0.007151 -0.099416
-0.009469 0.099987 -0.000398
0.105055 0.064923 -0.075783
-0.025237 -0.078850 -0.060910
-0.139045 -0.099589 0.005988
-0.183509 0.055558 -0.082854
-0.123843 -0.065140 0.075749
-0.423172 0.056636 0.082484
0.404328 0.099641 -0.007862
0.030197 0.099988 -0.000371
-0.074006 -0.096551 0.025308
-0.104750 0.095683 -0.028734
-0.236905 0.062096 0.078460
0.247934 -0.094188 0.032980
0.049942 0.052866 0.084978
-0.179060 -0.096574 -0.024866
0.457577 0.005473 0.099902
-0.362126 -0.034513 -0.093464
-0.081950 -0.096783 -0.023991
-0.397649 0.007283 -0.099426
0.140901 -0.017273 0.098511
0.091339 -0.062638 -0.077495
0.005193 -0.099037 0.012140
-0.127601 0.099946 -0.001689
-0.089422 -0.072071 -0.068826
0.249827 0.080201 -0.059469
0.152145 -0.036769 -0.092643
-0.075578 0.099964 -0.001143
-0.340819 0.095420 0.030005
-0.087073 -0.086135 -0.050107
-0.066372 0.076135 -0.064564
0.394307 0.097950 0.020180
-0.125398 -0.090900 -0.040881
-0.144228 -0.092385 -0.037450
0.409176 -0.063481 -0.076841
0.412412 0.097982 -0.019672
-0.109979 -0.097208 -0.022089
-0.336172 0.054882 -0.083313
-0.231294 0.035509 0.093552
0.315168 0.098966 -0.013925
-0.396349 -0.040638 -0.090969
-0.367293 0.034964 -0.093385
0.319646 -0.048392 0.087485
0.123650 0.047608 0.088036
-0.175658 -0.003452 0.099958
0.254761 -0.066346 0.074686
0.232506 0.099699 -0.007247
0.287717 -0.087546 -0.047686
0.256119 0.090094 -0.043142
-0.341757 0.051775 -0.085260
0.303908 0.076613 -0.064022
-0.302456 0.097714 0.021233
0.350297 -0.049278 -0.086599
-0.379035 0.099917 -0.002615
0.312354 0.009229 0.099604
-0.349888 -0.098807 -0.013457
0.161805 0.054457 -0.083602
0.035279 0.074090 0.067247
0.318854 0.083347 -0.054972
-0.381108 -0.071728 0.069531
0.237983 -0.083056 -0.055058
0.353471 -0.004822 0.099915
0.447123 -0.086254 -0.049906
0.388070 0.037149 -0.092580
-0.088449 -0.052567 -0.084654
0.007216 -0.099706 0.002282
0.383628 -0.068568 -0.072328
0.382229 -0.020715 -0.097465
-0.446184 0.044702 0.089516
0.253764 0.057474 -0.081552
-0.164248 -0.098571 0.015310
-0.038137 -0.047063 -0.087832
0.421367 -0.098885 0.013329
0.073966 0.022967 0.097377
-0.119013 0.027706 -0.095771
-0.276064 0.082539 0.056524
-0.431294 0.014962 0.098914
-0.080500 -0.036771 -0.092643
-0.277621 -0.096860 0.024012
-0.286223 0.075060 0.066147
-0.034491 0.011547 -0.099023
-0.176603 -0.015758 -0.098388
-0.146255 0.044058 0.089844
0.291476 0.081407 -0.057828
0.112742 0.028922 -0.095417
0.138412 0.094748 -0.031708
-0.165562 -0.057161 -0.081606
-0.258268 -0.081491 -0.057361
-0.098441 0.091417 -0.040227
0.157926 -0.079151 -0.060522
-0.388942 0.039361 0.091985
0.113694 0.055953 0.082948
0.248255 0.052273 0.085329
-0.173137 0.049928 0.086715
-0.271207 0.015914 0.098763
-0.051321 -0.074845 -0.065763
0.342415 0.074185 -0.066776
0.350485 0.096685 -0.025286
0.008854 0.064853 0.076208
-0.246736 0.097556 0.021940
0.413349 -0.095823 -0.027450
-0.164512 -0.096754 -0.024121
-0.134269 0.097509 0.022153
0.173774 -0.052913 0.084812
0.230944 -0.079388 -0.060216
0.387640 0.097042 0.024239
0.255536 0.091799 0.039706
-0.126735 0.099442 -0.009965
0.306650 0.010810 -0.099092
0.272484 0.067219 -0.073760
0.270624 -0.047186 0.088132
0.420813 -0.068809 0.072450
-0.430567 -0.011741 -0.098982
0.434494 -0.098110 0.018223
0.154848 0.060302 0.079851
0.304304 -0.048614 -0.086991
-0.048884 0.081699 0.057760
0.314837 -0.091844 -0.038700
0.209762 0.067679 -0.073354
0.119979 0.028721 -0.095476
0.120689 0.084888 0.052973
-0.126657 0.001115 0.100039
-0.437868 0.042975 0.090396
0.068633 0.060995 0.079314
-0.214498 -0.089378 0.044453
-0.395677 -0.040505 0.091389
-0.127276 0.030399 0.095351
-0.268638 0.090064 -0.043201
-0.465895 -0.099284 0.009525
-0.376216 -0.022834 0.097354
0.143371 0.072229 0.069263
0.077660 0.098672 -0.015781
-0.317484 -0.098984 0.012704
-0.135795 -0.020824 -0.097441
-0.367226 0.006804 0.099834
-0.288185 -0.079308 0.060682
0.197332 0.079377 0.060895
0.038596 -0.092949 -0.036056
-0.275405 0.010617 -0.099110
-0.357288 0.058347 -0.080958
0.345538 0.034998 0.093736
0.155608 0.094025 -0.033717
-0.431755 -0.002630 0.099984
0.039210 0.082025 -0.056918
-0.195124 0.084870 -0.052640
-0.181516 -0.099094 -0.011182
0.349575 -0.022922 0.097335
0.113429 -0.003970 0.099942
-0.414891 0.081667 0.057807
0.225037 0.087321 -0.048495
-0.014429 0.023609 -0.096871
0.261532 -0.054417 0.083833
-0.124929 0.052246 0.085344
-0.163370 -0.079071 0.060988
-0.203605 -0.009030 -0.099238
0.442070 -0.095214 -0.029545
-0.179219 0.080743 0.059134
0.247900 -0.002123 0.100000
-0.214378 0.080303 0.059700
-0.009978 0.097515 -0.021760
-0.114767 -0.098070 -0.018112
-0.416487 0.068075 0.073367
0.218583 -0.095318 -0.029187
-0.464901 0.099851 0.005088
-0.096262 -0.023417 -0.096861
0.058675 -0.079314 -0.060312
-0.112916 -0.088670 0.045842
0.048440 -0.091756 -0.038905
0.464211 -0.004800 -0.099553
0.058036 -0.055221 0.083287
0.288302 -0.099348 -0.008491
0.048724 0.087576 0.048429
0.155889 0.098719 -0.015485
0.028005 -0.031611 0.094871
-0.041239 0.097143 0.023789
-0.073700 -0.092541 0.037453
-0.444955 0.072970 -0.068155
0.224930 -0.020636 0.097846
0.457341 -0.002407 -0.099628
-0.177915 0.082379 -0.056397
0.069401 -0.092747 -0.036614
0.242274 0.094898 0.031656
-0.418999 0.022876 -0.097035
-0.147577 -0.013002 -0.098825
0.080630 -0.098623 -0.014620
0.418108 -0.068172 -0.072713
0.068833 -0.097821 -0.019348
-0.410521 -0.080030 -0.059389
-0.274553 0.095718 0.028977
0.259735 0.099063 0.013679
0.398938 0.099787 0.006681
0.137443 0.056626 -0.082128
0.055037 0.055354 0.083355
-0.001802 -0.004240 0.099933
0.267543 -0.034564 0.093808
0.178956 -0.013433 -0.098756
-0.409771 0.064327 0.076672
0.249869 0.072298 -0.068832
0.045297 0.031418 0.095025
0.276601 0.052225 -0.084994
0.336179 0.094263 0.033420
0.174659 -0.091059 0.040877
0.337282 0.096389 0.026669
0.257922 -0.091791 0.039187
0.268191 0.081420 0.058171
0.112947 -0.096879 0.023927
0.311367 -0.098112 0.018207
0.004199 0.099945 0.002092
-0.344651 0.055223 0.083444
-0.280650 -0.098667 -0.014344
-0.116937 0.081086 0.058662
0.453421 -0.052939 0.084796
-0.386616 0.078994 -0.061025
0.212628 -0.042254 -0.090270
-0.436560 -0.077655 -0.062451
0.157050 -0.072289 0.068970
-0.398093 -0.035419 0.093500
0.078063 -0.087945 -0.046902
-0.351290 -0.058450 -0.080730
-0.362670 0.095082 -0.030780
0.438866 0.096735 -0.025116
0.196982 0.094891 -0.031313
-0.239245 -0.078348 -0.061557
-0.058605 0.041570 0.091030
-0.281267 0.027655 -0.095785
-0.452458 0.066276 0.074953
0.101226 0.098722 0.015830
0.218526 -0.098273 0.017189
0.151191 -0.060896 -0.078846
0.227791 0.077006 0.063940
-0.171136 0.025395 0.096805
-0.430171 0.042302 0.090713
0.186773 0.022138 0.097562
-0.280407 -0.076993 -0.063304
-0.432771 0.086578 -0.049753
-0.050066 0.086964 0.049462
0.093599 -0.095857 -0.027334
-0.026653 0.091072 -0.041023
0.360158 0.087856 -0.047536
0.234088 0.094785 0.031968
-0.364159 -0.098502 -0.015381
-0.019818 -0.099441 -0.007502
0.094668 -0.090624 -0.041520
-0.095558 -0.002003 -0.099641
-0.225089 -0.086314 -0.049804
0.304537 -0.092731 -0.036651
0.334366 -0.076828 0.063877
0.316121 -0.097960 -0.018726
-0.310836 -0.065486 0.075444
0.071746 -0.099467 0.007597
-0.291169 -0.091196 0.040560
0.060830 -0.066086 0.074915
-0.031867 0.094571 -0.032200
0.112570 -0.051213 -0.085454
-0.117083 0.099619 0.008459
0.331136 -0.080069 -0.059339
0.071585 -0.017508 -0.098111
-0.457214 -0.054089 0.084056
-0.119410 0.007910 -0.099366
-0.109579 0.089820 -0.043680
-0.052552 -0.054791 0.083579
0.225434 0.090328 -0.042684
-0.112611 0.088729 0.046185
0.200952 -0.069245 0.072013
-0.270899 0.016951 -0.098236
0.017484 -0.017112 0.098536
0.377070 0.051986 0.085498
-0.358704 -0.017784 0.098430
-0.150047 -0.001646 -0.099652
-0.150056 -0.020339 0.097912
-0.298631 -0.096144 0.026709
0.424786 -0.099679 -0.002790
0.098766 0.065551 -0.075230
-0.185647 -0.093423 -0.034742
0.118651 0.067611 0.073776
-0.158558 0.042917 -0.090063
-0.343389 0.000600 -0.099692
-0.253349 0.080007 -0.059719
-0.430361 0.023040 -0.096998
-0.057266 -0.098399 0.016396
-0.102694 0.013227 -0.098826
0.050450 -0.036046 0.093275
0.274011 0.041077 0.091243
-0.246778 -0.041620 -0.090544
0.411085 0.096107 -0.027278
0.072144 -0.096583 -0.024834
-0.226566 0.074136 -0.066832
0.221810 0.091148 0.041212
-0.285143 0.091182 0.041132
-0.013509 -0.021494 0.097654
-0.333136 -0.028220 0.095916
-0.104292 0.099956 -0.001391
0.228788 -0.074704 -0.065923
0.428648 -0.092376 0.037835
0.029062 0.096776 -0.024972
-0.424088 0.063752 0.077175
0.296516 -0.099585 -0.005778
0.101839 0.085541 0.051869
-0.456760 0.068951 -0.072179
0.267241 0.066040 0.075161
0.251272 0.099884 0.004038
0.274905 -0.024865 -0.096528
-0.259502 -0.099234 0.010059
-0.146421 -0.096834 -0.023764
-0.208946 -0.095692 0.028265
0.336858 -0.097701 0.020246
0.308042 -0.012993 0.099189
-0.181379 -0.074347 0.066691
0.376195 0.094141 -0.033395
0.167766 0.075068 -0.065775
0.327981 0.099224 -0.012268
-0.210218 -0.085636 -0.050950
-0.140195 0.002437 0.099997
0.343434 0.078996 -0.061023
-0.109015 -0.098775 -0.013659
0.169657 0.015839 0.098775
-0.271522 -0.092118 -0.038067
0.172264 -0.098541 0.015498
-0.126267 0.027798 -0.095744
-0.251698 -0.098290 -0.016721
0.326096 -0.072669 0.068590
0.046934 0.063085 0.077692
0.073164 0.075365 -0.065438
0.041776 -0.052450 0.085085
-0.406358 -0.093275 -0.035153
-0.202258 -0.054877 -0.083158
-0.379668 -0.073321 -0.067491
0.281887 0.093362 -0.035558
0.151682 -0.091886 0.038966
0.394582 0.000248 0.100066
0.166517 -0.053693 0.084325
-0.082756 -0.093813 -0.033657
0.126254 -0.034326 0.093894
0.258100 0.013960 -0.098710
0.035290 0.057418 -0.081590
0.142520 -0.005967 -0.099516
-0.065633 0.086494 0.050258
0.301818 0.028831 -0.095444
0.328991 0.004065 0.099946
-0.247761 0.090893 -0.041438
0.122940 -0.067713 -0.073118
-0.073331 0.033626 0.094230
-0.196018 0.072787 0.068705
0.293088 0.079087 0.061268
0.377662 -0.065440 0.075485
-0.344830 0.015940 0.098759
0.083456 -0.085047 -0.051946
-0.458567 -0.096256 0.026322
0.428042 0.062327 0.078280
0.426406 0.094130 0.033788
-0.322526 -0.059427 -0.079986
-0.110668 -0.093216 -0.035315
0.129776 -0.077172 0.063437
-0.234627 0.089032 -0.045228
-0.366290 0.088787 0.046072
-0.154065 0.075309 0.065864
-0.328082 0.075097 -0.065742
0.057776 0.093939 0.034319
-0.227411 0.064591 0.076439
0.278402 0.097985 0.020020
0.399881 -0.014777 0.098906
0.366248 0.040064 0.091681
0.267268 0.099880 0.004173
-0.147038 -0.057341 -0.081483
0.465297 -0.069831 -0.071065
0.364257 -0.000543 -0.099686
-0.116941 0.098382 0.017979
-0.153807 0.015924 0.098762
0.379289 -0.079790 0.060061
0.378674 0.051834 -0.085225
-0.023524 -0.062279 0.078136
-0.410624 -0.041612 0.090910
-0.269806 0.081107 0.058632
0.183659 0.072337 0.069155
-0.017700 0.052545 0.085168
-0.419577 0.098901 0.014701
-0.059580 -0.024195 -0.096687
0.161504 0.094441 -0.032562
0.463793 0.022966 -0.097014
-0.307599 -0.098923 -0.012727
0.175862 0.084598 -0.053101
0.037802 0.017077 0.098579
0.238318 0.092931 0.037092
0.209320 -0.019629 -0.097708
0.379404 -0.077108 -0.063156
-0.062793 0.053057 0.084865
-0.327145 0.096449 0.026462
0.278697 0.036007 0.093373
0.291476 -0.007165 0.099778
-0.315580 0.096117 -0.027243
0.463959 -0.077824 0.062595
-0.172235 0.078556 0.061953
-0.129020 0.096294 0.026995
-0.363962 0.055087 0.083536
-0.022028 -0.035740 -0.093022
0.348425 -0.011357 0.099381
-0.359196 0.039287 0.092017
0.120632 0.020151 0.098006
-0.323794 0.091759 -0.039438
-0.122730 0.099049 0.013765
-0.333320 0.059469 -0.080134
0.048589 0.037085 0.092970
-0.331706 -0.003543 -0.099592
0.170020 -0.092050 -0.038224
-0.152552 0.028498 0.095903
-0.001899 0.047892 0.087891
0.220742 -0.000614 -0.099684
0.199792 0.017769 -0.098107
-0.209156 -0.098435 -0.015806
0.271149 0.098382 0.017974
-0.261912 -0.064334 -0.076097
0.211540 -0.051718 0.085519
-0.302170 -0.020152 -0.097591
0.159944 -0.046201 -0.088271
-0.264377 -0.099731 -0.001106
0.422034 0.071998 0.069494
0.179420 0.088825 0.045996
-0.231052 -0.046512 0.088475
-0.190940 0.100004 0.000211
0.257189 0.061650 -0.078442
-0.351724 -0.099471 -0.007192
0.331048 0.023262 -0.096948
-0.143046 0.092758 0.037491
-0.073741 -0.070604 -0.070292
0.333952 -0.051395 0.085710
0.129873 0.089889 0.043908
-0.341564 0.050066 0.086634
-0.082765 -0.092284 0.038047
0.464429 0.006849 -0.099467
-0.411110 0.084853 -0.052670
0.133549 -0.099735 -0.000983
0.184983 -0.009327 0.099573
0.096642 -0.051967 0.085371
-0.091206 -0.098512 -0.015319
-0.010438 -0.070721 -0.070175
-0.464911 0.003298 -0.099607
-0.438311 0.021509 0.097703
0.094440 -0.034876 -0.093333
-0.226984 0.093168 -0.036098
0.196888 -0.003850 -0.099583
-0.035282 0.097791 0.020890
-0.300134 0.098925 -0.014188
0.356826 0.090454 -0.042436
-0.002348 -0.091870 0.039004
0.299043 0.043597 -0.089716
0.323528 0.010865 -0.099087
-0.397603 0.099355 -0.010888
0.151328 0.057698 -0.081399
-0.434128 -0.060293 -0.079314
-0.163518 0.029845 -0.095149
-0.341466 0.018990 -0.097903
0.062546 0.014013 0.099064
0.254172 -0.095060 0.030440
0.106128 -0.098938 0.012992
0.333693 -0.094924 0.030907
0.293688 -0.010240 -0.099124
0.426230 -0.097086 -0.022635
-0.119939 0.088619 0.046401
0.374541 -0.027392 -0.095794
0.061585 0.095929 -0.027888
-0.196029 -0.018024 -0.098029
-0.442586 0.028538 -0.095529
0.368741 -0.081284 -0.057665
0.316175 -0.004107 0.099937
0.077803 -0.014045 -0.098659
0.450227 -0.087889 0.047375
0.268106 -0.097181 0.022575
-0.299948 0.013312 -0.098813
-0.194213 0.012905 0.099240
-0.029514 -0.075340 -0.065202
0.413413 0.072347 0.069146
-0.441099 0.079482 -0.060397
-0.430339 0.054083 -0.083856
-0.347418 -0.031733 -0.094465
-0.007651 -0.001904 -0.099644
0.404117 0.089103 -0.045089
0.210790 -0.032423 0.094579
-0.031157 0.040357 -0.091192
-0.404759 -0.019522 0.098095
0.381579 0.036090 0.093343
-0.148337 0.072806 0.068686
-0.057016 0.075377 0.065787
0.348854 -0.087092 0.048851
0.199821 0.088264 -0.046734
0.162762 0.074945 0.066277
-0.345203 -0.069651 0.071608
0.082660 -0.054387 0.083854
-0.025795 0.025085 0.096895
0.155003 -0.056324 -0.082174
-0.428823 0.088177 0.047268
0.177678 0.099439 0.010354
0.458422 -0.029314 -0.095236
0.080491 -0.099761 -0.000160
0.044050 0.067718 0.073682
-0.304575 -0.055220 0.083287
0.291322 -0.092929 0.036475
0.089733 -0.010990 0.099416
-0.318562 0.096514 0.026238
-0.324219 -0.003758 -0.099585
0.214253 -0.001221 -0.099665
0.178105 -0.048677 -0.086955
0.104439 0.099818 -0.005773
-0.444776 0.096376 0.026712
0.250995 -0.022655 -0.097032
-0.296311 0.083465 0.055162
-0.363923 0.044821 -0.089093
0.080364 -0.094473 0.032187
-0.312103 -0.048197 0.087601
-0.214561 -0.073163 -0.067671
-0.370057 0.018059 -0.098061
0.301988 0.091348 -0.040387
-0.025329 -0.011582 -0.098997
0.056051 0.011916 0.099350
0.028532 0.065612 0.075539
0.185630 0.097821 -0.020392
-0.028155 0.042150 0.090778
-0.359901 0.089780 0.044122
-0.422843 0.046059 -0.088462
-0.389559 -0.092003 0.038695
0.009584 0.099945 -0.001726
0.252896 -0.005116 -0.099543
-0.389167 -0.087167 0.048725
-0.032520 0.060921 -0.079008
0.307450 0.054894 0.083668
-0.278655 -0.057312 0.081866
0.203781 -0.004875 -0.099550
0.284086 0.013564 0.099135
0.121225 -0.006560 0.099835
-0.198783 -0.092758 -0.036587
0.027293 -0.096656 -0.024558
-0.412427 -0.069915 0.071344
-0.123924 0.068615 0.072878
-0.413385 0.021186 0.097775
-0.176526 0.088567 -0.046140
0.374555 0.040191 0.091626
0.361484 -0.044629 -0.089072
0.311807 -0.059595 -0.079856
-0.127716 0.001545 -0.099662
-0.282209 -0.069214 0.072045
0.408621 -0.035665 0.093412
-0.350788 0.081313 -0.057965
0.197586 0.077541 -0.062898
0.405616 0.096253 0.027136
-0.314942 -0.072184 0.069075
-0.260038 -0.094051 0.033360
0.115661 0.031209 0.095100
-0.169607 -0.097935 -0.018837
0.238800 -0.013767 0.099066
0.054896 -0.029738 -0.095113
0.074488 -0.026648 -0.096010
-0.200161 -0.075533 0.065346
-0.133080 -0.046208 -0.088267
0.008653 0.049719 -0.086476
-0.263659 -0.098249 0.017346
-0.416477 0.087614 0.048363
0.232907 0.064538 0.076486
-0.326442 0.077933 0.062755
0.191348 0.076272 -0.064409
-0.386051 -0.003394 -0.099597
-0.231557 -0.035272 0.093553
0.368309 0.046672 -0.088150
-0.223572 -0.034102 0.093975
0.114018 -0.032775 0.094452
-0.347072 0.046565 0.088567
0.433591 -0.096573 -0.024870
-0.012115 -0.050788 0.086069
0.401475 -0.083155 -0.054912
0.438111 -0.096644 0.024977
0.011272 0.081519 -0.057662
-0.265857 0.078270 -0.061959
0.369642 -0.017930 -0.098044
0.111684 -0.091653 0.039506
-0.138794 -0.049066 -0.086724
-0.463248 -0.089114 0.044972
-0.282694 0.069915 -0.071215
0.411434 -0.077186 -0.063055
0.009114 -0.033095 -0.093974
-0.083941 0.059237 0.080677
-0.362454 -0.082894 -0.055295
0.464503 0.099478 0.009950
-0.377760 0.095395 0.030090
0.353120 -0.091520 0.039811
0.385704 0.095825 -0.028246
-0.175558 -0.050099 -0.086113
-0.245636 -0.087871 0.047411
-0.032544 0.099414 0.010622
0.335977 -0.040135 -0.091186
-0.224313 0.099942 0.002182
0.009785 0.091599 -0.039807
-0.407861 0.095475 -0.029453
0.136338 -0.090714 0.041674
-0.451745 0.007854 0.099734
0.176086 0.052768 -0.084673
0.103285 0.088352 0.046925
0.101618 0.030787 -0.094876
0.332485 -0.089729 0.043763
-0.142414 -0.096273 0.026265
-0.278039 0.031653 0.094940
0.012873 0.053549 -0.084211
0.128722 -0.081538 0.057654
0.307698 0.077576 0.063216
-0.236857 -0.098814 0.013777
0.393400 -0.073782 0.067331
-0.160275 -0.013569 0.099098
0.105720 0.096957 -0.024259
0.179090 -0.092915 0.036515
0.118309 -0.099612 -0.004918
-0.224694 0.069516 0.071977
-0.439516 -0.089414 -0.044020
-0.373157 0.078692 -0.061414
-0.427770 0.097448 0.022424
0.215128 0.064950 -0.075760
0.123044 -0.000341 -0.099693
0.170510 0.096989 -0.024113
0.079893 -0.033948 0.094030
0.302580 0.086049 -0.050647
0.397863 0.023953 0.097156
-0.421789 -0.080695 0.058895
-0.299019 -0.093739 0.034226
0.354165 0.070747 -0.070382
0.213251 -0.014169 -0.098640
0.305882 0.097383 -0.022351
0.053401 0.030251 -0.095031
0.035152 -0.047952 0.087742
-0.015615 0.076442 0.064580
-0.061626 0.025059 -0.096540
-0.016560 0.086332 -0.050169
-0.374793 0.074486 -0.066435
0.390267 0.072429 -0.068700
0.123171 0.061611 0.078836
-0.456696 -0.061194 0.078978
-0.342699 -0.078143 -0.061822
-0.377783 -0.068878 -0.072018
-0.142591 -0.089760 -0.043340
-0.188042 0.099242 -0.012079
0.154016 0.027816 -0.095739
-0.311475 -0.012853 -0.098848
0.215297 -0.012727 0.099231
0.182191 -0.069780 0.071479
0.317639 -0.099615 -0.004811
0.269677 0.021643 -0.097310
0.125308 0.086603 0.050074
-0.258111 0.045697 -0.088647
-0.226021 0.000561 0.100056
0.457059 -0.078506 0.061717
-0.129875 0.068461 0.073027
-0.443787 0.005300 0.099907
-0.000250 -0.034326 0.093894
0.093092 0.054046 -0.083881
-0.374982 -0.098431 -0.015828
-0.465522 -0.084551 -0.052785
-0.007670 -0.099041 -0.011741
0.134652 -0.041487 -0.090602
0.218500 0.063996 0.076964
0.450357 -0.000852 0.100040
0.221059 -0.091547 -0.039388
0.172497 -0.099601 -0.005255
-0.398677 -0.098146 0.017995
-0.381414 0.034640 -0.093502
0.295517 -0.099741 0.001150
0.209274 0.012372 -0.098944
0.184740 0.004447 0.099934
-0.291967 -0.098570 0.015314
-0.105660 -0.088583 0.046013
0.247559 -0.022187 0.097499
-0.308630 -0.035695 0.093401
-0.329478 -0.023312 0.097248
0.463600 -0.012648 0.099243
-0.223367 0.055394 0.083328
-0.391098 0.032407 -0.094306
-0.221761 0.095556 -0.029171
0.264314 -0.025387 0.096739
0.150872 -0.099651 -0.003659
0.207972 0.076896 0.064064
0.415948 -0.073876 0.067225
-0.392212 0.016765 -0.098266
0.025099 0.099174 0.012976
-0.465014 -0.089538 -0.043777
0.010993 -0.081498 0.057712
-0.377062 0.024107 0.097122
0.145479 0.078074 0.062574
-0.031536 -0.010071 -0.099140
0.281890 0.096148 0.027498
0.152251 0.025952 0.096643
0.165722 0.030348 0.095366
-0.147909 -0.064265 0.076521
-0.353130 -0.096763 0.024446
-0.055071 0.094370 -0.032758
0.244709 -0.089790 -0.043282
-0.394438 -0.096606 0.025118
0.337235 -0.052186 -0.084879
0.381378 -0.089620 -0.043616
-0.031663 -0.099181 -0.010255
0.425370 -0.067101 -0.073658
0.294073 -0.017380 0.098494
-0.166779 0.037306 0.092875
0.133273 -0.046883 -0.087924
-0.002150 -0.056701 0.082281
0.165005 0.084090 0.054242
0.099113 -0.044868 0.089313
0.274079 -0.095236 0.029834
-0.328511 -0.073870 0.067232
-0.279332 -0.073043 0.068169
-0.193877 0.026067 -0.096247
0.351156 -0.081760 -0.056964
0.300911 0.012382 -0.098944
0.298050 -0.096813 -0.023858
-0.074390 -0.075464 -0.065060
0.377465 -0.097688 0.020307
-0.401225 0.099854 -0.004628
-0.445046 -0.025085 0.096827
-0.259039 0.100004 0.000207
0.398694 0.039414 0.091962
-0.314713 -0.024928 -0.096510
0.157703 -0.022237 -0.097125
-0.267824 0.083882 -0.054185
-0.350623 -0.085491 -0.051196
0.312050 0.073048 -0.068066
0.401836 -0.069533 -0.071363
-0.160564 -0.042072 0.090711
-0.392761 -0.078968 0.061120
0.037180 -0.014253 -0.098626
0.281574 -0.096383 0.025884
-0.324805 0.029916 -0.095129
0.182018 -0.099662 -0.003314
-0.229521 0.007157 0.099800
-0.181665 -0.099650 -0.003707
-0.449532 0.055046 -0.083201
0.440076 -0.084172 -0.053415
-0.248072 -0.095162 -0.029727
0.196330 -0.051155 -0.085489
0.010320 0.088602 -0.046071
-0.449172 0.023482 -0.096899
-0.076875 0.076912 -0.063683
0.387011 0.088138 -0.046982
-0.446999 -0.072304 0.068955
0.243108 0.071411 0.070082
-0.002623 -0.081241 0.058091
-0.280712 0.085179 0.052481
0.139924 0.099970 -0.000932
-0.168944 0.098828 0.015164
-0.404925 0.095057 0.031214
-0.191700 -0.069988 0.071270
0.073911 -0.080882 0.058619
0.075005 -0.093429 0.035088
-0.397538 0.084098 0.054230
-0.129943 0.061780 -0.078342
0.012046 0.004557 -0.099568
-0.196522 0.099495 -0.009407
-0.185992 -0.054651 0.083674
0.291001 0.062770 0.077937
-0.361805 0.098746 -0.015317
0.355720 -0.047610 -0.087553
-0.099282 0.037577 0.092757
-0.156247 -0.097981 -0.018631
0.443730 0.064604 -0.076064
-0.234269 -0.067228 -0.073545
-0.178564 -0.053671 0.084340
0.193289 -0.078652 0.061528
0.042809 0.052519 0.085183
0.296721 -0.087630 0.047884
-0.085811 -0.011105 0.099405
-0.002588 0.070253 -0.070876
0.261095 0.087729 -0.047786
-0.244616 -0.019257 0.098154
-0.465286 -0.081383 0.057882
-0.281848 -0.060223 -0.079368
-0.076033 -0.057917 0.081454
0.206623 0.049549 -0.086577
-0.079566 0.098003 -0.019578
0.090598 0.058559 0.081177
0.127791 0.016010 0.098748
-0.457996 -0.087425 0.048285
0.186592 0.031962 -0.094466
-0.386028 -0.044173 0.089667
0.092167 -0.048338 0.087517
0.301002 -0.055068 0.083391
-0.343699 0.078037 0.062622
-0.251827 -0.080864 0.058646
0.110216 -0.037256 0.092795
0.352956 -0.099219 0.010216
-0.300606 -0.078707 -0.061095
0.325580 -0.055626 -0.082649
-0.153382 0.066447 0.074802
0.074254 0.012402 -0.098942
-0.438816 -0.014598 -0.098572
-0.309843 0.085561 -0.051471
-0.029794 0.049345 0.087060
0.125719 -0.065274 0.075631
0.250637 0.063435 -0.077058
-0.450591 0.096664 0.025721
-0.466111 -0.053023 -0.084384
-0.031710 -0.012667 0.099240
0.193335 0.029668 -0.095201
0.282601 -0.099663 -0.003278
0.136804 0.071783 0.069709
-0.354443 0.093395 0.035831
0.084469 0.037451 -0.092449
-0.073776 0.099842 0.005376
-0.073143 -0.050315 0.086348
0.007986 0.085199 -0.052085
0.149606 0.093492 -0.035199
-0.412684 0.029546 -0.095236
-0.109059 0.067902 -0.073158
-0.252070 0.037789 0.092665
-0.304563 -0.089409 -0.044029
0.204545 -0.086440 -0.049591
0.176694 -0.028760 -0.095397
-0.315550 -0.015869 0.098733
0.190434 -0.012302 0.099292
-0.181017 -0.070090 -0.070806
-0.011841 -0.081434 -0.057444
-0.456045 0.004097 -0.099582
0.413248 0.079356 0.060921
0.281443 -0.056355 0.082516
-0.322547 -0.095469 -0.028667
-0.108271 0.094614 0.032445
0.286553 -0.099607 0.005428
0.375690 -0.098597 -0.014781
0.465059 -0.087267 -0.048193
-0.228055 -0.041350 -0.090661
0.465054 -0.081346 -0.057573
0.204975 -0.050158 0.086441
0.075741 0.099921 0.002867
0.316065 0.077693 -0.062702
0.126257 0.040034 -0.091331
0.057322 -0.006124 -0.099511
0.379936 -0.099200 -0.010056
0.233492 0.075017 0.066196
-0.055522 0.095516 0.029674
0.002000 -0.052292 0.085179
0.180566 -0.078835 0.061292
-0.388606 -0.038844 0.092108
-0.260246 0.051788 -0.085253
0.343169 0.013893 -0.098720
-0.360097 0.076884 0.064078
-0.392201 -0.023564 0.097191
-0.093269 -0.090945 0.041141
-0.261655 -0.026210 -0.096138
0.042566 -0.091982 0.038744
-0.399949 -0.023018 -0.096951
-0.096649 -0.034409 -0.093501
0.118940 -0.055183 0.083313
-0.373578 -0.099618 -0.004709
0.203266 -0.098716 -0.014030
-0.172883 -0.073447 0.067711
-0.313489 0.072174 -0.068955
-0.365658 0.017602 0.098496
0.005758 0.028494 -0.095542
-0.295091 -0.070383 0.070876
-0.271120 0.094222 -0.033169
-0.122547 0.043883 -0.089571
-0.138762 0.099939 -0.001929
0.299424 0.096939 -0.024339
0.192055 0.033770 0.094178
0.209811 -0.023463 0.097214
-0.008636 0.039771 -0.091445
0.125949 0.099979 -0.000664
-0.384757 0.033901 0.094131
-0.413975 -0.043898 -0.089444
-0.045485 0.077709 0.063045
0.045914 -0.002492 -0.099625
-0.203307 -0.097444 -0.021035
0.236885 -0.098837 -0.013266
-0.393897 0.043784 0.089984
-0.056006 -0.099742 -0.000782
-0.379260 -0.079709 0.060165
0.353459 -0.046038 0.088717
0.076388 -0.076659 -0.063705
0.184941 -0.036957 -0.092562
-0.078292 0.099606 -0.008226
-0.314717 -0.052930 0.084802
0.381506 0.057685 0.081771
0.071680 0.090934 0.041706
0.132180 0.097779 0.020942
-0.418812 0.017983 0.098435
-0.006294 0.030883 0.095210
-0.116133 0.093472 -0.035255
0.094008 -0.026835 -0.095956
-0.253438 -0.064062 -0.076337
-0.056623 0.008249 -0.099334
-0.073342 0.089983 -0.043360
0.341088 -0.050174 0.086432
0.049597 -0.080233 -0.059127
-0.172674 -0.058215 0.081252
-0.465872 0.099294 0.011894
0.100818 0.076480 0.064536
0.136256 0.099861 0.004769
-0.016513 0.097156 -0.023367
-0.349137 0.097085 -0.023687
0.136346 -0.053572 0.084407
-0.314248 -0.099010 -0.012071
-0.158083 0.009752 -0.099192
-0.428285 0.028584 0.095878
-0.245500 -0.097941 -0.018811
-0.431221 -0.097170 0.022622
-0.400144 -0.014316 -0.098617
0.197386 -0.018107 0.098379
-0.015675 -0.097158 0.022675
0.362654 -0.002380 0.099992
0.267231 0.004606 0.099929
0.354114 0.094241 -0.033117
-0.022577 -0.055425 0.083148
-0.274692 -0.061374 -0.078475
0.242958 0.041765 0.090945
-0.267869 0.002885 -0.099620
0.120717 -0.030865 0.095140
-0.021488 -0.006360 -0.099491
-0.386979 0.015479 0.098832
-0.186917 0.031132 0.095128
-0.189293 -0.036380 0.093154
0.422800 0.097633 -0.021235
-0.034996 0.093929 0.034346
-0.136941 0.078650 0.061831
-0.456877 0.056312 -0.082341
-0.007227 -0.087635 -0.047511
0.337771 -0.099330 0.009048
0.112025 -0.003074 -0.099607
0.369318 0.067071 -0.073890
0.023837 -0.099318 0.009170
-0.042744 0.075096 -0.065742
0.033710 0.022814 -0.097048
0.098367 -0.076369 0.064397
-0.090921 -0.081590 0.057577
-0.015446 0.068711 -0.072419
0.451849 0.042669 0.090552
-0.096892 -0.049921 0.086582
0.152018 -0.080689 0.058902
-0.328595 0.090846 0.041909
0.365327 0.062251 -0.077977
0.350537 -0.070491 -0.070404
0.148910 -0.080297 -0.059044
0.427994 -0.089838 0.043550
-0.071518 -0.018060 0.098386
0.312680 -0.038346 0.092324
0.423761 -0.045039 -0.088863
-0.227489 -0.097969 0.019049
-0.430618 0.099403 -0.010380
-0.131354 -0.076849 -0.063489
0.222520 -0.054954 -0.083106
-0.363868 0.062075 0.078476
-0.019058 -0.050145 0.086449
-0.128458 -0.098575 -0.014920
0.230654 -0.057387 0.081815
-0.268579 0.098805 0.015303
0.057981 -0.099569 -0.006152
-0.347660 -0.006239 0.099865
0.139973 -0.046628 0.088416
-0.419196 0.090369 0.042967
0.324601 -0.069843 -0.071053
-0.395326 -0.087204 -0.048300
-0.341152 0.082485 -0.056242
0.206279 -0.090365 -0.042118
0.179722 -0.090406 -0.042024
0.246210 0.042582 -0.090229
-0.040270 -0.005772 -0.099522
-0.412066 -0.074599 -0.066042
-0.451899 -0.047623 0.087909
-0.020718 0.098452 -0.017172
0.207829 -0.094664 -0.031295
-0.066731 0.027916 0.096072
-0.142761 0.087198 0.049067
0.016841 0.071231 -0.069899
0.443263 -0.076843 0.063860
0.196522 0.072630 0.068862
-0.163607 -0.050076 0.086490
0.335149 -0.099482 -0.007076
-0.137928 0.086215 -0.050367
0.382314 0.094382 0.033089
0.113934 0.003827 0.099953
0.264457 0.072291 -0.068838
-0.449964 -0.058921 -0.080378
0.292352 -0.076053 -0.064392
0.139654 -0.096096 0.026874
0.191717 0.099868 0.004550
0.210778 0.084363 0.053840
0.277990 -0.039228 0.091942
0.253163 0.085823 0.051391
-0.118940 -0.096058 0.027003
0.143608 -0.070544 0.070715
0.174243 -0.085869 0.050919
-0.462692 -0.036934 0.092934
-0.249813 -0.050028 -0.086155
-0.037084 -0.099584 0.006171
-0.040263 -0.067967 -0.072894
-0.322072 -0.050374 0.086314
-0.438434 0.050207 -0.086187
-0.230553 0.053520 0.084591
-0.146263 -0.030176 0.095348
0.164100 0.089446 0.044778
0.035858 0.007609 -0.099395
0.007157 -0.076577 0.064161
-0.255165 0.091445 -0.040161
0.367251 0.072246 0.069246
-0.167838 -0.024329 0.097020
0.375872 0.090081 0.043531
0.143071 0.017393 -0.098166
0.223490 -0.089139 0.044921
-0.341383 -0.036240 -0.092842
-0.257128 -0.099765 -0.000054
0.416793 0.096372 -0.026365
0.050408 0.008339 0.099689
0.302156 0.096106 0.027644
0.015089 0.075086 0.066117
-0.040825 0.033369 -0.093960
-0.136197 0.091770 0.039773
0.303641 -0.097557 0.020891
0.047682 -0.052254 -0.084839
-0.372859 -0.000618 -0.099684
0.420212 -0.095273 -0.029345
-0.199289 0.098961 0.014321
-0.060847 -0.086461 -0.049555
-0.424974 0.029945 -0.095120
-0.363018 -0.046705 0.088377
-0.187410 -0.099429 -0.007632
-0.083026 0.083447 0.055189
-0.390433 -0.008684 -0.099271
-0.372620 -0.038743 0.092152
-0.178226 -0.095369 0.029376
-0.458295 -0.046523 0.088470
0.386278 0.015762 -0.098424
0.289180 -0.097103 0.022924
0.194339 0.022703 -0.097073
-0.355464 -0.099460 0.007673
-0.030475 0.033851 -0.093786
-0.394648 -0.051052 0.085912
0.302952 0.037504 0.092789
-0.061367 0.079157 -0.060816
0.217427 -0.057573 0.081689
-0.345027 0.091801 -0.039339
-0.364728 -0.042709 -0.090050
0.398935 0.080902 0.058928
0.419778 0.055509 -0.082887
0.151192 0.085808 -0.051055
-0.161948 0.063604 -0.076927
-0.424764 0.019249 -0.097845
-0.291375 0.098921 0.014573
0.314291 0.037926 -0.092243
0.130001 -0.098499 -0.015403
-0.323113 -0.026391 0.096448
0.148783 0.084972 0.052832
-0.386664 -0.083014 -0.055119
-0.352566 0.045158 -0.088921
0.007865 -0.041955 0.090762
0.235796 0.043041 -0.090000
-0.279317 -0.081819 0.057241
-0.436166 -0.082085 -0.056487
-0.054479 -0.049849 -0.086261
-0.263774 -0.079967 -0.059470
0.236475 0.066263 -0.074602
-0.076174 0.045353 0.089184
-0.045728 -0.030582 0.095230
0.421419 0.064821 -0.075873
0.229555 0.041157 0.091208
0.001436 0.085742 0.051529
-0.098619 0.096063 -0.027426
0.236467 0.090959 -0.041285
0.392844 0.066514 -0.074381
0.156777 -0.004567 -0.099560
0.393076 -0.024267 -0.096671
-0.443472 0.098710 0.015905
-0.416108 -0.099741 -0.000788
-0.122438 0.097248 0.023320
-0.099010 -0.056232 -0.082237
-0.358222 0.052765 0.085037
-0.420153 0.082568 -0.056118
-0.396318 0.089981 -0.043364
-0.036920 -0.007489 0.099747
0.116061 -0.015776 -0.098385
0.441874 0.050524 0.086363
-0.438493 0.095712 0.028997
0.213395 -0.098287 -0.016742
0.187363 0.061553 0.078881
0.032955 -0.076280 -0.064135
0.361373 -0.096269 0.026278
0.465017 0.094342 -0.032838
-0.112205 0.072037 -0.069093
-0.225250 -0.094147 0.033093
0.033693 0.029531 0.095603
-0.140305 -0.084357 -0.053114
-0.013978 0.064237 -0.076388
0.229355 0.047745 0.087966
-0.008640 0.092481 0.038131
0.199613 -0.018848 -0.097883
0.041994 -0.090832 -0.041038
0.170837 -0.023760 0.097147
0.355665 -0.077650 0.062820
0.196044 0.057314 -0.081660
-0.330105 -0.038197 0.092388
-0.392222 -0.099534 0.006882
-0.277811 -0.031747 -0.094460
-0.074731 -0.058755 -0.080507
0.405958 0.085558 0.051841
0.080867 -0.048560 0.087386
0.205718 0.093754 0.034832
-0.184181 0.098363 -0.017732
0.296092 0.085032 -0.052367
-0.410251 -0.062763 -0.077398
-0.222284 0.045577 0.089070
-0.132964 0.025804 0.096686
0.282802 0.089845 -0.043631
-0.081817 -0.099097 0.011510
-0.143500 0.078109 0.062529
0.437742 0.045538 0.089091
0.244227 -0.098787 0.013944
0.008230 -0.072345 -0.068551
-0.437261 -0.051848 0.085442
0.375595 0.077823 0.062898
-0.044218 -0.065080 0.075802
-0.048772 -0.096330 -0.025705
-0.140877 0.062444 0.078189
0.101505 0.010263 0.099507
0.263590 -0.047370 0.088038
-0.235355 0.048062 0.087804
0.260655 0.099812 0.006336
0.106624 -0.098171 -0.017472
0.349167 -0.096160 -0.026290
0.403348 -0.025491 0.096709
-0.097725 -0.099697 0.002566
0.216082 -0.096106 0.026840
-0.283278 -0.024418 0.097000
0.322359 -0.098042 0.018650
-0.213098 0.029251 0.095684
-0.269203 -0.035458 -0.093124
-0.155523 0.070897 0.070595
-0.178597 0.062304 -0.077935
-0.061127 -0.075547 0.065329
0.349914 -0.059122 0.080585
-0.073752 0.098374 -0.017663
0.105053 -0.096677 0.024827
-0.455704 0.085907 -0.050887
-0.328687 -0.083329 -0.054655
-0.252351 -0.036472 -0.092758
0.442703 0.093833 0.034613
0.299324 -0.099489 0.007357
-0.283723 0.080308 -0.059332
-0.283360 -0.023283 -0.096891
-0.267858 -0.075659 -0.064839
-0.187760 -0.098796 0.013889
0.216605 0.022888 -0.097032
-0.465803 0.094877 0.031714
0.179556 -0.095315 0.029561
-0.348278 0.035834 0.093435
-0.070941 0.064166 0.076814
0.259894 -0.097676 -0.019999
0.133452 -0.095409 -0.028876
0.428709 -0.068437 0.072821
0.229407 -0.099720 -0.001478
-0.228154 0.056277 -0.082365
-0.382344 -0.051892 0.085415
0.294190 -0.087047 -0.048565
-0.275958 0.099385 -0.010562
0.430216 -0.076925 0.063755
-0.246735 0.011470 0.099393
-0.040106 0.070057 0.071435
0.170286 0.092556 -0.037595
-0.130063 0.078877 0.061539
0.261031 0.078816 -0.061255
0.391578 -0.087944 -0.046905
0.313006 0.001564 0.100025
0.249307 0.070071 0.071421
-0.292765 0.074357 0.066944
-0.348220 -0.032114 0.094690
-0.069537 -0.005678 0.099888
0.395546 0.034491 0.093919
0.357152 -0.054158 -0.083646
0.225221 -0.002804 0.099978
-0.178618 0.085795 -0.051077
-0.401031 -0.091489 -0.039522
-0.273667 0.067045 -0.073913
0.418038 -0.036926 0.092938
-0.362864 -0.010461 -0.099103
-0.106720 0.027946 0.096064
-0.031582 0.030884 0.095210
0.192415 0.007279 -0.099426
0.444986 -0.049576 0.086786
0.334778 0.013242 0.099186
-0.266942 -0.022710 0.097382
-0.257592 -0.069156 -0.071740
-0.248283 -0.056198 0.082623
0.129752 0.070712 0.070780
0.391347 -0.085041 -0.051956
-0.297487 0.051327 -0.085525
0.407478 -0.078473 0.061759
-0.150879 0.097525 0.022080
-0.177297 0.054099 -0.083845
-0.449957 0.097435 -0.022120
-0.022653 0.095871 0.028452
0.288758 0.088983 -0.045323
-0.388944 0.038162 -0.092141
0.369601 -0.032017 -0.094362
0.001772 -0.094535 -0.031652
0.284397 -0.042122 0.090690
-0.060411 0.093635 0.035163
0.184542 -0.015865 -0.098371
0.006822 0.074134 -0.066834
-0.371656 -0.057607 -0.081302
-0.255978 0.062134 0.078430
-0.134409 -0.093507 0.034871
0.323479 -0.079265 -0.060375
0.115120 -0.019087 0.098192
-0.121168 0.029759 0.095537
0.120545 0.005658 -0.099533
-0.407062 0.099594 -0.008353
-0.444023 0.091634 -0.039725
0.088092 -0.079113 -0.060571
0.238738 -0.089264 0.044678
-0.150792 -0.041084 0.091139
-0.403412 0.097235 -0.023015
-0.024569 -0.035323 0.093535
-0.083330 0.064214 -0.076408
-0.100398 0.082882 0.056019
-0.289952 0.081382 0.058227
-0.046804 0.041826 0.090919
0.099415 -0.054536 -0.083389
-0.248362 0.098868 -0.014547
-0.360325 0.097118 0.023901
-0.259800 -0.003418 0.099959
-0.094185 -0.044175 -0.089303
-0.161529 0.042914 0.090427
0.047643 -0.042263 0.090629
0.206733 0.013799 0.099098
-0.291538 -0.074932 -0.065665
0.459418 -0.099625 -0.004496
0.330027 0.011805 -0.098998
0.346387 -0.076630 -0.063738
-0.254301 0.074389 -0.066544
-0.066263 0.074092 0.067244
0.025593 -0.091604 -0.039255
0.441030 -0.059394 0.080374
-0.451313 0.098515 0.017135
0.329703 -0.004663 -0.099557
0.029322 0.038603 -0.091951
0.376662 0.091019 -0.041146
0.050508 0.069849 0.071643
0.256867 0.075928 -0.064799
-0.364122 0.096922 -0.024416
0.200355 0.069232 0.072260
0.392770 0.090856 -0.041522
-0.385852 -0.055959 -0.082422
0.327105 0.079194 -0.060768
-0.192870 0.042955 -0.090044
0.117714 -0.007861 -0.099349
-0.231050 0.099302 0.011810
0.314707 -0.098986 -0.012320
0.415365 -0.023892 0.097118
-0.001471 0.099992 0.000599
0.448720 0.066935 0.074372
0.193575 0.088072 -0.047111
-0.373036 0.091182 0.041132
-0.049988 -0.069799 -0.071097
-0.094876 0.059976 -0.079741
0.445387 0.077639 -0.062772
-0.195252 -0.042838 -0.089984
-0.372489 -0.090569 0.042009
0.282770 0.099994 0.000554
-0.425919 -0.087233 -0.048250
0.102310 -0.094274 -0.032377
0.142214 0.097811 -0.020437
-0.158021 -0.093075 -0.035708
-0.285613 -0.009201 0.099585
-0.316105 -0.078200 0.062111
-0.463623 -0.092869 -0.036279
-0.375965 0.041091 0.091237
0.105869 0.098872 -0.014520
0.396292 -0.035397 0.093508
-0.352299 -0.011889 -0.098968
0.459988 -0.068131 -0.072750
0.285048 0.098532 0.017033
-0.362481 0.099484 -0.009517
-0.260235 0.023481 0.097262
0.130914 -0.092548 0.037436
0.007356 -0.076472 -0.063917
0.170090 -0.098107 -0.017875
0.116049 -0.093128 -0.035561
-0.149303 0.095371 -0.029810
-0.329194 0.048027 -0.087460
-0.175579 0.086459 0.050316
0.014211 -0.015017 -0.098506
-0.169573 0.055882 0.082996
-0.269860 -0.045452 0.089015
0.435483 -0.091001 0.041012
0.208555 -0.047201 -0.087761
-0.240193 -0.093681 0.034387
0.311559 -0.099733 -0.001065
-0.161410 -0.065637 0.075311
0.450211 0.093230 0.036289
0.072142 -0.084125 -0.053485
-0.427414 -0.019598 -0.097715
-0.413676 -0.076441 0.064315
0.167446 -0.037571 0.092659
-0.128608 -0.097246 -0.021921
0.020720 -0.042460 0.090540
-0.335390 0.098676 0.016122
0.263393 0.040137 0.091650
0.073349 -0.039471 0.091837
0.341098 0.083619 -0.054573
0.373762 -0.082873 0.055689
0.158427 -0.052204 -0.084868
-0.203949 0.083685 0.054838
0.392732 0.033704 -0.093839
-0.244932 0.040247 0.091602
-0.007402 0.055105 -0.083161
-0.336471 0.022611 -0.097094
-0.388019 -0.049251 0.086977
-0.420772 0.084571 0.053509
0.438390 0.083577 -0.054634
0.180324 0.007969 -0.099361
0.101890 -0.096128 -0.026401
0.457259 0.073640 -0.067394
-0.457582 0.069851 0.071641
-0.261467 0.009962 0.099535
-0.391493 0.068211 -0.072885
-0.144185 0.037922 0.092608
0.209123 0.099521 0.009491
-0.051464 -0.081429 -0.057451
-0.081207 0.097478 0.022290
0.435416 0.071186 -0.069943
0.357012 0.078683 0.061789
0.039009 0.099457 0.010163
0.136146 0.006841 -0.099467
-0.168743 0.096653 -0.025397
-0.239922 -0.078774 0.061371
-0.173237 -0.099471 -0.007191
-0.457847 -0.018349 -0.097978
0.179635 0.084206 0.054071
0.002461 0.062028 0.078512
-0.417619 0.033130 -0.094046
-0.232662 -0.061057 0.079084
-0.379519 0.030364 0.095361
0.449938 -0.008265 0.099673
-0.043428 -0.010615 0.099451
-0.141216 0.099650 -0.007758
-0.308552 0.073690 0.067701
-0.443794 0.002661 -0.099627
0.407468 0.042593 -0.090224
-0.453210 0.060495 -0.079339
0.087322 0.066316 0.074918
0.229455 0.044482 -0.089265
0.091763 0.083290 0.055420
0.229902 0.068531 -0.072599
-0.121625 0.088923 -0.045441
-0.455566 -0.070058 -0.070838
0.209890 0.099380 -0.010623
-0.159233 0.024274 -0.096722
-0.133735 -0.011861 -0.098971
0.296383 0.036441 0.093216
-0.458616 -0.079556 0.060362
0.393977 0.060282 0.079867
-0.458502 0.043679 -0.089675
-0.129172 -0.093209 -0.035337
0.027747 0.008551 0.099669
-0.341898 -0.079227 0.060787
0.225793 -0.020917 -0.097420
0.346101 0.099518 0.009527
0.420599 0.047825 0.087925
0.141701 -0.055586 0.083039
-0.158067 -0.096217 -0.026093
-0.124755 -0.048908 0.087180
-0.435121 0.037912 0.092612
-0.093249 0.055179 0.083474
-0.304253 -0.098161 -0.017537
-0.334057 -0.071547 0.069712
0.278019 -0.090405 0.042388
0.099887 0.049274 0.087102
0.190538 0.071420 0.070072
0.290167 0.012709 0.099271
-0.391169 -0.080865 -0.058281
0.019909 -0.086838 -0.048919
0.076633 0.016126 0.098730
-0.226341 0.087419 0.048693
0.359213 -0.097948 -0.018778
-0.066436 -0.098604 0.015100
0.313996 -0.014854 -0.098531
-0.326580 0.061083 -0.078883
0.311719 -0.007988 -0.099337
-0.122374 -0.094544 -0.031628
0.425357 -0.099246 -0.009570
-0.189335 0.086346 0.050507
0.184213 0.076205 -0.064485
0.433270 0.099824 0.005940
-0.205982 -0.072464 -0.068432
0.185057 -0.029722 0.095480
0.017542 -0.043373 -0.089712
-0.051935 -0.029533 -0.095172
0.357150 0.002472 0.099996
0.215730 0.091842 0.039609
0.131988 -0.096498 0.025490
-0.227029 0.039273 0.092023
-0.088942 -0.037468 -0.092341
-0.285101 0.015502 -0.098466
-0.339557 -0.090008 0.043216
0.360443 0.022208 -0.097184
0.295760 0.008506 0.099673
-0.114572 -0.095679 -0.027947
-0.306325 0.098393 -0.017543
0.347049 -0.005016 0.099909
0.062084 0.065850 0.075329
-0.034729 -0.084710 0.052879
0.417139 0.069235 0.072257
-0.148583 -0.099247 -0.009562
-0.388952 0.086869 0.049623
0.196652 0.099928 -0.002263
0.078700 -0.050232 -0.086035
0.223755 0.088242 0.047140
0.101512 0.094576 -0.032186
0.087571 -0.028169 -0.095568
0.081359 0.047234 0.088226
-0.225185 -0.085712 0.051185
-0.081060 -0.072012 0.069247
-0.227142 0.067725 -0.073313
-0.226063 0.092478 0.038137
-0.462375 -0.050359 0.086322
-0.132120 -0.089986 -0.042896
0.396564 0.075457 -0.065333
-0.114025 -0.099225 0.010157
0.208722 0.055419 -0.082948
-0.234903 0.009580 0.099571
-0.004213 -0.036980 -0.092552
0.103740 0.036036 0.093362
0.022666 -0.067635 -0.073187
-0.234356 0.002728 0.099988
-0.076759 -0.024118 -0.096705
-0.205713 0.055989 0.082923
-0.133261 0.099763 -0.006566
0.315160 0.094837 -0.031461
-0.013449 -0.047961 -0.087374
0.135346 0.083702 0.054813
0.243160 -0.050700 0.086120
-0.416940 0.097878 -0.020139
-0.249387 0.068100 0.073345
0.295338 0.095053 0.031226
0.240815 0.073985 -0.067003
0.151390 -0.084038 0.053976
-0.428539 0.048303 0.087676
-0.307624 -0.077064 0.063576
-0.242565 0.099995 -0.000153
-0.419741 -0.057330 0.081854
-0.406886 0.002240 -0.099641
-0.449482 0.030608 -0.094928
0.396308 0.062194 -0.078021
-0.295917 0.026728 -0.096055
0.280286 0.099328 0.011530
-0.326863 -0.055690 -0.082605
-0.086373 0.099434 -0.010044
-0.398355 0.067434 -0.073570
-0.422479 -0.028133 0.095942
0.398611 0.009169 -0.099247
0.351273 -0.013705 -0.098713
0.417897 -0.062823 -0.077352
-0.437094 0.001622 -0.099660
-0.195148 -0.063416 -0.076892
0.317308 -0.085530 -0.051129
0.298745 -0.078236 0.062065
0.041577 0.055297 -0.083031
0.461180 -0.098290 -0.016724
0.187018 0.012663 0.099278
0.088401 0.076643 0.064351
0.223533 0.069012 -0.072118
0.213366 -0.086865 -0.048873
0.134793 -0.069001 0.072258
-0.135188 -0.000234 -0.099696
-0.188733 -0.020719 -0.097464
-0.288201 0.087812 -0.047622
-0.030440 -0.096457 0.025630
-0.263957 0.084679 0.053326
-0.223701 -0.001659 -0.099651
0.085766 0.020364 -0.097596
-0.408783 0.006557 0.099857
0.376311 -0.044588 -0.089093
0.070827 -0.032150 -0.094314
0.339833 -0.063096 0.077502
-0.188440 -0.027624 0.096090
0.155836 0.096219 0.027255
0.006341 0.099289 -0.011583
-0.329953 -0.067344 -0.073443
0.237456 -0.099720 0.001842
0.142610 0.003106 -0.099613
0.344884 -0.099132 0.011133
-0.275187 0.003327 0.099969
0.402921 0.098016 0.019882
0.112197 0.099970 -0.000945
-0.221882 -0.024694 -0.096576
0.218190 0.098921 -0.014214
-0.288229 -0.001728 0.100012
0.308861 -0.073102 -0.067740
0.412151 0.093786 0.034745
-0.311129 0.099852 0.005060
-0.122115 -0.029175 -0.095276
-0.370566 0.045197 0.089264
-0.158148 -0.097326 0.021923
0.146372 0.062600 0.078068
0.230632 -0.044568 0.089466
-0.465856 -0.098235 -0.017069
-0.318622 0.053741 0.084451
0.166879 -0.028133 0.095942
-0.362126 -0.096331 0.026066
-0.082411 0.048972 -0.086918
0.080386 -0.091166 -0.040268
-0.222727 -0.063118 -0.077123
0.191440 0.066757 -0.074167
-0.331770 0.059122 0.080767
-0.464160 -0.042893 0.090319
-0.203146 -0.004749 0.099917
-0.065310 0.095792 0.028722
-0.096105 -0.074767 -0.065851
0.343582 -0.025503 0.096706
0.169114 0.098436 -0.017273
0.002399 0.099848 -0.004819
-0.425970 -0.085227 0.052005
0.057773 0.044216 0.089764
0.162780 -0.097701 0.020247
-0.094769 -0.027225 0.096205
0.316256 0.092804 -0.037022
-0.444966 -0.055608 -0.082661
-0.211228 0.050281 0.086507
0.410584 -0.059651 0.080175
-0.284770 -0.039026 -0.091666
0.028197 0.083656 -0.054517
0.187219 -0.073741 -0.067016
-0.171036 -0.069080 0.072178
0.171541 -0.096544 -0.024968
0.028154 -0.096588 0.025179
0.075990 0.070234 0.071259
0.061238 0.058201 -0.081058
0.057104 -0.087516 -0.047745
-0.449420 -0.048897 -0.086824
0.463622 -0.011075 -0.099045
0.376128 0.098504 -0.016844
-0.290414 -0.088083 0.046995
0.465035 0.058864 0.080966
0.261777 -0.027481 -0.095768
-0.293391 0.002487 -0.099633
0.220172 -0.096982 -0.023102
