0.465339 0.043187 0.050464
0.465339 -0.021707 0.054080
0.465339 -0.046520 -0.018648
0.465339 0.000778 -0.041464
0.465339 0.034952 0.060775
0.465339 -0.038238 0.056680
0.465339 0.026070 -0.053517
0.465339 0.053014 -0.017686
0.465339 0.019250 0.096697
0.465339 -0.065932 -0.034629
0.465339 0.054041 0.009148
0.465339 -0.071121 -0.050168
0.465339 -0.071018 -0.022195
0.465339 -0.051538 0.026702
0.465339 0.029644 0.072966
0.465339 0.018364 0.050094
0.465339 0.060854 -0.074039
0.465339 -0.056385 -0.059930
0.465339 0.032628 0.040882
0.465339 -0.064156 -0.022444
0.465339 -0.012277 0.008723
0.465339 0.038463 -0.047466
0.465339 0.051213 -0.075222
0.465339 -0.008926 -0.033025
0.465339 0.035876 0.041320
0.465339 0.036992 -0.071311
0.465339 0.026405 -0.000383
0.465339 -0.068929 0.051421
0.465339 -0.088176 0.042340
0.465339 0.030666 0.054240
0.465339 0.017220 -0.071147
0.465339 -0.017533 -0.004266
0.465339 0.021269 0.057650
0.465339 -0.035046 -0.039234
0.465339 0.017468 0.058611
0.465339 -0.008675 0.053673
0.465339 -0.089567 0.022016
0.465339 -0.005626 0.066949
0.465339 0.087261 -0.041779
0.465339 0.038698 -0.021732
0.465339 -0.039704 -0.052563
0.465339 -0.068000 -0.002691
0.465339 0.066227 -0.031317
0.465339 0.012388 0.007670
0.465339 0.034982 0.048261
0.465339 -0.011089 -0.071394
0.465339 -0.012033 0.006976
0.465339 0.002175 0.025415
0.465339 -0.093454 0.007385
0.465339 0.020341 0.046082
0.465339 -0.044028 0.075950
0.465339 0.007389 -0.009250
0.465339 -0.055562 0.075488
0.465339 -0.027247 0.029952
0.465339 -0.045935 0.021342
0.465339 -0.052195 0.007523
0.465339 0.007890 0.093949
0.465339 -0.060076 0.006112
0.465339 0.010636 -0.077097
0.465339 -0.067612 -0.053840
0.465339 0.029765 -0.084748
0.465339 0.043638 0.080142
0.465339 0.003880 0.073637
0.465339 0.023272 0.053997
0.465339 0.014481 0.023232
0.465339 0.003952 -0.034800
0.465339 -0.073533 -0.025623
0.465339 -0.050654 -0.069178
0.465339 -0.018854 0.096461
0.465339 -0.014182 -0.058578
0.465339 0.076925 0.055391
0.465339 0.020240 0.034957
0.465339 0.054210 -0.081872
0.465339 -0.047908 0.048782
0.465339 -0.009240 0.048559
0.465339 0.042632 0.036194
0.465339 0.040756 0.005717
0.465339 0.007702 0.079957
0.465339 0.052467 -0.054093
0.465339 0.015097 -0.084534
0.465339 0.020122 -0.087481
0.465339 -0.016535 -0.057021
0.465339 -0.029907 0.038601
0.465339 0.037736 0.017427
0.465339 -0.036130 0.027038
0.465339 -0.027689 0.084343
0.465339 -0.008610 -0.040660
0.465339 0.082357 0.049971
0.465339 -0.005702 -0.076721
0.465339 -0.051190 0.077077
0.465339 -0.035103 -0.091401
0.465339 0.032848 -0.001357
0.465339 0.003651 -0.081386
0.465339 -0.084691 -0.014967
0.465339 0.023222 -0.018723
0.465339 -0.009212 -0.093834
0.465339 -0.068976 -0.000240
0.465339 0.059773 -0.032750
0.465339 0.051180 0.009619
0.465339 -0.040232 -0.088456
0.465339 0.017647 -0.054914
0.465339 0.059404 -0.073433
0.465339 -0.066474 0.006422
0.465339 -0.028022 0.059654
0.465339 -0.014862 0.058548
0.465339 -0.091166 0.039644
0.465339 0.008812 -0.082669
0.465339 -0.008791 0.035611
0.465339 -0.052186 -0.050648
0.465339 -0.009510 -0.070870
0.465339 -0.047636 0.005895
0.465339 0.006654 0.014767
0.465339 0.025724 0.033311
0.465339 0.097219 0.016159
0.465339 -0.010747 0.013321
0.465339 -0.049585 0.014700
0.465339 -0.045223 -0.057425
0.465339 0.080175 -0.010795
0.465339 -0.036919 -0.001615
0.465339 0.053999 0.074389
0.465339 -0.014779 0.024662
0.465339 0.024950 0.085849
0.465339 -0.061764 0.014895
0.465339 -0.063483 -0.035329
0.465339 -0.037784 -0.028792
0.465339 -0.053929 0.050627
0.465339 -0.049693 0.016376
0.465339 0.072965 -0.048329
0.465339 -0.082065 0.024879
0.465339 -0.029466 0.021147
0.465339 0.085302 -0.046106
0.465339 -0.003249 -0.012080
0.465339 -0.024685 -0.083219
0.465339 -0.035140 -0.065574
0.465339 -0.067828 0.038799
0.465339 0.091114 0.016275
0.465339 0.012714 -0.070793
0.465339 0.024217 0.080280
0.465339 -0.043731 -0.020565
0.465339 0.062453 0.019039
0.465339 0.001858 0.064778
0.465339 0.029421 0.078469
0.465339 0.088107 0.044088
0.465339 0.040078 -0.067160
0.465339 -0.091997 0.030510
0.465339 0.052195 -0.078328
0.465339 0.050658 -0.045566
0.465339 -0.042891 -0.055243
0.465339 -0.029260 0.091675
0.465339 -0.033203 0.086008
0.465339 0.054703 -0.010421
0.465339 -0.029472 -0.057936
0.465339 0.000156 0.050461
0.465339 0.007364 0.036357
0.465339 0.069864 0.033698
0.465339 -0.090652 0.031321
0.465339 0.083859 -0.007086
0.465339 0.056661 -0.069569
0.465339 0.008836 -0.017343
0.465339 0.066373 -0.011271
0.465339 0.022163 -0.048270
0.465339 0.002324 0.022525
0.465339 -0.014831 0.000794
0.465339 0.059369 -0.068618
0.465339 0.033284 0.029769
0.465339 -0.057968 0.016973
0.465339 0.014661 0.039661
0.465339 -0.008415 0.007933
0.465339 0.002184 -0.086320
0.465339 0.003609 -0.094170
0.465339 0.052282 0.079609
0.465339 -0.069514 -0.020634
0.465339 0.021598 0.035106
0.465339 -0.072403 0.040792
0.465339 -0.024298 0.007654
0.465339 0.042298 -0.049347
0.465339 0.039780 0.036546
0.465339 -0.015959 0.082188
0.465339 0.069596 0.065239
0.465339 0.014090 -0.069475
0.465339 -0.025729 0.035634
0.465339 0.040618 0.023352
0.465339 0.039349 0.006003
0.465339 -0.076545 -0.060631
0.465339 0.036080 0.056761
0.465339 -0.040899 0.089767
0.465339 -0.026610 0.023866
0.465339 -0.023112 -0.049128
0.465339 0.020071 0.014815
0.465339 0.005218 -0.091741
0.465339 -0.062278 -0.039588
0.465339 0.007731 -0.027222
0.465339 -0.031861 -0.039622
0.465339 0.075655 -0.061031
0.465339 0.087295 0.026173
0.465339 -0.051000 0.023206
0.465339 -0.020709 -0.073101
0.465339 0.050151 -0.048016
0.465339 -0.084445 -0.019828
0.465339 0.035226 0.010088
0.465339 0.066210 0.017315
0.465339 -0.019703 0.038475
0.465339 0.062247 -0.033130
0.465339 0.075434 0.024671
0.465339 0.093493 -0.007831
0.465339 -0.016392 -0.058594
0.465339 -0.037948 -0.066896
0.465339 0.025631 -0.084820
0.465339 0.058809 -0.031101
0.465339 0.032699 0.006304
0.465339 0.054533 -0.006497
0.465339 0.028888 0.069998
0.465339 0.058347 0.074072
0.465339 0.010430 -0.087651
0.465339 -0.008483 0.069173
0.465339 -0.054672 0.010369
0.465339 -0.058574 0.064888
0.465339 -0.068644 0.012570
0.465339 0.015184 0.083096
0.465339 -0.043166 -0.073777
0.465339 -0.042930 0.056076
0.465339 -0.038549 0.073958
0.465339 -0.003689 -0.038810
0.465339 -0.044492 0.011740
0.465339 -0.019637 -0.031630
0.465339 -0.077304 -0.043022
0.465339 0.053206 0.007709
0.465339 -0.020757 -0.026031
0.465339 0.010372 0.026376
0.465339 0.065142 0.074005
0.465339 0.018984 0.057951
0.465339 0.016022 0.061986
0.465339 -0.028475 -0.014126
0.465339 -0.033062 0.052609
0.465339 -0.035007 0.013912
0.465339 -0.040144 -0.042280
0.465339 0.041658 -0.062076
0.465339 -0.056050 0.026879
0.465339 -0.064303 0.040044
0.465339 -0.010906 0.070954
0.465339 0.062210 -0.064992
0.465339 -0.031590 -0.079391
0.465339 0.064827 -0.003041
0.465339 -0.056147 -0.051960
0.465339 -0.037727 0.023155
0.465339 -0.040263 -0.027234
0.465339 0.070899 -0.000445
0.465339 -0.016357 0.087686
0.465339 0.012647 0.003898
0.465339 -0.057182 -0.033908
0.465339 -0.059352 0.054638
0.465339 0.027449 0.031005
0.465339 0.029845 -0.092454
0.465339 0.041823 0.066567
0.465339 -0.001878 -0.088114
0.465339 -0.053955 0.053587
0.465339 0.038640 -0.077276
0.465339 -0.074543 -0.003179
0.465339 0.060027 0.067046
0.465339 0.007949 -0.045068
0.465339 -0.067569 0.034758
0.465339 -0.058211 0.066541
0.465339 0.057206 -0.050032
0.465339 0.029996 -0.094591
0.465339 -0.030181 0.073327
0.465339 0.025512 -0.043905
0.465339 -0.037167 0.007360
0.465339 0.062502 0.066513
0.465339 -0.041805 -0.028158
0.465339 0.087266 -0.024273
0.465339 -0.027598 -0.025222
0.465339 -0.038065 0.087862
0.465339 0.091688 -0.032268
0.465339 0.041257 -0.073474
0.465339 -0.050686 0.046953
0.465339 0.072392 -0.050659
0.465339 -0.087414 0.020893
0.465339 -0.035299 -0.049738
0.465339 -0.014115 -0.072412
0.465339 -0.009406 0.009231
0.465339 -0.030913 0.037565
0.465339 -0.003972 0.091921
0.465339 -0.067575 0.044440
0.465339 0.062992 -0.068691
0.465339 -0.085883 0.030466
0.465339 0.023731 0.048787
0.465339 0.031543 -0.058021
0.465339 -0.015858 -0.093892
0.465339 0.069722 0.000526
0.465339 -0.045218 0.016504
0.465339 -0.011930 -0.054960
0.465339 0.029610 -0.042601
0.465339 0.000647 -0.000906
0.465339 -0.053046 0.070348
0.465339 -0.051936 -0.008841
0.465339 0.016837 -0.044197
0.465339 0.036887 0.054584
0.465339 -0.053674 0.019897
0.465339 0.085680 -0.010453
0.465339 0.081002 0.055735
0.465339 -0.005524 0.091411
0.465339 0.097583 -0.001673
0.465339 0.045677 -0.040730
0.465339 0.014697 -0.028760
0.465339 0.070233 0.063897
0.465339 -0.034453 -0.032173
0.465339 0.076688 0.036246
0.465339 -0.018642 -0.033161
0.465339 -0.071211 -0.003816
0.465339 0.008842 0.064829
0.465339 -0.050360 -0.057983
0.465339 -0.074713 -0.040913
0.465339 0.062231 -0.042276
0.465339 0.092891 -0.017606
0.465339 0.049925 0.004458
0.465339 0.075429 0.046443
0.465339 -0.073478 -0.030917
0.465339 0.027943 -0.005246
0.465339 0.046715 0.039081
0.465339 -0.067106 0.066001
0.465339 -0.039083 0.081356
0.465339 -0.045944 0.045847
0.465339 -0.045234 0.057569
0.465339 0.081040 0.049012
0.465339 -0.069456 -0.045006
0.465339 0.032782 0.086888
0.465339 0.073856 0.057514
0.465339 0.036595 -0.027424
0.465339 -0.061379 -0.076462
0.465339 0.010126 -0.049350
0.465339 0.035517 -0.077670
0.465339 -0.028739 0.004901
0.465339 -0.089851 0.036321
0.465339 0.020641 -0.075987
0.465339 -0.086561 0.013251
0.465339 -0.023957 -0.006784
0.465339 -0.059410 -0.025781
0.465339 0.040810 -0.026748
0.465339 0.032713 0.001587
0.465339 -0.012366 -0.061310
0.465339 0.008895 -0.067882
0.465339 0.091200 -0.003161
0.465339 -0.064984 0.026293
0.465339 0.080585 -0.043439
0.465339 -0.066961 0.024658
0.465339 -0.074196 0.059615
0.465339 -0.095229 -0.003537
0.465339 0.013475 -0.055317
0.465339 0.003848 -0.033450
0.465339 -0.026940 -0.076426
0.465339 0.067563 -0.040061
0.465339 0.085276 -0.038246
0.465339 0.076496 0.029795
0.465339 -0.019689 -0.045635
0.465339 -0.041474 0.043263
0.465339 0.067999 0.010846
0.465339 -0.096359 -0.018875
0.465339 0.081507 0.044929
0.465339 0.040162 -0.002440
0.465339 0.023262 0.085088
0.465339 0.025619 0.060867
0.465339 -0.001830 0.031797
0.465339 -0.044946 0.042848
0.465339 -0.059467 -0.048403
0.465339 -0.027270 -0.040189
0.465339 -0.051688 -0.056792
0.465339 0.046498 -0.057364
0.465339 0.018560 -0.077835
0.465339 0.092516 0.032980
0.465339 0.045978 -0.033061
0.465339 0.008990 0.021999
0.465339 0.022204 -0.043271
0.465339 0.020335 0.024250
0.465339 -0.012722 -0.009579
0.465339 0.043736 -0.059864
0.465339 -0.035969 -0.078948
0.465339 -0.033327 0.004433
0.465339 0.018438 0.085873
0.465339 0.003255 -0.013690
0.465339 0.007657 -0.056813
0.465339 -0.006307 -0.008521
0.465339 0.068343 -0.050376
0.465339 0.053855 0.001504
0.465339 0.083020 0.052146
0.465339 -0.061107 0.062145
0.465339 -0.005838 0.057258
0.465339 0.060917 0.011087
0.465339 0.070361 -0.047081
0.465339 0.053331 -0.007222
0.465339 -0.036157 -0.053652
0.465339 0.082215 -0.002168
0.465339 0.002045 -0.005050
0.465339 0.062824 0.055598
0.465339 0.039764 0.085021
0.465339 0.035757 -0.030835
0.465339 0.080044 0.022593
0.465339 -0.028341 0.057728
0.465339 -0.015752 0.002031
0.465339 0.049155 -0.046205
0.465339 -0.085876 -0.012039
0.465339 -0.042227 -0.072483
0.465339 0.015364 -0.071711
0.465339 -0.021320 -0.013402
0.465339 0.036940 -0.032946
0.465339 0.049264 0.044838
0.465339 -0.071377 0.066572
0.465339 -0.007043 0.091033
0.465339 0.028917 -0.072749
0.465339 0.021700 -0.065738
0.465339 0.045466 0.072799
0.465339 -0.088813 -0.009851
0.465339 -0.009086 -0.000784
0.465339 -0.038081 -0.075074
0.465339 -0.005554 0.078011
0.465339 -0.012759 0.021385
0.465339 0.022492 0.039343
0.465339 -0.043723 0.073074
0.465339 -0.069279 0.030947
0.465339 -0.039468 -0.006213
0.465339 0.018855 0.093803
0.465339 -0.054686 0.015180
0.465339 -0.028762 0.070691
0.465339 -0.008760 0.062457
0.465339 -0.081052 0.054687
0.465339 0.032173 -0.011222
0.465339 -0.072348 0.050638
0.465339 -0.083942 -0.040546
0.465339 0.031128 0.045216
0.465339 -0.026213 0.066595
0.465339 -0.097702 -0.018517
0.465339 0.035690 0.062071
0.465339 -0.080684 0.042035
0.465339 0.015162 -0.064973
0.465339 -0.021117 -0.060737
0.465339 0.081601 -0.039403
0.465339 0.045890 0.025844
0.465339 -0.055956 0.066496
0.465339 0.000137 0.090516
0.465339 -0.026043 0.082585
0.465339 0.053081 0.022812
0.465339 -0.046740 -0.067828
0.465339 -0.092781 0.035732
0.465339 0.079122 -0.046548
0.465339 0.053061 -0.067902
0.465339 0.037003 -0.088672
0.465339 -0.052946 0.018371
0.465339 0.082696 -0.029171
0.465339 0.000374 -0.060620
0.465339 -0.009290 0.094881
0.465339 0.010074 0.068317
0.465339 0.007517 -0.085791
0.465339 -0.001037 -0.094949
0.465339 0.028335 0.002144
0.465339 -0.007746 0.028200
0.465339 0.081418 -0.023090
0.465339 0.084524 -0.004712
0.465339 -0.009857 0.022335
0.465339 0.081525 0.036229
0.465339 0.006965 -0.055080
0.465339 -0.010188 -0.028331
0.465339 0.043783 0.065371
0.465339 -0.065576 0.031748
0.465339 -0.015350 -0.046755
0.465339 -0.011127 0.052287
0.465339 -0.027051 -0.083853
0.465339 -0.003673 -0.002878
0.465339 -0.022280 -0.096304
0.465339 -0.006136 0.087457
0.465339 0.067769 0.046664
0.465339 -0.053069 -0.038405
0.465339 -0.029597 -0.047446
0.465339 -0.034263 0.068051
0.465339 -0.029404 0.048240
0.465339 -0.045094 -0.023394
0.465339 0.081106 -0.056354
0.465339 0.022191 0.017664
0.465339 0.016088 -0.090972
0.465339 0.055886 0.020957
0.465339 0.033527 -0.056300
0.465339 0.041479 0.040272
0.465339 -0.047295 0.020421
0.465339 0.024965 0.023290
0.465339 -0.033335 -0.017043
0.465339 -0.081660 0.038084
0.465339 0.003507 0.013521
0.465339 0.010537 -0.080667
0.465339 0.029467 -0.037560
0.465339 0.092700 -0.027809
0.465339 0.039007 0.044802
0.465339 -0.025112 0.058917
0.465339 -0.065200 -0.044891
0.465339 -0.044371 -0.011334
0.465339 -0.043398 -0.078456
0.465339 0.053339 -0.064015
0.465339 -0.072855 -0.040475
0.465339 0.072602 0.012435
0.465339 -0.048222 0.027935
0.465339 -0.040305 0.013492
0.465339 -0.032632 -0.048463
0.465339 -0.050441 -0.021893
0.465339 -0.028078 0.051693
0.465339 -0.016207 0.033695
0.465339 0.068722 0.038465
0.465339 -0.006085 -0.017908
0.465339 -0.033109 -0.083312
0.465339 -0.010231 0.002745
0.465339 0.029802 -0.051125
0.465339 -0.026436 0.059438
0.465339 0.010323 0.093543
0.465339 -0.063396 -0.072969
0.465339 -0.028096 0.094422
0.465339 -0.001265 0.071413
0.465339 -0.095525 -0.012216
0.465339 -0.011150 0.010464
0.465339 0.048849 -0.044253
0.465339 -0.053159 0.031428
0.465339 0.069166 -0.035338
0.465339 0.002891 0.072745
0.465339 -0.015522 -0.035009
0.465339 0.008688 -0.055225
0.465339 -0.052845 -0.064082
0.465339 0.013160 0.060339
0.465339 0.064694 -0.036206
0.465339 0.036134 -0.049200
0.465339 -0.042103 0.070043
0.465339 -0.057422 -0.014862
0.465339 -0.008372 -0.019691
0.465339 0.036959 0.010984
0.465339 0.034099 0.001455
0.465339 0.007699 0.030349
0.465339 0.014992 0.078868
0.465339 -0.088164 0.046033
0.465339 -0.081963 -0.001052
0.465339 -0.094297 0.026267
0.465339 0.022299 -0.069167
0.465339 0.057083 -0.032892
0.465339 -0.055091 0.049007
0.465339 -0.087025 0.007152
0.465339 0.048097 -0.051296
0.465339 0.026785 0.087571
0.465339 0.070496 -0.067109
0.465339 -0.018822 -0.050059
0.465339 0.020733 -0.092660
0.465339 -0.021171 0.036712
0.465339 0.066569 -0.073766
0.465339 0.032100 0.016767
0.465339 -0.065236 -0.019986
0.465339 0.090399 -0.030999
0.465339 0.075668 0.022639
0.465339 0.021969 0.059224
0.465339 -0.090488 0.032922
0.465339 -0.031919 -0.033131
0.465339 0.028699 -0.093768
0.465339 -0.076786 -0.026366
0.465339 0.048627 -0.011911
0.465339 0.014044 -0.045721
0.465339 -0.026860 -0.013697
0.465339 -0.024575 -0.068999
0.465339 0.011445 -0.039699
0.465339 -0.061235 0.001420
0.465339 0.002689 -0.045484
0.465339 0.033735 -0.036322
0.465339 0.015941 -0.017113
0.465339 0.017118 -0.019490
0.465339 -0.005176 -0.004218
0.465339 -0.008333 0.005041
0.465339 -0.076242 0.028535
0.465339 0.046724 0.062676
0.465339 0.028549 -0.083695
0.465339 -0.072875 -0.058663
0.465339 0.000115 0.077591
0.465339 0.000752 0.018893
0.465339 -0.025036 -0.066284
0.465339 -0.094988 -0.008890
0.465339 0.043146 -0.058353
0.465339 0.009018 -0.081061
0.465339 0.006268 -0.053308
0.465339 -0.004099 0.074631
0.465339 0.021536 0.097594
0.465339 0.080125 0.018269
0.465339 -0.026463 0.081170
0.465339 -0.068153 0.023555
0.465339 0.076961 -0.054706
0.465339 0.075526 -0.044621
0.465339 0.095654 -0.011419
0.465339 0.012291 -0.065810
0.465339 0.059155 -0.041523
0.465339 0.080280 -0.021948
0.465339 0.079304 0.042511
0.465339 -0.023265 0.064963
0.465339 -0.029986 0.019810
0.465339 0.018703 -0.003583
0.465339 0.079392 0.030281
0.465339 0.031078 -0.008964
0.465339 0.011285 0.000018
0.465339 -0.053046 -0.018249
0.465339 0.084101 -0.013344
0.465339 0.011481 -0.061045
0.465339 0.063318 -0.034036
0.465339 0.066842 -0.033847
0.465339 0.012350 0.031002
0.465339 -0.001872 0.042543
0.465339 -0.007316 0.023880
0.465339 0.097817 -0.019057
0.465339 0.022615 0.067769
0.465339 0.013529 -0.047469
0.465339 0.057005 0.058339
0.465339 0.051669 -0.049929
0.465339 -0.085208 -0.018036
0.465339 0.050297 0.001607
0.465339 0.022258 -0.091116
0.465339 0.060733 -0.079114
0.465339 0.054091 -0.008711
0.465339 -0.070852 -0.010169
0.465339 -0.087755 0.026884
0.465339 0.083046 -0.024209
0.465339 -0.009230 -0.062899
0.465339 -0.051706 0.060191
0.465339 0.056359 0.064577
0.465339 0.063466 -0.035606
0.465339 0.015099 0.080291
0.465339 0.013343 0.064779
0.465339 -0.022654 0.081322
0.465339 0.028502 0.045688
0.465339 -0.029487 0.000898
0.465339 0.099308 0.010808
0.465339 0.047165 -0.024951
0.465339 0.013328 -0.027994
0.465339 -0.052791 0.058517
0.465339 -0.071066 0.013519
0.465339 0.097727 0.018735
0.465339 -0.069377 0.040908
0.465339 -0.081581 0.004295
0.465339 0.001813 -0.075586
0.465339 0.003350 0.094005
0.465339 0.043014 -0.038137
0.465339 -0.037366 -0.041724
0.465339 -0.017551 0.001093
0.465339 0.074792 0.050575
0.465339 -0.020997 0.089520
0.465339 -0.018134 0.065768
0.465339 -0.041223 -0.066430
0.465339 0.005892 0.004680
0.465339 0.019402 0.074320
0.465339 0.069507 0.009132
0.465339 -0.023610 0.090528
0.465339 0.035595 0.050654
0.465339 -0.045460 -0.041173
0.465339 0.046974 -0.082498
0.465339 0.050743 0.082719
0.465339 0.053653 -0.032921
0.465339 -0.063760 0.076549
0.465339 -0.036246 -0.074698
0.465339 0.009911 0.085058
0.465339 0.023760 0.033948
0.465339 0.017829 -0.000539
0.465339 -0.020480 0.052063
0.465339 -0.088465 0.006394
0.465339 0.063911 0.014932
0.465339 0.072364 -0.000759
0.465339 -0.005201 0.081250
0.465339 0.015629 0.092484
0.465339 -0.055163 0.000045
0.465339 0.039893 0.002779
0.465339 -0.039687 -0.004356
0.465339 0.052943 -0.026774
0.465339 -0.015342 0.043894
0.465339 -0.048352 -0.038898
0.465339 -0.004044 0.043120
0.465339 -0.022877 0.003021
0.465339 -0.081169 -0.036903
0.465339 -0.028644 -0.084624
0.465339 0.046961 0.064795
0.465339 -0.082392 0.054009
0.465339 0.066817 -0.060527
0.465339 0.015696 -0.027178
0.465339 -0.097891 0.012306
0.465339 -0.076557 -0.023107
0.465339 0.017337 0.045590
0.465339 0.008199 0.085125
0.465339 0.066471 -0.043575
0.465339 -0.065567 0.058496
0.465339 -0.092482 -0.007402
0.465339 0.069102 -0.041690
0.465339 0.019741 0.086268
0.465339 -0.007293 -0.053090
0.465339 0.003412 -0.022345
0.465339 -0.013575 -0.004979
0.465339 0.080534 -0.008474
0.465339 -0.023826 -0.056393
0.465339 0.072353 -0.031178
0.465339 0.007534 -0.062123
0.465339 0.030867 -0.014728
0.465339 0.059217 -0.060005
0.465339 -0.011855 -0.011258
0.465339 0.033329 0.050639
0.465339 0.050885 0.031211
0.465339 -0.038824 0.045926
0.465339 0.047440 -0.039803
0.465339 0.073277 0.054232
0.465339 -0.068245 0.053566
0.465339 -0.025350 0.004961
0.465339 0.073534 -0.001684
0.465339 -0.019786 0.019623
0.465339 0.034294 0.037046
0.465339 -0.059233 -0.030435
0.465339 -0.077485 0.018093
0.465339 0.058177 0.026288
0.465339 0.091005 -0.025019
0.465339 0.007036 0.025066
0.465339 -0.046496 0.072884
0.465339 -0.044184 0.065850
0.465339 0.011759 -0.079279
0.465339 0.043350 0.076785
0.465339 -0.009014 -0.075618
0.465339 0.028081 -0.013843
0.465339 0.091009 0.006468
0.465339 0.092661 0.010953
0.465339 0.063156 -0.001832
0.465339 0.035451 0.080026
0.465339 0.006497 0.041613
0.465339 0.078396 -0.040449
0.465339 0.017797 -0.075367
0.465339 -0.006674 0.027049
0.465339 -0.038312 0.029688
0.465339 -0.002088 -0.045120
0.465339 0.062342 0.036132
0.465339 0.025128 -0.064779
0.465339 -0.058784 0.048040
0.465339 0.008009 0.075004
0.465339 -0.014954 -0.067221
0.465339 0.030968 -0.017825
0.465339 0.003247 0.091945
0.465339 -0.022317 0.037987
0.465339 -0.012161 -0.085217
0.465339 -0.035100 -0.037639
0.465339 0.039868 -0.085052
0.465339 0.018217 -0.009743
0.465339 -0.063095 0.064246
0.465339 -0.014066 0.063948
0.465339 -0.023018 0.027415
0.465339 0.007294 0.063884
0.465339 -0.024350 0.021556
0.465339 -0.039561 0.091670
0.465339 0.057721 0.039839
0.465339 -0.092503 -0.005680
0.465339 -0.029211 -0.042193
0.465339 0.058746 0.005291
0.465339 0.077546 0.015819
0.465339 -0.012666 -0.014779
0.465339 -0.044104 -0.046826
0.465339 -0.051493 0.072941
0.465339 -0.036623 0.051437
0.465339 0.023632 -0.029109
0.465339 0.089837 -0.011440
0.465339 0.054552 0.048839
0.465339 0.012414 0.010948
0.465339 0.059137 0.027415
0.465339 0.055845 -0.033479
0.465339 0.047051 -0.065426
0.465339 0.011468 0.088822
0.465339 0.031875 -0.060439
0.465339 0.067371 -0.027445
0.465339 -0.030662 0.083703
0.465339 0.046873 0.074174
0.465339 0.033478 0.047326
0.465339 0.051790 0.048644
0.465339 -0.070458 -0.051549
0.465339 -0.080594 -0.048349
0.465339 -0.042858 -0.082437
0.465339 0.065233 -0.063105
0.465339 0.015940 0.013131
0.465339 0.095965 0.007910
0.465339 0.030277 0.071705
0.465339 0.032321 -0.005390
0.465339 0.001227 0.013956
0.465339 0.061712 -0.049740
0.465339 -0.066027 -0.053169
0.465339 -0.021295 0.020752
0.465339 0.072583 0.030211
0.465339 0.069903 0.023737
0.465339 -0.060318 -0.001631
0.465339 0.004277 0.087129
0.465339 0.052710 -0.010295
0.465339 -0.085968 -0.007503
0.465339 0.022184 0.040798
0.465339 0.005989 -0.003041
0.465339 0.059932 0.022467
0.465339 0.030045 0.048352
0.465339 -0.011477 0.093307
0.465339 0.042433 0.071915
0.465339 -0.048677 0.011463
0.465339 0.051299 -0.039668
0.465339 0.049833 -0.008190
0.465339 0.074180 -0.045877
0.465339 -0.037953 -0.064892
0.465339 0.027776 -0.024649
0.465339 0.029244 0.035310
0.465339 0.041879 -0.025158
0.465339 0.097564 -0.011618
0.465339 -0.014608 0.065392
0.465339 0.005913 -0.015498
0.465339 -0.009943 -0.049418
0.465339 -0.002468 0.028781
0.465339 0.031678 -0.092038
0.465339 -0.051872 -0.060603
0.465339 0.027297 -0.077405
0.465339 -0.057655 0.062107
0.465339 0.028391 -0.015953
0.465339 0.034321 0.012847
0.465339 0.019090 -0.021317
0.465339 -0.096060 0.021302
0.465339 0.017941 -0.060860
0.465339 0.017594 0.057258
0.465339 0.082663 0.034035
0.465339 -0.004184 0.084066
0.465339 -0.057593 0.058604
0.465339 -0.055981 -0.012595
0.465339 -0.044487 -0.026709
0.465339 -0.065196 0.047874
0.465339 0.014595 -0.077691
0.465339 0.066012 -0.051232
0.465339 0.050295 -0.011468
0.465339 0.014264 0.010675
0.465339 0.073105 0.034751
0.465339 -0.052873 0.072080
0.465339 -0.007496 0.006702
0.465339 0.044286 -0.005839
0.465339 -0.007184 0.057662
0.465339 0.002255 -0.080433
0.465339 0.028360 0.023297
0.465339 -0.065564 0.067837
0.465339 0.008203 -0.047696
0.465339 0.084805 -0.025642
0.465339 -0.002823 -0.097453
0.465339 -0.003833 -0.064435
0.465339 0.034225 -0.019104
0.465339 0.000562 0.072262
0.465339 -0.062129 -0.033865
0.465339 -0.046427 0.030748
0.465339 0.064423 0.005172
0.465339 -0.045873 -0.046043
0.465339 0.020074 0.004237
0.465339 0.049006 0.021835
0.465339 0.039779 0.086962
0.465339 -0.046867 0.075132
0.465339 -0.014273 -0.084544
0.465339 -0.027605 0.008505
0.465339 0.057568 0.033187
0.465339 -0.075340 -0.014517
0.465339 -0.079112 0.022268
0.465339 0.065672 -0.017222
0.465339 0.060137 -0.003844
0.465339 0.051680 -0.079699
0.465339 -0.069311 -0.048221
0.465339 0.022330 0.049692
0.465339 0.054079 -0.023880
0.465339 0.059526 -0.062134
0.465339 -0.011347 -0.052551
0.465339 0.060215 0.017142
0.465339 0.021765 -0.003770
0.465339 -0.090804 0.034700
0.465339 -0.049652 0.049584
0.465339 -0.030810 -0.018686
0.465339 0.070129 -0.029715
0.465339 0.041169 -0.028414
0.465339 -0.075724 0.011232
0.465339 0.006321 -0.074921
0.465339 0.034747 0.015798
0.465339 -0.016756 0.010174
0.465339 -0.064196 0.046434
0.465339 0.092803 0.006048
0.465339 -0.008209 0.092345
0.465339 -0.032874 -0.052864
0.465339 0.005923 0.012586
0.465339 0.057892 -0.007081
0.465339 0.027783 -0.034717
0.465339 0.077228 0.028546
0.465339 0.019473 0.044309
0.465339 0.010121 -0.094338
0.465339 -0.023840 0.061149
0.465339 -0.090942 -0.010161
0.465339 0.080502 0.016685
0.465339 0.009659 -0.075893
0.465339 0.038294 0.024788
0.465339 -0.049648 -0.063963
0.465339 0.079869 0.003993
0.465339 -0.085491 0.001426
0.465339 0.084918 -0.020858
0.465339 -0.087299 -0.004564
0.465339 0.095796 -0.026011
0.465339 -0.007592 0.036696
0.465339 -0.068244 -0.067226
0.465339 -0.016684 -0.015711
0.465339 -0.020315 -0.091763
0.465339 -0.012773 -0.020876
0.465339 0.000273 -0.068640
0.465339 -0.069923 -0.026115
0.465339 -0.059822 0.019791
0.465339 -0.077363 0.050703
0.465339 0.025744 -0.030129
0.465339 -0.050731 -0.018552
0.465339 0.005939 0.077609
0.465339 -0.016964 -0.047245
0.465339 0.010919 -0.009685
0.465339 -0.092209 -0.023997
0.465339 0.017965 0.053369
0.465339 -0.052975 -0.057386
0.465339 0.076372 -0.010162
0.465339 0.010641 -0.065804
0.465339 0.014812 -0.043347
0.465339 0.001243 -0.078256
0.465339 -0.065428 0.060921
0.465339 -0.021701 0.051148
0.465339 -0.057152 0.073867
0.465339 -0.031405 -0.037978
0.465339 -0.046770 -0.045001
0.465339 -0.084474 -0.030067
0.465339 0.008438 0.035106
0.465339 0.020353 -0.072852
0.465339 -0.039568 -0.076183
0.465339 -0.034916 -0.082128
0.465339 -0.078138 -0.010758
0.465339 0.014849 0.002017
0.465339 0.024410 0.004641
0.465339 -0.083906 0.047235
0.465339 -0.022363 0.093764
0.465339 0.010140 0.058402
0.465339 -0.044227 -0.087855
0.465339 -0.004305 0.041423
0.465339 -0.098659 0.001824
0.465339 -0.083543 -0.053099
0.465339 0.000298 -0.064964
0.465339 -0.012516 0.015227
0.465339 0.030449 -0.079740
0.465339 0.080606 -0.004572
0.465339 0.063250 -0.025303
0.465339 0.079126 0.007721
0.465339 -0.072564 -0.029375
0.465339 -0.049190 -0.006930
0.465339 0.077743 -0.033978
0.465339 -0.079635 -0.054654
0.465339 0.025940 0.046633
0.465339 -0.048609 -0.013452
0.465339 -0.013677 0.030952
0.465339 0.014536 0.006304
0.465339 0.055154 -0.079556
0.465339 -0.070386 -0.017382
0.465339 0.051882 -0.036081
0.465339 -0.002679 -0.070638
0.465339 -0.010112 0.044043
0.465339 0.024143 0.094554
0.465339 -0.087176 -0.021949
0.465339 0.059792 -0.054602
0.465339 -0.090202 0.042426
0.465339 0.095345 0.006313
0.465339 -0.004138 0.039889
0.465339 -0.077691 0.028313
0.465339 0.008924 -0.077955
0.465339 0.001155 -0.055046
0.465339 0.074524 0.019257
0.465339 -0.096524 0.001264
0.465339 0.017875 -0.028152
0.465339 0.050107 -0.022100
0.465339 -0.003930 0.020200
0.465339 0.052873 -0.057932
0.465339 0.007925 0.089726
0.465339 -0.068277 -0.052360
0.465339 -0.021224 -0.039439
0.465339 -0.017037 -0.091233
0.465339 0.030350 -0.055667
0.465339 0.088621 -0.035185
0.465339 -0.080193 0.029688
0.465339 0.058644 0.011534
0.465339 0.022669 0.010351
0.465339 -0.003298 0.099590
0.465339 0.000812 -0.019645
0.465339 0.047009 -0.063402
0.465339 -0.069583 0.014824
0.465339 -0.031392 0.029005
0.465339 -0.032857 -0.086819
0.465339 -0.041861 -0.085054
0.465339 -0.035292 0.081491
0.465339 0.045120 0.046822
0.465339 0.032425 0.052548
0.465339 -0.049362 -0.078481
0.465339 0.041073 0.013878
0.465339 0.088964 -0.030342
0.465339 0.000818 0.035579
0.465339 -0.058809 0.022840
0.465339 0.014247 0.007821
0.465339 -0.087740 -0.006718
0.465339 -0.026223 -0.041055
0.465339 0.049665 0.047473
0.465339 -0.046171 0.038416
0.465339 -0.093147 0.028070
0.465339 0.022792 -0.060439
0.465339 0.042282 0.057985
0.465339 0.075168 -0.001067
0.465339 -0.063811 0.001378
0.465339 -0.058789 0.006710
0.465339 -0.037339 -0.055361
0.465339 0.053192 0.033265
0.465339 -0.011674 0.067828
0.465339 0.085996 0.040665
0.465339 -0.010738 -0.091567
0.465339 -0.019193 0.033438
0.465339 -0.035920 -0.033707
0.465339 0.022724 -0.013761
0.465339 -0.057041 -0.023717
0.465339 0.022657 -0.026953
0.465339 -0.011771 -0.083783
0.465339 0.015599 0.098635
0.465339 -0.073305 0.066725
0.465339 -0.037999 0.040527
0.465339 0.031583 -0.033073
0.465339 -0.074361 0.018226
0.465339 0.001349 0.078166
0.465339 0.042697 -0.015224
0.465339 0.039282 -0.072653
0.465339 0.021348 0.095596
0.465339 0.020592 -0.095128
0.465339 -0.083297 0.020453
0.465339 0.051570 0.051210
0.465339 0.022982 -0.010001
0.465339 0.064511 0.003708
0.465339 -0.009520 0.027265
0.465339 0.070976 0.019889
0.465339 0.018095 -0.091510
0.465339 0.098615 -0.003324
0.465339 -0.007456 -0.072030
0.465339 -0.092815 0.009285
0.465339 -0.021304 0.080125
0.465339 0.004522 0.053365
0.465339 0.094080 -0.004028
0.465339 0.045631 0.065407
0.465339 0.011161 -0.006805
0.465339 0.024358 0.032211
0.465339 0.020224 0.037187
0.465339 -0.036641 0.003157
0.465339 -0.035264 -0.027702
0.465339 0.020966 -0.035630
0.465339 -0.027150 -0.094254
0.465339 0.077772 -0.049209
0.465339 0.082168 -0.046344
0.465339 0.001788 0.017545
0.465339 -0.049269 0.006105
0.465339 -0.052698 -0.073663
0.465339 -0.034703 0.072661
0.465339 0.029799 -0.019184
0.465339 -0.009945 0.030453
0.465339 0.087019 0.013048
0.465339 0.058350 0.036735
0.465339 -0.083273 0.022135
0.465339 -0.029361 -0.051452
0.465339 -0.017047 -0.085412
0.465339 -0.002610 -0.025932
0.465339 0.067529 -0.022966
0.465339 -0.062375 -0.005541
0.465339 0.011937 -0.044100
0.465339 -0.081723 -0.019047
0.465339 0.052156 -0.004460
0.465339 0.036919 0.025792
0.465339 -0.072878 -0.017613
0.465339 -0.046075 -0.079151
0.465339 0.071520 0.031207
0.465339 0.071570 0.034371
0.465339 0.075724 0.028238
0.465339 0.096366 0.017900
0.465339 0.007025 0.061908
0.465339 -0.063199 -0.000238
0.465339 0.027293 -0.046920
0.465339 -0.067744 -0.037894
0.465339 -0.093144 -0.026211
0.465339 0.001535 -0.052753
0.465339 -0.073051 -0.020764
0.465339 0.017802 -0.020695
0.465339 -0.075760 0.064598
0.465339 0.077856 0.001423
0.465339 -0.079572 0.034359
0.465339 0.034307 -0.008093
0.465339 0.014976 -0.062469
0.465339 -0.020337 -0.064067
0.465339 0.062618 -0.038786
0.465339 -0.017674 0.085043
0.465339 0.050067 -0.076020
0.465339 -0.084339 -0.006313
0.465339 0.007674 -0.052408
0.465339 -0.027946 0.082378
0.465339 -0.082360 -0.023174
0.465339 0.056015 0.050204
0.465339 -0.088073 -0.008335
0.465339 0.062239 -0.070335
0.465339 0.031120 0.066192
0.465339 0.069283 0.048917
0.465339 -0.035345 0.047756
0.465339 -0.040303 -0.084521
0.465339 0.050408 -0.001136
0.465339 -0.002098 0.068655
0.465339 -0.021050 0.039098
0.465339 0.033481 -0.059836
0.465339 0.035367 -0.035645
0.465339 0.011930 0.025849
0.465339 -0.021545 0.078567
0.465339 -0.065995 -0.007912
0.465339 0.007333 -0.016588
0.465339 -0.059729 0.056259
0.465339 0.012196 0.040722
0.465339 -0.037974 -0.015472
0.465339 0.047113 0.030841
0.465339 -0.010630 0.024862
0.465339 -0.041370 0.024911
0.465339 -0.076628 -0.033243
0.465339 0.093535 0.028078
0.465339 -0.071308 0.064751
0.465339 0.063064 -0.047297
0.465339 -0.055045 0.072313
0.465339 -0.079426 0.010569
0.465339 -0.007508 -0.056185
0.465339 0.032406 0.054237
0.465339 -0.011527 0.057630
0.465339 0.041101 -0.059952
0.465339 -0.013361 0.019798
0.465339 0.028107 -0.036265
0.465339 0.027307 -0.092593
0.465339 0.024349 -0.048441
0.465339 -0.030688 -0.045997
0.465339 0.039846 0.007596
0.465339 0.001297 0.075992
0.465339 -0.037210 -0.011732
0.465339 -0.075779 0.062321
0.465339 -0.049023 -0.004225
0.465339 0.025728 -0.095350
0.465339 0.010792 -0.003825
0.465339 -0.013763 -0.025033
0.465339 0.096977 -0.023809
0.465339 -0.050832 0.020369
0.465339 -0.083283 -0.044693
0.465339 0.024198 -0.021922
0.465339 -0.028478 -0.039068
0.465339 0.068491 0.053672
0.465339 -0.003953 -0.078373
0.465339 -0.033211 0.030043
0.465339 -0.012966 0.062564
0.465339 0.009326 0.094763
0.465339 -0.014500 0.042596
0.465339 -0.057461 -0.018235
0.465339 -0.040762 -0.039066
0.465339 0.000213 -0.024894
0.465339 0.025086 0.040369
0.465339 -0.048561 0.086118
0.465339 -0.041569 0.012496
0.465339 -0.062852 0.040152
0.465339 -0.058758 -0.015649
0.465339 -0.004976 0.033787
0.465339 0.000922 -0.027856
0.465339 0.040881 -0.052530
0.465339 -0.042294 -0.019858
0.465339 -0.004616 0.023893
0.465339 -0.005673 -0.096220
0.465339 0.063601 -0.062534
0.465339 -0.025100 -0.073981
0.465339 -0.030718 0.057078
0.465339 0.058873 -0.075004
0.465339 0.059705 -0.066020
0.465339 -0.034064 0.044052
0.465339 -0.000214 0.084282
0.465339 -0.082750 0.035465
0.465339 0.016303 0.050916
0.465339 0.019677 0.051178
0.465339 0.075165 0.048954
0.465339 -0.022814 -0.064231
0.465339 -0.094933 -0.001554
0.465339 -0.008828 0.086493
0.465339 -0.082564 -0.008179
0.465339 0.083323 -0.040586
0.465339 0.074987 0.014392
0.465339 -0.017996 0.049805
0.465339 0.031956 -0.087234
0.465339 -0.003249 0.013209
0.465339 -0.006236 -0.069603
0.465339 -0.011656 -0.069931
0.465339 -0.029208 0.050782
0.465339 0.069139 -0.031107
0.465339 0.004828 0.094396
0.465339 0.042798 -0.040008
0.465339 -0.012828 0.052800
0.465339 -0.042018 -0.076218
0.465339 -0.037588 -0.013891
0.465339 -0.064701 -0.007012
0.465339 -0.061312 0.070726
0.465339 0.005157 0.091039
0.465339 0.007814 0.028702
0.465339 -0.055269 0.016444
0.465339 -0.082053 -0.045794
0.465339 0.038697 -0.038817
0.465339 0.017584 -0.095398
0.465339 0.016655 0.024825
0.465339 -0.050713 0.058493
0.465339 -0.012179 -0.046000
0.465339 -0.010755 0.073888
0.465339 0.016955 -0.010483
0.465339 0.020205 0.094616
0.465339 0.037018 -0.031467
0.465339 0.081698 -0.044596
0.465339 0.065940 -0.023615
0.465339 -0.043856 -0.076914
0.465339 0.078775 0.047634
0.465339 0.072049 0.057370
0.465339 -0.083736 -0.001251
0.465339 0.080784 0.029786
0.465339 -0.028849 -0.075583
0.465339 -0.045119 -0.044001
0.465339 -0.019605 0.062451
0.465339 -0.032517 0.050002
0.465339 -0.014428 -0.010060
0.465339 0.014560 -0.060758
0.465339 -0.010205 0.069055
0.465339 -0.031488 -0.034714
0.465339 -0.023021 0.082903
0.465339 -0.070981 0.032000
0.465339 0.094324 0.026533
0.465339 0.064516 0.002155
0.465339 0.011802 0.005563
0.465339 -0.095522 -0.027584
0.465339 0.081863 -0.041088
0.465339 0.002539 -0.010295
0.465339 -0.055782 0.053655
0.465339 0.089719 -0.040862
0.465339 0.026920 0.081714
0.465339 -0.053248 0.028930
0.465339 -0.049657 0.066824
0.465339 0.010156 0.020259
0.465339 0.005638 -0.061604
0.465339 -0.082747 0.006331
0.465339 0.078176 0.052437
0.465339 0.072746 -0.064867
0.465339 -0.045691 0.084457
0.465339 -0.045315 0.041019
0.465339 0.067654 -0.056427
0.465339 0.059821 0.042367
0.465339 -0.005511 -0.061455
0.465339 -0.022475 0.025996
0.465339 -0.039558 -0.066491
0.465339 -0.012497 0.072497
0.465339 0.058437 -0.021172
0.465339 -0.042577 -0.030767
0.465339 -0.080552 -0.003672
0.465339 -0.049592 0.052243
0.465339 0.017360 0.068749
0.465339 0.082305 0.000613
0.465339 -0.071883 0.020716
0.465339 0.053874 0.063682
0.465339 0.008318 0.097434
0.465339 0.032081 -0.050220
0.465339 0.025962 0.001735
0.465339 -0.017539 0.008327
0.465339 -0.067285 0.040537
0.465339 -0.040402 0.080664
0.465339 -0.094497 0.031563
0.465339 0.034840 0.034971
0.465339 0.073129 -0.033753
0.465339 -0.067122 -0.035771
0.465339 -0.047406 -0.046406
0.465339 0.002006 0.024086
0.465339 -0.020709 0.045178
0.465339 0.040248 0.021431
0.465339 -0.034470 -0.005787
0.465339 -0.027643 0.047522
0.465339 -0.001286 -0.020646
0.465339 -0.017458 0.026358
0.465339 -0.031034 -0.054585
0.465339 -0.013895 -0.080930
0.465339 0.016467 0.054653
0.465339 -0.042046 -0.039813
0.465339 -0.007263 -0.067145
0.465339 -0.027157 -0.016215
0.465339 0.076725 0.031222
0.465339 0.026606 -0.075371
0.465339 0.054345 -0.062003
0.465339 -0.024748 0.078126
0.465339 0.053799 -0.049632
0.465339 -0.060324 0.027911
0.465339 -0.018370 0.011392
0.465339 0.041235 0.027044
0.465339 0.030229 0.006332
0.465339 -0.003524 0.022328
0.465339 -0.064382 0.051756
0.465339 -0.037923 -0.060414
0.465339 -0.010753 -0.046677
0.465339 0.047086 -0.044180
0.465339 -0.005977 -0.082464
0.465339 0.081673 0.052831
0.465339 0.080047 -0.000036
0.465339 0.056643 -0.035325
0.465339 0.007887 0.023520
0.465339 -0.014010 0.084064
0.465339 -0.024758 -0.087860
0.465339 -0.032068 -0.077929
0.465339 0.091375 0.038485
0.465339 -0.006398 -0.058474
0.465339 -0.003915 0.080623
0.465339 0.022095 0.088414
0.465339 0.070499 -0.055809
0.465339 0.072747 -0.017473
0.465339 -0.007208 0.062537
0.465339 0.038638 -0.089576
0.465339 0.020714 0.040266
0.465339 0.020724 -0.096696
0.465339 -0.045817 0.086383
0.465339 -0.043930 -0.030112
0.465339 -0.047856 0.084527
0.465339 -0.027341 -0.090181
0.465339 -0.016798 0.016341
0.465339 -0.066852 -0.004836
0.465339 0.004723 0.014333
0.465339 -0.024919 -0.028869
0.465339 -0.011849 -0.082085
0.465339 0.000342 0.061321
0.465339 0.085890 0.030797
0.465339 0.076190 -0.036745
0.465339 0.021658 -0.080604
0.465339 0.077433 -0.006132
0.465339 -0.088942 -0.038218
0.465339 0.069358 0.046672
0.465339 0.097475 -0.004893
0.465339 0.018184 -0.043625
0.465339 -0.018922 -0.089890
0.465339 -0.041802 -0.022517
0.465339 -0.076934 0.001116
0.465339 -0.012909 0.057006
0.465339 -0.059081 -0.074970
0.465339 -0.021776 0.041179
0.465339 -0.030850 0.079627
0.465339 -0.073504 0.044762
0.465339 -0.070939 0.047842
0.465339 0.099628 0.002971
0.465339 -0.037500 -0.035887
0.465339 0.051826 0.029779
0.465339 0.068359 0.055107
0.465339 -0.020173 -0.047089
0.465339 0.036491 -0.025732
0.465339 0.066306 0.061855
0.465339 -0.038773 -0.040868
0.465339 0.015409 0.027045
0.465339 -0.033360 0.011330
0.465339 0.069857 0.042467
0.465339 -0.010548 -0.032239
0.465339 0.030665 -0.069755
0.465339 -0.088161 -0.015660
0.465339 -0.057737 -0.027200
0.465339 0.042025 -0.066544
0.465339 0.040654 0.012579
0.465339 -0.039892 0.043178
0.465339 0.014817 0.070762
0.465339 0.010200 -0.068351
0.465339 -0.005320 -0.091468
0.465339 -0.020086 0.075485
0.465339 -0.010394 0.086906
0.465339 -0.026918 -0.001269
0.465339 -0.036029 -0.012921
0.465339 0.010869 0.037380
0.465339 -0.033343 0.009884
0.465339 0.087436 0.007878
0.465339 -0.060314 0.059367
0.465339 -0.094122 -0.032312
0.465339 -0.043409 0.078965
0.465339 0.003927 -0.028661
0.465339 -0.064244 -0.050953
0.465339 0.082097 0.031146
0.465339 -0.030219 0.004342
0.465339 0.057786 0.056729
0.465339 -0.057287 -0.030368
0.465339 0.036445 -0.013991
0.465339 0.084636 -0.034373
0.465339 0.013084 0.006317
0.465339 -0.025174 0.044196
0.465339 -0.040900 0.020499
0.465339 0.023270 -0.044635
0.465339 0.014768 0.012273
0.465339 -0.094228 0.009196
0.465339 0.031823 0.035354
0.465339 -0.024170 0.081676
0.465339 -0.029461 0.084830
0.465339 -0.038662 -0.027467
0.465339 0.020514 -0.057364
0.465339 0.090462 -0.001550
0.465339 0.099204 0.008668
0.465339 -0.021495 0.077085
0.465339 -0.073087 0.060511
0.465339 -0.006970 0.030726
0.465339 0.055690 0.009229
0.465339 -0.049898 -0.028777
0.465339 -0.007686 0.000130
0.465339 0.021437 0.093772
0.465339 0.029802 0.023355
0.465339 -0.059411 0.079195
0.465339 0.019242 -0.017018
0.465339 -0.000577 -0.091815
0.465339 -0.064100 0.023426
0.465339 0.094664 -0.020586
0.465339 0.017270 -0.069133
0.465339 0.066211 0.006704
0.465339 0.012561 0.019493
0.465339 -0.003668 0.032970
0.465339 0.009326 -0.033196
0.465339 -0.070660 0.033778
0.465339 0.034284 0.083957
0.465339 -0.053629 0.068807
0.465339 0.016338 0.094582
0.465339 0.064399 0.052368
0.465339 -0.062177 -0.070371
0.465339 0.070931 0.046671
0.465339 -0.080485 0.008583
0.465339 0.049340 0.082671
0.465339 -0.038387 0.038976
0.465339 -0.070837 0.026622
0.465339 -0.004581 0.095135
0.465339 -0.047525 -0.074084
0.465339 -0.034516 -0.074828
0.465339 -0.052663 -0.070611
0.465339 0.024368 -0.060072
0.465339 -0.052221 -0.005908
0.465339 0.011006 0.019022
0.465339 -0.003370 0.000600
0.465339 0.041474 -0.022081
0.465339 -0.081146 0.039399
0.465339 -0.059589 -0.043647
0.465339 0.061020 0.009629
0.465339 0.012615 -0.031315
0.465339 0.079126 -0.036640
0.465339 -0.005608 0.058977
0.465339 0.058572 -0.043918
0.465339 -0.027380 0.004685
0.465339 0.048290 -0.031789
0.465339 -0.073326 -0.061301
0.465339 0.042681 0.023312
0.465339 -0.003497 0.078457
0.465339 0.001528 -0.098913
0.465339 0.074240 0.022050
0.465339 0.035399 -0.009594
0.465339 0.053689 -0.075572
0.465339 0.021044 -0.018414
0.465339 -0.028150 0.024426
0.465339 -0.000593 -0.055929
0.465339 0.011333 -0.053450
0.465339 -0.010256 0.083914
0.465339 0.015930 0.073501
0.465339 0.006645 -0.083431
0.465339 -0.004718 0.060703
0.465339 -0.015541 0.018799
0.465339 -0.033535 0.064421
0.465339 -0.066308 -0.023832
0.465339 0.050457 -0.020610
0.465339 0.006331 -0.038500
0.465339 0.035171 -0.050477
0.465339 0.033229 0.015453
0.465339 0.027196 -0.095589
0.465339 0.037094 -0.069966
0.465339 0.026779 -0.094117
0.465339 -0.042915 -0.044112
0.465339 0.073394 -0.058101
0.465339 0.087691 -0.029124
0.465339 0.006586 -0.005492
0.465339 0.037977 0.035814
0.465339 0.063267 -0.065884
0.465339 0.016710 0.097181
0.465339 0.033067 -0.033494
0.465339 -0.058892 0.053248
0.465339 -0.059469 -0.007736
0.465339 0.059874 0.056144
0.465339 0.002838 -0.084664
0.465339 -0.015516 -0.014121
0.465339 0.050590 -0.040954
0.465339 0.012342 -0.058373
0.465339 0.073049 0.024078
0.465339 0.038699 0.002094
0.465339 -0.074101 0.057674
0.465339 -0.077946 0.057003
0.465339 -0.051999 0.057009
0.465339 0.059741 -0.038316
0.465339 -0.075365 -0.032417
0.465339 0.011480 0.092059
0.465339 -0.057475 -0.075284
0.465339 -0.044254 0.008749
0.465339 -0.065241 0.020066
0.465339 -0.023800 -0.096288
0.465339 0.085650 -0.013600
0.465339 0.021370 -0.006878
0.465339 -0.060916 -0.030639
0.465339 0.028145 0.015953
0.465339 -0.077166 -0.007186
0.465339 -0.080247 -0.043837
0.465339 0.048908 0.000236
0.465339 -0.044306 0.082976
0.465339 -0.084565 0.028647
0.465339 0.069273 0.014909
0.465339 0.059066 -0.071180
0.465339 0.028064 0.063019
0.465339 -0.025628 -0.062463
0.465339 0.070636 -0.020407
0.465339 0.005499 -0.043046
0.465339 0.014079 -0.092163
0.465339 -0.048041 0.002020
0.465339 -0.028179 -0.017058
0.465339 -0.065985 -0.013237
0.465339 0.063904 0.025277
0.465339 0.003123 0.039554
0.465339 -0.021533 -0.016231
0.465339 0.048667 0.012626
0.465339 0.023909 0.060320
0.465339 0.039313 0.023815
0.465339 0.011513 0.085971
0.465339 0.020870 -0.021348
0.465339 -0.051552 0.069657
0.465339 0.092113 -0.014348
0.465339 0.033412 -0.071208
0.465339 0.069688 -0.025427
0.465339 -0.034445 0.018416
0.465339 0.025581 -0.049874
0.465339 -0.059058 -0.062501
0.465339 -0.086270 -0.023158
0.465339 -0.075019 0.027547
0.465339 -0.053499 -0.067264
0.465339 0.003370 0.063083
0.465339 -0.064938 0.038002
0.465339 -0.028967 -0.010200
0.465339 -0.063897 -0.005953
0.465339 0.012892 -0.034258
0.465339 -0.018348 -0.088123
0.465339 -0.005104 0.053442
0.465339 0.011321 0.027688
0.465339 -0.022489 -0.034471
0.465339 -0.021797 -0.079435
0.465339 -0.093385 0.002121
0.465339 -0.070026 0.007734
0.465339 -0.030064 -0.039634
0.465339 -0.015263 -0.056606
0.465339 0.064620 0.042691
0.465339 0.018286 0.035076
0.465339 -0.002682 -0.001615
0.465339 -0.038729 -0.034332
0.465339 0.066217 -0.057421
0.465339 -0.057750 -0.007555
0.465339 0.052609 0.036249
0.465339 0.055753 -0.000432
0.465339 -0.043190 -0.075342
0.465339 -0.000784 0.058591
0.465339 0.058417 0.000458
0.465339 0.036074 -0.062540
0.465339 0.016373 -0.028525
0.465339 -0.026797 -0.061393
0.465339 -0.012753 -0.017934
0.465339 0.019058 0.022327
0.465339 0.032586 -0.018556
0.465339 0.044256 0.035475
0.465339 -0.022661 0.067521
0.465339 0.060429 0.021219
0.465339 -0.035977 -0.047792
0.465339 0.034321 0.057070
0.465339 -0.019312 0.059826
0.465339 0.061798 -0.025182
0.465339 0.033885 0.087751
0.465339 -0.069197 -0.071465
0.465339 0.005578 0.079748
0.465339 0.004662 -0.075262
0.465339 0.003516 -0.087561
0.465339 0.055445 0.051660
0.465339 0.015812 -0.066952
0.465339 0.090242 -0.026595
0.465339 -0.041898 -0.041342
0.465339 0.048416 0.075174
0.465339 -0.010931 0.060634
0.465339 0.008832 -0.020873
0.465339 -0.025700 -0.037809
0.465339 -0.040160 -0.040741
0.465339 0.029076 -0.078729
0.465339 0.047969 0.077341
0.465339 -0.036144 -0.051958
0.465339 -0.044104 -0.035383
0.465339 -0.007819 -0.018135
0.465339 -0.024914 -0.003029
0.465339 -0.035212 -0.043147
0.465339 -0.024607 0.014397
0.465339 0.012891 -0.061550
0.465339 0.043527 0.073115
0.465339 0.067219 -0.029618
0.465339 0.064239 0.069042
0.465339 0.031180 0.051653
0.465339 0.086067 0.025443
0.465339 0.002466 0.071316
0.465339 0.034987 0.045658
0.465339 -0.022461 0.035757
0.465339 0.037322 0.051490
0.465339 0.004282 -0.095852
0.465339 0.068084 0.042988
0.465339 -0.029286 -0.027252
0.465339 -0.021784 -0.050102
0.465339 -0.010870 -0.044947
0.465339 -0.031691 -0.006164
0.465339 0.052603 -0.074304
0.465339 0.028819 -0.003977
0.465339 0.057370 -0.012766
0.465339 0.069362 -0.019570
0.465339 -0.027540 0.007060
0.465339 0.045366 0.082990
0.465339 0.038967 -0.044277
0.465339 -0.069400 0.048985
0.465339 -0.021158 0.069252
0.465339 0.007957 -0.003064
0.465339 0.010025 -0.054132
0.465339 -0.006224 0.025225
0.465339 -0.042150 0.088898
0.465339 -0.029675 -0.049263
0.465339 0.031240 0.061147
0.465339 -0.062722 -0.007128
0.465339 0.012267 0.074148
0.465339 -0.064085 -0.015899
0.465339 0.029247 -0.031315
0.465339 0.052769 0.078088
0.465339 -0.088055 0.004692
0.465339 -0.005108 0.035298
0.465339 -0.062996 0.067879
0.465339 0.044633 -0.057245
0.465339 -0.039645 0.075489
0.465339 0.018196 0.079396
0.465339 0.027106 -0.050167
0.465339 -0.048060 0.071345
0.465339 -0.013861 -0.087534
0.465339 0.089068 -0.016006
0.465339 -0.065186 0.018112
0.465339 -0.070620 -0.000874
0.465339 0.026384 -0.028907
0.465339 -0.066513 0.018649
0.465339 -0.044932 -0.017620
0.465339 -0.071367 -0.052862
0.465339 0.069014 -0.054713
0.465339 0.037720 0.031114
0.465339 0.016499 0.067085
0.465339 0.044820 0.024512
0.465339 0.001671 0.090233
0.465339 -0.026243 0.086784
0.465339 0.067248 0.023953
0.465339 0.079685 0.050608
0.465339 -0.088655 -0.032267
0.465339 -0.003180 -0.075321
0.465339 0.018443 0.009637
0.465339 0.013173 -0.081726
0.465339 -0.074892 0.025858
0.465339 0.004939 -0.018317
0.465339 -0.027287 0.038787
0.465339 0.015603 -0.020432
0.465339 0.061942 0.062939
0.465339 0.014024 0.016101
0.465339 -0.031744 0.085449
0.465339 -0.055854 0.081774
0.465339 -0.056241 -0.010543
0.465339 0.022401 0.052726
0.465339 0.061941 -0.061417
0.465339 0.092687 -0.019781
0.465339 -0.077851 0.045191
0.465339 -0.043390 0.042466
0.465339 0.068612 -0.016097
0.465339 0.010643 -0.071534
0.465339 0.044703 -0.065865
0.465339 0.053450 0.002836
0.465339 -0.031009 -0.049613
0.465339 0.008573 -0.094887
0.465339 -0.060325 0.044446
0.465339 -0.008843 0.038516
0.465339 -0.035909 -0.063582
0.465339 -0.022363 0.060584
0.465339 -0.090344 0.011955
0.465339 0.052269 -0.059546
0.465339 0.011995 -0.001584
0.465339 -0.006311 0.074935
0.465339 0.033221 0.044613
0.465339 0.022818 0.004202
0.465339 -0.071805 -0.055551
0.465339 0.073356 0.008372
0.465339 -0.025116 0.065677
0.465339 0.005192 -0.081017
0.465339 0.090235 0.002832
0.465339 0.031475 -0.045791
0.465339 -0.008021 0.060314
0.465339 -0.051191 0.045283
0.465339 0.096002 -0.019255
0.465339 -0.029664 0.062240
0.465339 -0.047301 0.086942
0.465339 0.000855 -0.034262
0.465339 -0.011888 0.069693
0.465339 -0.007155 -0.078570
0.465339 -0.014462 0.068160
0.465339 0.005222 -0.094514
0.465339 0.048442 -0.003112
0.465339 0.039315 0.076320
0.465339 -0.066183 -0.074242
0.465339 0.058709 -0.045647
0.465339 -0.044792 0.027606
0.465339 -0.056128 -0.078570
0.465339 -0.040322 0.058297
0.465339 -0.029816 -0.033307
0.465339 0.013834 0.021747
0.465339 0.016191 -0.098232
0.465339 0.062219 -0.014817
0.465339 -0.062683 -0.062342
0.465339 0.031801 0.038809
0.465339 0.073253 0.062252
0.465339 -0.030785 0.059520
0.465339 0.022424 0.008537
0.465339 0.009600 0.015012
0.465339 0.076632 -0.026600
0.465339 -0.020448 -0.050456
0.465339 0.035323 0.002052
0.465339 -0.077020 -0.013392
