-0.428021 0.099454 -0.009839
-0.453665 0.099223 -0.012277
0.094555 0.090886 0.041816
-0.304470 -0.061073 0.079072
-0.168152 -0.085744 -0.050769
0.344901 0.099931 -0.002173
-0.245069 0.086347 0.050506
-0.456163 0.068021 0.073415
0.372324 -0.098990 -0.012281
0.002794 0.049320 0.087075
-0.091178 0.076668 0.064322
0.360015 -0.088293 -0.046220
0.146695 0.099050 0.013756
0.277332 0.099414 -0.010255
0.018817 0.003050 -0.099615
0.290024 -0.099160 -0.010483
0.291775 -0.073879 0.067221
0.206070 0.097829 0.020720
-0.338320 0.031845 -0.094508
0.020779 0.072638 -0.068491
0.012680 0.000585 -0.099692
-0.073515 0.084210 0.054066
0.302303 -0.031978 0.094739
-0.309034 -0.045396 0.089044
0.422475 0.069371 0.072121
-0.446639 -0.094891 -0.030658
0.220425 0.063746 0.077179
0.152348 0.085288 -0.051933
-0.198278 0.096743 0.025449
0.403941 -0.038970 0.092053
-0.315615 0.014402 0.099003
-0.358374 0.099493 -0.009425
0.407646 0.055289 0.083399
-0.164035 0.097647 -0.021172
-0.110306 -0.018633 0.098293
0.007012 -0.058024 0.081382
-0.214911 0.098729 -0.015423
-0.128601 0.034830 -0.093434
0.255745 -0.005986 0.099878
0.059107 -0.069201 -0.071695
-0.009844 -0.081403 -0.057490
-0.228342 0.011205 -0.099055
0.298449 -0.099578 0.006362
0.450347 -0.036876 0.092960
-0.356021 0.046794 0.088450
-0.120532 -0.099451 0.007762
0.080805 -0.045450 0.089016
0.081080 0.055828 0.083033
-0.002428 -0.011540 0.099364
-0.057638 0.033064 -0.094069
0.332766 -0.047283 -0.087720
0.181960 -0.020477 0.097881
0.352426 0.092237 0.038695
0.230227 -0.020594 -0.097492
-0.138207 -0.030572 -0.094870
-0.285386 -0.007437 -0.099389
0.226405 -0.044285 -0.089247
-0.357992 -0.093997 0.033510
-0.050469 0.003861 -0.099590
0.075352 0.023165 0.097333
-0.344694 -0.099016 -0.011999
0.411972 -0.053836 0.084228
-0.119570 0.080001 0.060090
0.417105 0.096940 -0.024333
-0.199314 -0.065280 0.075626
-0.126330 -0.055220 0.083287
0.058550 -0.045283 -0.088738
0.238617 -0.095063 -0.030066
0.192970 -0.008209 0.099679
-0.407410 -0.043888 -0.089449
-0.388369 0.059461 -0.080141
-0.446114 -0.097073 -0.022694
-0.429857 -0.091870 0.039004
0.070832 -0.004701 0.099919
-0.378340 0.070134 0.071358
0.245032 0.072489 -0.068641
0.013579 0.072453 -0.068676
0.170816 0.073021 -0.068097
0.320294 -0.081707 0.057405
-0.374065 -0.046864 0.088296
0.037400 0.100001 0.000312
-0.001380 -0.078570 0.061634
0.365963 0.075068 -0.065774
-0.090339 -0.049796 -0.086293
0.201675 -0.077670 0.062795
0.079122 -0.092458 -0.037283
0.181743 0.052133 0.085411
-0.324198 0.019126 0.098235
0.297404 -0.081550 -0.057273
-0.225393 -0.090246 -0.042388
-0.290371 0.082725 -0.055887
-0.043953 -0.040200 -0.091158
-0.073055 0.068514 0.072978
0.281462 0.092506 -0.037711
-0.349547 -0.035093 -0.093255
0.379767 -0.094092 -0.032883
0.316960 0.068515 0.072978
0.296624 0.098843 0.015065
-0.207531 0.040345 0.091560
0.451625 0.027120 0.096304
-0.393512 -0.082012 -0.056593
0.319867 0.015506 0.098828
-0.277959 -0.021305 -0.097333
-0.389647 -0.095386 0.029316
0.236568 0.023456 0.097267
0.026461 -0.042268 0.090626
-0.243470 0.016844 0.098616
-0.176067 0.090172 0.043353
0.052703 -0.042158 -0.090311
0.207337 -0.035756 -0.093016
-0.465606 0.063352 0.077485
-0.148179 -0.073502 -0.067286
0.291298 0.034753 -0.093461
0.014880 0.095143 -0.030594
0.132194 0.041551 0.091038
-0.367589 0.094956 -0.031131
0.005560 0.094151 0.033730
0.205988 -0.020545 -0.097503
0.007322 0.093692 -0.034642
0.242985 -0.098360 -0.016278
-0.116474 -0.098332 0.016817
0.391933 0.063250 -0.077201
-0.409459 0.031043 -0.094797
0.193840 -0.099703 -0.002001
-0.074007 -0.026875 0.096307
-0.020828 0.015823 -0.098415
0.281083 0.043716 0.090019
-0.089919 0.062634 0.078042
-0.252529 -0.095001 0.030641
0.337793 -0.071049 -0.069847
0.366864 0.053653 -0.084149
0.166144 -0.035015 -0.093283
0.430490 -0.094438 -0.031922
-0.388541 -0.090085 -0.042702
-0.190484 -0.098302 -0.016644
-0.164195 0.009458 -0.099220
-0.288906 0.044524 -0.089244
0.397252 0.039687 -0.091481
-0.450990 -0.098319 -0.016539
0.192896 0.098639 0.016355
-0.258798 0.099617 -0.008115
0.334043 -0.078025 0.062337
-0.165527 0.032539 0.094621
0.453694 0.075498 -0.065287
0.372691 0.055562 0.083214
-0.027443 0.026839 0.096385
0.405085 -0.038114 -0.092061
-0.401292 0.096907 0.024844
0.192329 0.027169 0.096289
-0.353290 0.012144 -0.098966
-0.276742 -0.039876 -0.091299
-0.127273 -0.062420 -0.077664
0.155175 0.039705 -0.091473
0.055651 0.048854 -0.086988
-0.080264 0.070995 0.070498
-0.187329 0.046362 -0.088308
0.417498 -0.097009 -0.022981
0.093801 0.042242 0.090739
0.458305 -0.082420 -0.055993
-0.451468 -0.002962 0.099973
-0.397130 -0.000106 -0.099700
0.239170 0.053815 0.084401
0.153476 -0.040131 0.091551
-0.314793 0.078497 -0.061666
0.191548 0.048849 -0.086991
0.197879 0.030620 -0.094924
0.332201 -0.061007 0.079123
-0.373620 0.064528 0.076494
-0.382425 0.046248 0.088728
-0.455620 0.099986 -0.000446
-0.117972 -0.042311 -0.090245
0.189749 0.062002 -0.078169
0.037251 -0.027974 0.095988
0.081233 -0.084980 -0.052061
0.329269 0.084002 0.054371
0.001604 -0.006621 -0.099466
0.086350 -0.056389 0.082493
0.304949 -0.034186 -0.093581
0.008985 0.036338 0.093254
0.259500 -0.031826 -0.094431
-0.286075 -0.092558 0.037414
0.243454 0.093171 -0.036088
-0.255958 0.023953 0.097156
-0.459617 0.037854 -0.092275
0.122634 0.038139 0.092514
-0.241545 -0.097627 0.020577
-0.267718 0.099948 -0.001642
0.160107 -0.051454 0.085675
0.310495 0.095820 0.028628
-0.091126 -0.005292 -0.099537
-0.248599 -0.097288 0.022094
-0.394857 0.097640 0.021563
0.204775 -0.060998 0.079130
0.428151 0.040018 0.091701
-0.170444 -0.099642 0.004314
-0.316246 0.099177 0.012957
-0.210275 -0.025438 0.096724
0.427745 0.090786 -0.041685
0.143949 0.084976 -0.052462
-0.250686 0.084575 0.053502
0.069012 -0.076174 -0.064255
-0.209569 -0.077033 -0.063252
0.463122 0.077040 0.063901
0.252126 -0.028015 0.095976
0.020480 0.099876 -0.003930
0.452669 -0.067549 0.073625
0.263067 0.054956 0.083626
0.452465 0.092406 -0.037941
-0.073815 0.044653 0.089541
-0.368684 0.016734 0.098633
-0.043254 -0.099156 -0.010517
0.056964 0.018237 0.098395
-0.031030 -0.095722 -0.027799
0.209763 0.087139 -0.048804
0.057485 0.090153 0.043391
-0.117869 -0.072162 0.069097
-0.326514 0.047226 -0.087867
-0.012382 -0.077574 -0.062555
-0.286460 -0.021732 -0.097238
-0.357799 -0.035247 0.093562
0.455119 0.009698 -0.099197
-0.216203 0.033734 -0.093828
-0.237813 -0.001063 0.100033
-0.070192 0.025101 -0.096528
-0.124642 0.029540 0.095601
-0.062617 -0.063316 -0.076969
0.416832 0.076579 -0.064060
0.352099 -0.053493 -0.084099
-0.251412 -0.084131 -0.053476
-0.272960 0.099093 0.013487
0.312809 0.088990 0.045672
0.386939 -0.078380 -0.061515
0.158388 -0.078732 -0.061062
0.408484 0.098963 0.014310
-0.308994 0.083969 0.054420
-0.388375 -0.093457 0.035008
-0.351733 0.098083 -0.019221
0.250045 0.099861 -0.004417
-0.404939 -0.051952 0.085380
0.458607 0.004786 -0.099560
0.386199 0.078490 -0.061674
0.038213 -0.099619 0.005039
-0.179337 -0.053370 0.084542
-0.126118 0.099677 0.007839
0.021428 -0.046528 0.088467
-0.356691 -0.025170 0.096802
0.279415 -0.022381 0.097456
0.028860 -0.056926 -0.081765
-0.330634 0.011931 -0.098986
0.124802 0.095422 0.029996
-0.022407 0.045078 -0.088962
-0.037517 0.090451 -0.042442
0.019583 -0.050585 -0.085826
0.186353 -0.099348 -0.008493
-0.235496 0.091126 -0.040900
-0.315893 -0.095341 0.029471
-0.050136 0.038386 -0.092044
-0.032608 -0.099678 0.003159
-0.162923 0.085308 -0.051900
0.072659 -0.038388 0.092305
-0.159767 -0.088253 -0.046298
-0.150701 -0.013918 0.099042
0.151198 -0.049651 -0.086378
0.213166 -0.095325 -0.029165
-0.392158 0.004652 -0.099565
-0.235313 -0.084998 0.052393
-0.216730 0.080539 -0.059034
-0.181553 0.099901 0.003504
0.299731 0.008921 -0.099271
0.309118 -0.093691 0.034360
-0.211166 0.050657 0.086284
0.289748 0.089628 0.044420
-0.121924 -0.059323 -0.080067
0.329340 0.079968 -0.059769
-0.404620 -0.020201 -0.097580
0.440318 -0.032381 -0.094231
0.120275 -0.044665 -0.089053
-0.224701 0.068917 0.072576
-0.051819 0.025293 -0.096472
0.273508 0.048628 0.087484
-0.002634 -0.083173 0.055248
-0.044069 -0.014073 0.099018
0.187657 0.097902 -0.020032
0.212586 0.001129 -0.099675
-0.297925 0.098391 0.017920
-0.380512 0.059408 0.080544
-0.189904 0.094513 -0.032362
-0.342321 -0.015594 -0.098414
0.327302 0.007904 0.099730
-0.197664 0.099281 -0.011668
-0.064192 0.010738 -0.099099
-0.051295 0.065723 -0.075079
-0.306882 -0.082519 0.056210
-0.206410 -0.098874 0.013397
0.127131 -0.057096 -0.081650
-0.306473 0.089847 0.043992
-0.417001 0.044893 0.089419
0.177904 -0.024805 -0.096546
-0.094659 0.058129 -0.081106
0.188341 0.066289 0.074942
-0.027110 0.097264 -0.022885
-0.380401 0.084415 0.053764
-0.211583 0.092931 0.037091
-0.079756 0.061637 -0.078453
-0.417805 0.097176 0.023642
-0.344839 0.028654 0.095858
0.040613 -0.067397 0.073759
-0.168252 -0.091713 -0.039002
-0.007515 0.092374 -0.038016
-0.421186 -0.006899 0.099803
0.100553 -0.043506 0.090007
-0.237216 0.088693 0.046256
-0.130404 -0.071425 0.069834
0.452013 -0.015211 0.098838
-0.057948 0.090650 -0.042000
0.051169 -0.098751 -0.013810
0.254767 -0.018823 0.098251
-0.128123 0.084303 0.053929
-0.203031 -0.053514 -0.084084
-0.192393 -0.041807 -0.090463
0.146554 0.054590 0.083874
0.165312 -0.099595 0.005822
-0.440368 -0.094491 -0.031775
-0.189357 0.077091 0.063842
0.173175 0.003437 0.099966
0.361180 0.083837 -0.054251
-0.331028 -0.087260 0.048568
0.030219 0.090915 -0.041386
0.133089 0.008505 -0.099310
0.367388 -0.009897 -0.099156
-0.320255 0.042271 0.090726
0.259019 -0.037327 -0.092402
0.400803 -0.099661 -0.003335
0.180388 -0.059437 0.080341
-0.385538 -0.040498 -0.091030
0.361457 -0.090658 0.041803
-0.199741 0.098440 -0.017250
0.197992 0.058628 0.081130
-0.070044 -0.055141 -0.082978
-0.342334 0.070131 -0.070998
-0.023829 0.022998 -0.097007
-0.367375 -0.059784 0.080072
-0.419139 -0.099727 -0.001243
-0.219653 0.038941 0.092167
0.126345 -0.066602 -0.074098
-0.251534 0.056797 -0.082012
-0.053943 -0.081510 -0.057333
0.224757 -0.085823 0.050998
-0.124005 -0.000726 0.100044
0.254854 -0.011969 0.099323
-0.334158 -0.069359 -0.071537
-0.138067 0.014726 0.098951
0.161725 -0.092086 0.038504
-0.227474 -0.012019 0.099319
0.367041 0.084710 0.053274
-0.258355 -0.060268 0.079697
0.291101 -0.079527 0.060400
-0.328295 -0.014595 0.098935
-0.448120 0.065107 -0.075621
0.415523 0.016998 0.098592
0.411144 -0.065862 0.075113
-0.291576 0.090620 -0.042069
-0.159101 0.066427 0.074820
0.166845 -0.099073 0.011767
0.203251 0.064626 -0.076045
0.212951 0.031061 -0.094791
0.310719 0.087064 -0.048931
-0.104513 -0.079949 0.059856
-0.026047 -0.085028 -0.051979
-0.399034 -0.099593 -0.005527
0.128744 -0.087405 0.048322
-0.247676 -0.072328 -0.068568
0.300269 -0.048898 -0.086823
0.214117 -0.068288 -0.072608
0.318091 0.043872 0.089939
-0.201194 0.092736 0.037542
0.014413 0.044729 0.089503
-0.200336 0.022530 0.097474
-0.391507 -0.082945 0.055584
0.359731 0.075303 0.065871
0.045009 0.092312 -0.038159
0.065006 -0.055304 0.083230
0.281673 -0.081340 -0.057583
-0.093799 -0.033487 0.094196
0.098552 -0.098747 0.014198
-0.075148 0.099988 0.000735
0.367984 -0.047330 -0.087695
0.082009 0.018011 -0.098068
0.441641 -0.093687 0.034371
0.461397 -0.061403 -0.078453
0.451493 -0.079313 -0.060313
-0.023772 -0.031983 -0.094375
-0.390601 0.070626 0.070866
-0.249303 0.083383 -0.054919
0.012735 -0.069583 0.071676
-0.085363 0.092303 -0.038179
0.135159 -0.098953 -0.012535
0.316937 0.016424 -0.098320
0.218873 -0.098175 -0.017450
-0.452405 -0.091809 -0.038781
-0.012347 -0.029311 0.095599
-0.396693 0.017070 -0.098217
-0.372137 0.087953 -0.047345
-0.436724 0.055297 -0.083031
-0.016858 -0.040309 0.091474
0.343965 -0.099758 -0.000267
-0.336593 0.028499 0.095903
0.389061 -0.028808 0.095746
0.279485 -0.041352 -0.090660
-0.097171 0.099857 -0.004527
0.282627 -0.057648 0.081638
-0.252822 0.096270 -0.026714
0.314001 -0.089074 0.045049
0.434983 0.095595 -0.029037
-0.239251 0.043376 0.090192
-0.289082 0.065454 0.075678
-0.248881 -0.023321 0.097245
-0.228836 0.044175 -0.089422
-0.183805 0.099045 0.013790
-0.093927 0.099395 -0.010462
-0.416763 -0.026484 0.096421
-0.383268 -0.048750 -0.086911
0.265575 0.039458 0.091943
-0.363870 -0.084607 0.053054
-0.361687 -0.087446 -0.047882
0.283154 0.004594 0.099929
0.066304 -0.090793 0.041493
0.425229 0.091166 0.041170
-0.320827 -0.022866 0.097347
0.241928 -0.096892 -0.023504
0.180291 -0.019472 -0.097743
0.069933 0.043097 -0.089971
0.125194 -0.035743 -0.093021
0.052808 0.088776 -0.045730
-0.016251 -0.093366 -0.034899
0.312409 0.090961 -0.041281
0.305588 0.051834 0.085588
0.120474 -0.085315 0.051856
-0.085305 0.004728 0.099925
-0.042790 -0.003149 -0.099605
0.140327 0.021127 -0.097425
-0.296596 0.018596 -0.097976
-0.349794 0.056730 0.082420
0.158685 0.021097 0.097795
-0.048141 0.016234 0.098712
-0.009142 0.057340 0.082005
0.222416 0.098669 -0.015803
0.334261 0.066571 -0.074330
-0.175410 0.062704 -0.077625
-0.367194 0.093098 0.036655
-0.274585 -0.040533 0.091377
-0.255917 0.001567 0.100024
-0.015602 -0.000172 -0.099698
-0.090361 -0.098740 -0.013883
-0.130103 0.099887 -0.003595
-0.299615 0.063747 0.077179
-0.454977 -0.032786 -0.094086
0.239878 0.056322 -0.082334
-0.146794 0.024679 0.096994
0.103170 -0.067736 -0.073097
-0.163074 -0.083410 0.054899
0.226252 0.004559 -0.099568
0.129260 0.028822 0.095809
-0.451407 -0.041779 0.090838
-0.214423 -0.015961 -0.098356
0.359368 -0.099700 0.002477
0.136651 -0.069207 -0.071689
0.378865 -0.076504 -0.063881
-0.167144 -0.062683 -0.077460
0.088244 -0.008755 -0.099264
-0.017485 0.036935 -0.092672
-0.327821 -0.016454 -0.098278
-0.411594 0.096088 0.027703
-0.055299 0.087477 0.048595
0.125841 -0.064593 0.076231
0.249601 -0.087876 0.047401
0.059975 0.099561 0.009067
0.102922 0.099003 0.014058
-0.394327 0.061414 -0.078626
-0.175844 -0.099752 -0.000463
-0.036838 -0.040747 0.091284
0.286810 -0.052896 0.084822
-0.149531 0.077168 0.063743
0.290799 0.098981 -0.013832
0.204836 -0.099601 0.005619
0.363894 -0.046588 0.088437
0.137547 0.044305 0.089718
0.051054 -0.095057 0.030450
-0.408876 -0.088354 -0.046101
-0.055843 0.021888 0.097618
-0.358971 -0.091417 0.040049
0.255012 -0.099663 -0.003284
0.045853 -0.017979 0.098399
-0.347008 0.018670 -0.097964
0.291056 0.040385 0.091542
-0.240361 0.074299 0.067010
-0.274026 -0.099194 -0.010124
-0.115937 -0.083892 0.054190
-0.059528 0.097045 -0.023864
-0.219846 0.099709 0.007501
-0.306898 0.079468 0.060777
-0.032207 0.044230 0.089757
-0.325878 0.099834 -0.005266
0.377923 -0.098508 -0.015348
0.005397 -0.007474 0.099748
0.075871 -0.018761 -0.097902
-0.250698 0.078335 0.062238
0.391964 -0.038668 -0.091821
0.265034 0.099355 0.011249
-0.404897 -0.008239 0.099676
-0.255608 -0.093154 0.035850
0.228784 -0.052473 0.085072
-0.386406 0.002513 -0.099632
0.395358 -0.005032 -0.099545
0.067299 0.088592 0.046454
0.173628 0.030655 -0.094914
-0.464626 0.075860 0.065239
0.463754 -0.055992 -0.082400
-0.036960 -0.082507 -0.055866
-0.326084 0.080803 0.059056
0.119286 0.042113 -0.090431
0.113027 -0.032799 -0.094081
-0.329119 -0.098630 0.014935
0.413901 0.099922 -0.002462
-0.340417 -0.084896 0.052564
-0.407946 -0.005826 -0.099520
0.384406 0.098066 -0.019295
0.337375 -0.081916 0.057098
0.264647 0.083998 -0.054015
-0.337442 -0.075002 0.065947
-0.225232 0.096251 -0.026779
-0.257308 -0.099388 -0.008064
-0.085637 0.008804 -0.099282
0.132695 -0.005083 -0.099544
0.196749 0.018470 0.098358
-0.416912 -0.056559 0.082378
-0.085599 0.087542 0.048485
-0.090578 0.071476 0.070016
-0.238588 -0.094264 0.032767
0.306517 0.067011 -0.073943
-0.263834 0.067670 0.073724
-0.173352 -0.096309 0.026142
0.060038 0.072500 -0.068630
0.161965 0.045672 0.089022
0.435270 -0.092055 0.038576
0.376676 -0.029901 -0.095065
-0.204508 -0.072748 0.068504
-0.457597 0.091836 -0.039259
0.049290 -0.069416 -0.071480
0.128177 0.050806 0.086196
-0.279631 -0.000176 -0.099698
-0.297281 -0.072529 0.068730
0.133802 -0.002814 0.099978
-0.116850 -0.045416 0.089033
0.274590 0.082992 -0.055495
0.299821 0.067114 -0.073852
0.145709 0.095461 -0.029499
-0.095827 -0.075009 0.065939
0.227209 0.017494 -0.098150
0.143908 -0.029248 0.095618
0.393662 0.099883 -0.003703
0.205457 -0.081513 0.057690
0.034570 0.094196 -0.033242
0.367684 -0.020666 0.097839
-0.317143 0.099815 0.006244
0.068443 0.089967 -0.043393
-0.355621 0.056540 0.082549
0.380543 -0.081187 0.058170
0.412923 0.010287 0.099504
0.166389 -0.030176 0.095348
0.191818 -0.048123 0.087645
-0.125733 0.089273 0.045117
-0.066563 0.041501 0.091059
0.459761 -0.011322 -0.099022
0.434842 -0.002332 0.099993
0.281030 -0.065255 0.075648
-0.148010 0.071548 0.069945
-0.187267 -0.037115 -0.092494
0.257852 0.027012 -0.095972
0.129205 -0.060896 0.079209
-0.236789 0.021641 -0.097310
0.403519 -0.091440 -0.039633
0.217789 -0.093650 0.034472
-0.436130 0.076154 0.064906
-0.385914 -0.028461 -0.095483
0.111829 0.060315 0.079841
-0.095065 -0.095226 0.029869
0.394429 0.035879 0.093419
-0.166146 0.090203 -0.042930
0.302860 0.070675 -0.070454
-0.049296 -0.078761 -0.061025
0.138616 -0.099602 0.005582
0.219988 0.004961 0.099918
-0.413977 0.044178 -0.089421
-0.184373 0.007527 0.099765
0.186749 0.099440 -0.009985
0.326375 -0.016679 0.098605
0.284325 0.087202 -0.048697
-0.197611 -0.073810 0.067299
-0.189532 -0.001458 -0.099658
0.354238 0.096492 0.026314
-0.049379 -0.093131 0.035914
0.322803 -0.009722 -0.099173
0.411532 -0.059581 0.080229
0.153125 -0.012987 0.099190
-0.069771 0.083666 -0.054503
0.401642 -0.031616 0.094869
0.280402 -0.060848 -0.078883
-0.201995 -0.088413 -0.045985
0.274117 0.099975 0.001158
-0.224354 0.075809 0.065298
-0.177682 0.079650 -0.060179
-0.297991 -0.078098 0.062243
-0.250927 0.012508 0.099294
-0.344337 -0.099427 0.008015
-0.457284 0.099778 -0.006404
0.219495 -0.065557 -0.075019
0.389357 0.085939 -0.050833
-0.166268 -0.032664 -0.094130
0.396305 -0.014054 -0.098658
-0.274610 0.067327 -0.073664
0.300431 -0.026857 -0.095950
0.032531 0.099646 0.008167
-0.167730 0.016990 0.098593
-0.207307 -0.029722 -0.095117
-0.138937 -0.079901 -0.059555
0.244354 0.059736 -0.079927
0.211771 0.099983 0.000890
0.333099 -0.098941 -0.012612
-0.134823 0.055929 0.082965
0.160195 -0.058340 0.081167
0.261856 -0.097310 -0.021634
-0.051049 0.083254 -0.055110
-0.336741 -0.062716 0.077798
-0.438108 -0.059383 0.080382
-0.009973 0.099907 -0.002934
-0.270026 -0.052337 -0.084790
0.395802 -0.097337 0.021876
-0.319023 0.069459 0.072033
0.345283 -0.009106 0.099594
0.456683 0.069198 -0.071931
-0.073430 0.045192 -0.088904
0.024495 0.004769 -0.099561
0.247952 0.088375 -0.046517
0.390618 0.066518 0.074740
0.134201 -0.094415 0.032348
-0.466539 0.043109 -0.089965
0.119441 -0.037855 -0.092173
-0.109071 0.097533 0.022042
-0.166585 -0.067699 -0.073130
-0.274891 -0.092131 -0.038037
0.311682 -0.063898 0.076845
-0.257613 -0.065282 -0.075261
0.005110 0.031325 -0.094695
0.126366 -0.092797 0.036842
-0.387357 -0.069925 -0.070971
-0.149298 0.074526 -0.066390
0.185690 -0.040067 -0.091216
-0.355651 0.004473 -0.099570
-0.406615 -0.064514 0.076302
-0.337296 0.099235 0.012521
-0.106575 -0.059888 -0.079628
0.105733 0.070507 0.070986
0.018156 -0.099361 -0.008357
-0.317995 -0.091848 -0.038690
-0.282242 -0.041832 -0.090452
0.125302 0.099703 -0.007199
0.262155 0.098553 0.016896
-0.312651 0.082768 -0.055824
0.437587 -0.085321 0.051846
0.133142 0.082278 -0.056546
0.451249 -0.087671 -0.047440
0.205347 -0.099244 -0.009588
0.200912 -0.052370 0.085133
0.036493 0.056355 -0.082312
-0.329615 0.004245 -0.099578
0.302630 0.082342 0.056814
-0.090854 0.093373 -0.035529
0.002666 -0.073105 0.068100
0.094779 -0.016975 -0.098195
-0.374828 0.055628 -0.082806
-0.016487 -0.099709 0.002177
-0.195981 0.075675 0.065449
0.326304 0.099199 0.012819
0.101861 0.088050 -0.047155
0.154563 0.017967 -0.098075
-0.379589 0.099915 -0.002690
-0.167897 0.001715 0.100020
0.372597 0.083218 0.055525
0.047880 0.054239 0.084113
-0.094943 -0.025140 -0.096448
-0.362220 -0.009943 0.099515
-0.159335 0.099809 -0.006065
-0.149622 0.099811 -0.006004
-0.424127 0.066851 -0.074084
-0.220214 0.089880 -0.043564
-0.448693 -0.083485 0.054788
-0.171381 -0.052065 -0.084951
-0.069619 0.010366 0.099497
-0.142535 -0.026499 -0.096053
-0.201061 -0.026412 -0.096079
-0.239393 0.040868 -0.090970
0.275456 0.091276 -0.040552
-0.259943 0.096886 -0.024576
-0.287102 0.099444 -0.009944
-0.402413 -0.086075 0.050571
0.225323 0.074297 0.067012
-0.001611 0.094904 0.031638
-0.433142 0.099877 0.004248
0.457241 0.095818 -0.028271
-0.436199 -0.027481 0.096131
0.344696 0.006623 0.099851
-0.145718 0.061793 -0.078332
-0.049924 -0.013104 -0.098808
0.427247 0.017629 0.098492
-0.392536 -0.057047 0.082046
-0.168433 0.078283 0.062304
0.015134 0.060863 0.079415
-0.439946 0.098695 -0.015641
-0.044143 -0.035106 0.093613
0.252954 0.098619 -0.016119
0.257525 0.099545 -0.008875
-0.155170 0.091409 0.040609
0.416715 0.034448 -0.093571
-0.222166 -0.006788 -0.099450
-0.100174 -0.089737 -0.043385
0.103088 -0.071554 0.069705
-0.456809 -0.011732 -0.098983
0.090660 0.098526 -0.016702
0.308025 0.079819 0.060325
-0.259122 0.099143 0.013172
-0.269363 -0.065238 0.075663
0.099532 -0.060662 0.079390
-0.450729 0.048526 -0.087182
0.385852 -0.085520 0.051510
0.320258 -0.075558 0.065317
-0.368677 -0.057350 -0.081477
0.375047 0.052971 -0.084553
0.331529 0.057918 0.081612
-0.380839 0.017761 -0.098108
0.264640 -0.068362 0.072896
-0.390264 0.034145 0.094043
-0.215959 0.097106 -0.023592
0.191120 0.091520 0.040352
0.052578 0.068403 -0.072716
-0.425489 0.055353 0.083356
0.030742 0.090881 0.041829
-0.374958 -0.059266 -0.080111
-0.143711 -0.052966 -0.084418
0.188232 0.081378 -0.057870
-0.156695 -0.030486 0.095258
-0.129431 -0.096683 0.024804
-0.415856 -0.073010 0.068207
0.464711 -0.047145 -0.087790
0.344036 0.046976 -0.087995
0.072049 -0.071154 0.070105
-0.381832 -0.067654 -0.073170
0.182907 0.099763 0.006927
0.182736 0.095219 0.030695
0.067178 -0.032174 -0.094306
0.205657 0.041310 0.091142
-0.298355 -0.065111 0.075775
0.421241 0.098251 -0.018440
0.162306 0.096795 0.025271
0.044289 -0.078996 -0.060722
-0.134181 0.031064 -0.094790
0.118306 0.099979 0.001027
0.043374 0.021399 0.097727
-0.321526 -0.099623 -0.004569
0.186602 0.020086 -0.097658
-0.244454 0.075514 -0.065269
-0.359764 0.051716 -0.085295
0.341052 0.061712 -0.078394
-0.239038 -0.008991 0.099605
0.225825 0.099641 0.008220
0.177475 0.099960 0.001631
-0.403868 -0.098313 -0.016579
-0.105804 0.099758 0.006979
-0.392434 0.089379 -0.044546
-0.248645 -0.063263 0.077373
0.008453 -0.033756 0.094099
0.053731 -0.020489 0.097879
-0.213527 -0.099396 -0.007984
-0.063576 -0.093226 0.035651
-0.256298 -0.085302 0.051878
-0.130535 -0.050141 0.086451
-0.037142 0.096886 -0.024577
-0.003412 -0.041043 -0.090793
0.043935 0.092332 0.038474
0.233048 -0.097512 0.021092
-0.419362 -0.066536 0.074518
0.452879 0.049769 0.086809
-0.399805 0.095591 -0.029051
0.294282 -0.013735 -0.098708
0.341613 -0.066860 -0.073870
0.093671 -0.085981 -0.050367
0.148937 0.040245 -0.091240
0.251955 -0.098713 -0.014048
-0.132336 0.049424 -0.086650
0.419833 -0.093875 0.033848
-0.465891 0.099531 0.009388
0.141676 -0.047794 0.087822
0.357793 0.038944 -0.091803
-0.420269 0.050900 0.086140
-0.443433 -0.013865 -0.098688
0.245543 0.042893 -0.090075
0.414291 -0.082134 0.056776
0.012917 0.073966 0.067387
-0.272763 -0.029323 -0.095233
-0.156316 0.098332 0.018292
0.023881 0.047474 0.088104
-0.378707 -0.092997 -0.035925
-0.142642 -0.007218 -0.099410
-0.335230 -0.053542 -0.084065
-0.152393 0.045936 0.088887
0.075100 -0.099061 -0.011531
0.396784 -0.090643 -0.041476
0.111798 -0.095830 0.027790
0.003552 -0.029865 0.095438
0.333944 -0.011848 0.099335
0.199608 -0.074505 -0.066148
0.180394 0.002578 0.099993
0.064008 0.017291 -0.098182
-0.057051 -0.061655 0.078621
0.254018 0.099559 0.009087
0.048375 -0.056810 0.082207
-0.200100 -0.097872 0.019483
-0.406194 -0.091701 -0.039031
-0.383909 -0.088261 0.046646
0.258406 0.078169 -0.062089
-0.210267 0.050962 -0.085741
-0.213675 0.035878 0.093419
0.193226 -0.099215 0.010263
0.045698 -0.099581 0.006260
0.427759 0.086995 0.049410
0.455354 0.099852 -0.004698
-0.441476 -0.021453 0.097663
-0.190659 -0.081222 -0.057756
0.448541 -0.092905 -0.036181
-0.347526 0.074142 -0.066825
-0.134000 0.071372 0.070121
-0.411867 0.093848 0.034573
0.117695 0.091868 -0.039184
-0.358714 -0.059615 -0.079840
0.179035 -0.095214 0.029911
-0.182231 -0.099208 -0.009973
-0.372978 0.091891 -0.039132
0.052815 -0.091861 0.039025
-0.366852 0.051884 0.085558
-0.435316 0.099898 -0.003217
-0.441727 -0.013344 0.099133
-0.226278 0.098114 -0.019080
0.113163 -0.002492 0.099988
0.280062 0.070754 0.070738
0.295251 0.083110 -0.055322
0.228767 0.098501 -0.016860
-0.096406 0.087577 -0.048064
-0.008686 0.099189 0.012883
-0.310895 0.099939 -0.001924
-0.439165 -0.079604 0.060301
-0.170719 0.078130 -0.062139
-0.023543 0.003689 0.099958
0.163931 -0.098261 -0.016902
-0.203272 0.098828 0.015158
-0.390440 0.021576 -0.097325
0.059023 0.070437 0.071056
-0.397616 0.049350 0.087057
-0.001475 -0.002649 0.099983
-0.210438 0.092958 -0.036667
-0.205157 0.054479 -0.083587
-0.258091 0.008009 -0.099357
-0.061730 -0.068654 -0.072242
-0.437775 0.028177 0.095996
-0.091050 0.099951 -0.001530
0.412932 0.081988 0.057335
0.177161 0.001022 -0.099679
-0.331671 -0.099494 0.007307
0.264871 0.096165 0.027439
0.042273 -0.050043 0.086509
0.239252 0.080858 0.058985
0.444385 0.047036 -0.087964
0.167710 -0.087656 -0.047469
0.301405 -0.042809 -0.089999
0.122065 -0.054132 0.084027
-0.302347 -0.094466 -0.031844
-0.373348 -0.041550 0.090937
0.248669 0.099831 0.005733
-0.036064 0.086430 0.050365
-0.386947 0.047851 -0.087549
-0.317910 0.025208 0.096859
0.112409 -0.039449 -0.091484
0.119266 0.066226 0.074998
-0.341891 -0.067377 -0.073414
0.187587 -0.081206 0.058142
-0.298890 0.055577 0.083204
0.147473 -0.092698 0.037090
0.366808 -0.088021 -0.046754
0.019757 0.014244 -0.098665
-0.423604 0.023131 0.097340
-0.418441 0.078786 -0.061294
0.025702 -0.052020 -0.084977
-0.382482 0.043506 -0.089763
-0.327498 -0.076400 -0.063999
0.000005 -0.061918 -0.078054
-0.194122 0.079993 0.060101
0.036394 0.068052 -0.073025
-0.324407 -0.078782 0.061360
0.338215 0.059429 0.080528
0.225425 -0.084077 -0.053555
0.236193 -0.055457 0.083126
-0.118508 -0.049192 -0.086650
0.135062 0.089822 0.044040
-0.243733 -0.084725 -0.052491
0.408204 -0.067831 -0.073014
0.276683 0.035112 -0.093332
-0.100802 0.050936 0.086119
-0.266923 -0.093975 -0.033207
-0.464836 0.023161 0.097333
-0.220355 -0.041281 -0.090691
0.100279 0.099846 -0.004899
0.331014 0.029009 -0.095392
0.135007 -0.089784 -0.043293
-0.059692 -0.099110 -0.011004
0.163348 0.075682 -0.065078
-0.031416 -0.087578 -0.047623
-0.337556 0.014494 -0.098625
-0.237655 0.055699 -0.082758
-0.206976 0.064283 0.076710
-0.045694 0.086773 0.049785
-0.123101 -0.039763 0.091710
-0.082793 -0.070801 0.070458
-0.288914 0.001301 0.100033
-0.161510 0.061137 -0.078840
0.117114 0.026467 -0.096131
-0.114453 -0.096981 -0.023107
-0.443911 0.081837 -0.057195
0.448213 -0.097438 -0.021061
-0.276909 0.080649 0.059254
-0.115738 -0.087408 -0.047954
-0.386048 -0.095127 -0.029845
0.159926 0.032892 -0.094131
-0.386893 -0.044864 0.089315
0.429562 0.093376 0.035883
-0.255048 0.028589 -0.095514
-0.067490 -0.097118 -0.022495
0.375423 0.032213 -0.094376
-0.059296 0.096690 0.025634
-0.258537 0.078368 -0.061832
0.257845 -0.043386 0.090068
0.347730 0.093660 0.035094
-0.370987 -0.037609 -0.092280
-0.202999 0.048797 -0.087022
0.451629 0.046521 -0.088227
0.093497 0.073927 -0.067069
-0.271956 -0.031961 0.094745
-0.261861 0.071728 -0.069401
0.105691 0.062739 0.077961
-0.008255 0.076883 0.064079
-0.099810 0.091640 -0.039712
0.236365 -0.005462 -0.099532
0.216410 -0.017487 0.098477
0.324442 0.031654 -0.094577
-0.078994 0.037938 0.092601
-0.401461 0.099891 -0.003457
-0.260196 0.006093 0.099882
0.127719 -0.028605 0.095804
-0.279816 0.096733 0.025485
-0.037833 0.029537 -0.095239
-0.084946 0.073948 0.067408
-0.342124 -0.086477 -0.049528
-0.174032 0.004308 0.099938
0.447616 -0.022980 0.097322
-0.214449 0.082562 0.056491
-0.206563 -0.049376 0.086904
-0.033256 0.078475 -0.061694
-0.065959 -0.046705 0.088377
-0.012814 0.013593 0.099131
0.178848 0.085153 0.052525
0.063924 0.099879 -0.003844
0.362999 -0.034367 -0.093516
-0.263547 -0.024075 0.097077
-0.403989 0.086303 -0.050218
-0.390852 -0.054689 -0.083286
-0.217531 0.052059 -0.085092
0.045508 0.033533 0.094263
0.344480 -0.084800 -0.052365
0.272577 0.066131 -0.074719
-0.094213 -0.015742 0.098753
0.118696 0.089285 -0.044732
-0.077403 0.079638 -0.060195
0.023586 0.062156 0.078413
-0.337249 0.099900 -0.003178
-0.169351 0.082859 -0.055690
0.295707 0.040921 -0.090947
0.126222 0.083107 -0.055326
-0.309229 0.011971 0.099345
-0.101328 -0.095078 0.030376
-0.386390 -0.059189 0.080533
-0.292825 0.098528 -0.016691
-0.189003 -0.096121 -0.026424
-0.283453 0.088345 0.046939
0.021831 0.094050 -0.033649
-0.384658 0.028518 0.095898
-0.198191 -0.037610 -0.092279
0.022564 0.019775 -0.097728
0.457432 -0.087885 -0.047020
-0.193092 0.053469 0.084621
0.157797 0.037721 0.092695
0.317653 0.088020 -0.047213
0.169577 0.076733 -0.063887
0.268881 -0.090512 0.042141
-0.434587 -0.093336 0.035346
-0.253011 0.090274 0.043152
-0.369793 -0.095591 0.028612
-0.457275 -0.093444 0.035046
-0.328835 -0.095252 -0.029416
-0.102570 0.098041 0.019770
-0.192143 0.012698 -0.098910
0.049034 -0.006924 -0.099437
-0.064068 -0.023013 -0.096952
-0.108021 0.089907 -0.043509
-0.009102 -0.092474 0.037607
-0.085052 0.070861 -0.070268
0.329602 0.079886 0.060238
0.144736 -0.003622 0.099952
-0.153493 0.006339 0.099874
0.029292 0.047741 -0.087605
-0.137975 -0.099685 0.002951
-0.130278 -0.086000 -0.050336
0.172255 -0.053033 -0.084378
-0.259667 0.094708 -0.031821
0.358671 0.073198 -0.067896
-0.200631 -0.024313 0.097024
-0.438799 0.011145 0.099423
0.398296 -0.098871 -0.013051
-0.258866 -0.015100 0.098855
0.308280 0.097357 0.022832
-0.264791 0.093574 0.035333
0.145356 0.097475 -0.021942
0.424432 -0.055907 0.082821
0.249351 -0.099758 0.000615
-0.160910 0.080987 -0.058445
-0.383155 -0.009268 -0.099216
0.190853 -0.003398 -0.099597
0.423006 0.095257 0.030563
-0.395667 -0.099716 0.001964
-0.008341 0.000994 -0.099680
-0.238209 0.096759 -0.025033
0.236556 -0.020612 -0.097488
0.048956 -0.015255 -0.098468
0.355274 0.095570 -0.029125
-0.352344 -0.080354 -0.058971
-0.273733 -0.046379 0.088543
0.128925 0.047591 -0.087681
-0.392802 -0.098353 0.016683
0.026767 0.099920 0.002899
0.132384 -0.055104 -0.083003
-0.123546 -0.091732 -0.038960
-0.332985 -0.091176 0.040607
-0.137077 0.024418 0.097053
-0.235878 0.049306 -0.086720
-0.159996 -0.085168 -0.051742
0.435137 0.082166 -0.056711
-0.449496 0.005954 -0.099524
-0.426974 0.074044 0.067299
-0.024208 0.096811 0.025216
-0.155862 0.035684 -0.093126
0.068357 0.065734 0.075431
-0.180866 0.012596 -0.098923
0.369835 0.098181 -0.018781
0.046463 0.060658 0.079575
0.230399 0.018761 0.098312
-0.423711 0.062654 0.078026
-0.154970 0.077262 -0.063259
-0.384011 -0.016987 0.098556
0.335366 0.098331 0.018301
-0.460676 -0.077139 0.063479
-0.206985 -0.085192 0.052065
0.038221 -0.091864 -0.038655
0.163773 0.093807 -0.034322
0.072583 -0.008235 -0.099314
0.462710 -0.090965 -0.040731
-0.452866 0.096296 0.026989
-0.186422 0.072916 0.068576
0.174876 -0.099613 0.005254
0.076149 0.041671 0.090986
-0.413808 -0.014156 0.099005
0.242006 -0.038631 -0.091837
0.208142 -0.076990 0.063671
0.141367 -0.088076 -0.046645
-0.413774 0.083796 -0.054312
0.360054 -0.098497 -0.015417
-0.156373 0.070316 0.071176
0.231534 -0.026962 0.096282
-0.424302 0.072376 -0.068754
-0.394807 0.091126 0.041262
-0.141997 -0.030749 0.095181
0.373000 0.072452 0.069041
-0.444115 -0.077435 -0.062734
-0.404755 0.099234 -0.012164
-0.381849 -0.084148 -0.053451
0.438183 0.004042 0.099947
-0.168373 -0.079429 -0.060164
-0.106538 0.068716 -0.072414
-0.106046 -0.096232 0.026405
-0.373377 -0.061741 0.078554
-0.154437 -0.002641 0.099983
-0.419423 -0.021901 -0.097200
-0.338331 0.082215 0.057002
0.352031 -0.042647 -0.090082
-0.069333 -0.077335 0.063226
0.207474 -0.095500 0.028924
0.145950 -0.020842 0.097800
0.288815 -0.017969 0.098401
0.385198 -0.088290 -0.046225
0.218015 -0.099519 -0.006679
0.276368 0.099737 0.007209
0.211878 0.078634 0.061852
-0.306379 0.086914 0.049547
-0.090936 0.041908 0.090883
-0.172166 -0.011311 0.099385
-0.246658 -0.077491 -0.062662
0.392146 -0.074012 0.067070
-0.241215 0.006606 0.099852
0.059790 -0.068683 0.072576
0.368191 -0.069785 -0.071111
-0.083758 0.086611 -0.049697
0.102975 -0.081159 -0.057849
0.085897 -0.087069 -0.048528
0.005820 -0.000517 -0.099687
-0.148554 0.026065 -0.096247
-0.320444 0.075915 -0.064814
-0.106026 0.074789 0.066454
-0.371140 0.039687 -0.091482
-0.105748 -0.025700 -0.096286
0.139187 0.006992 -0.099453
-0.295881 0.096481 -0.025990
-0.466440 -0.091306 -0.039945
-0.197806 0.098444 0.017585
-0.383200 0.014608 0.098970
0.150456 0.099826 0.005887
0.091569 0.040724 -0.091033
-0.126056 -0.061130 0.079028
0.259787 0.099817 0.006183
-0.197423 0.071026 -0.070103
-0.233770 -0.097693 0.020285
0.121481 0.071385 -0.069745
-0.309866 0.044064 0.089842
0.198752 -0.097295 0.022065
0.405389 0.062501 0.078145
0.076143 -0.087927 0.047300
-0.167001 0.048880 -0.086972
0.139624 -0.048037 -0.087333
0.425961 -0.078842 0.061283
0.444328 -0.099646 0.004198
-0.092919 0.090894 -0.041435
-0.276449 0.005510 0.099900
0.259626 -0.077574 -0.062555
-0.052699 -0.013550 0.099101
0.354179 -0.099165 -0.010421
-0.224115 -0.047236 -0.087744
-0.234004 0.071683 0.069809
-0.154091 -0.078764 -0.061020
0.207835 -0.010427 0.099469
0.100918 0.076359 -0.064311
0.217692 0.026173 0.096579
0.180795 0.039325 -0.091638
0.450509 0.089819 0.044046
-0.459054 -0.004954 -0.099548
0.330189 0.019996 0.098041
-0.083490 0.099686 0.007747
0.284655 0.098457 0.017504
0.138945 0.095551 -0.029190
0.148708 -0.061715 0.078574
0.175402 -0.096679 -0.024455
-0.332940 0.059299 -0.080266
0.084571 -0.037930 0.092504
0.289582 0.072043 0.069449
0.075709 -0.094245 -0.032459
0.131751 0.035928 0.093401
0.176238 -0.082630 -0.055684
0.172499 -0.073074 -0.067771
0.155951 -0.090779 0.041524
-0.144651 0.050152 0.086583
-0.399292 0.074238 -0.066716
-0.162755 0.099051 -0.013389
-0.019079 -0.098097 0.018303
-0.185055 -0.067634 0.073550
0.159006 -0.094021 0.033444
-0.244701 0.077017 0.063927
-0.294179 0.006269 0.099877
-0.098116 0.030594 0.095294
0.232868 0.088698 -0.045883
-0.246848 -0.090399 0.042403
-0.156854 -0.098378 0.016529
0.269809 -0.063152 0.077459
0.052086 -0.088659 0.045864
-0.049454 -0.071586 0.069673
0.228229 0.078262 0.062332
0.006501 -0.098101 -0.017915
-0.164859 -0.052564 0.085018
0.080466 0.061212 0.079145
-0.050741 0.092622 0.037804
0.436171 -0.097097 0.022948
0.161458 -0.073829 0.067278
-0.172320 -0.042245 0.090636
-0.058206 0.026732 -0.096054
-0.109056 0.098741 -0.015346
0.041176 -0.093274 0.035517
0.307270 0.027588 0.096168
0.413924 0.040293 0.091582
0.200130 0.074450 0.066838
-0.036186 0.002864 0.099984
0.145674 -0.011633 0.099355
-0.079138 -0.090240 0.042761
-0.215016 -0.059911 0.079973
-0.061189 -0.057182 -0.081591
0.309619 0.014598 0.098972
0.155855 -0.067345 0.073805
-0.368622 -0.089428 -0.043992
-0.356616 0.088963 -0.045363
0.194920 -0.095290 -0.029285
0.386113 0.029175 0.095707
-0.313032 -0.093542 -0.034410
0.284487 0.099752 -0.006685
-0.220922 0.099030 0.013887
-0.211434 -0.099692 -0.002358
-0.399774 -0.055315 -0.082860
0.321787 0.048366 -0.087276
0.149233 0.027444 0.096210
-0.042814 0.009084 0.099618
0.002113 -0.099634 -0.004195
0.167435 -0.017504 0.098474
0.399078 0.081733 0.057711
-0.411678 0.099199 -0.012458
0.111763 -0.098796 -0.013524
-0.305504 -0.065913 0.075068
-0.432689 0.098726 -0.015440
-0.091307 -0.098016 0.018811
-0.073896 0.090842 0.041918
0.030390 0.079003 -0.061014
-0.004123 -0.099137 -0.010719
-0.254250 -0.064767 0.076078
0.325985 0.093917 0.034381
-0.099151 -0.048797 0.087246
-0.274741 0.076143 -0.064556
0.408756 -0.079826 -0.059651
-0.369368 -0.055192 0.083307
0.158184 -0.099717 -0.001551
-0.075045 -0.000642 -0.099683
-0.135885 -0.099635 -0.004165
0.291264 0.076433 0.064589
0.232912 0.084530 -0.053216
0.177794 0.089546 0.044581
0.418119 0.006729 -0.099478
0.166509 0.092596 0.037864
0.439323 0.023288 0.097305
0.152394 0.001316 0.100032
0.143279 -0.064796 0.076052
0.210895 -0.077365 -0.062824
0.141827 0.093847 0.034576
-0.455973 0.042438 0.090654
-0.132434 0.075684 0.065439
-0.392000 0.099700 0.007600
-0.195025 0.086355 -0.050130
-0.146092 0.095005 0.031358
0.237427 0.098476 -0.017023
0.336542 0.072104 -0.069026
0.223300 -0.006124 -0.099511
0.268297 0.043395 -0.089819
0.178504 0.075256 -0.065561
0.373434 0.008188 -0.099340
0.204556 -0.099697 -0.002191
-0.425755 -0.096351 -0.025631
0.033409 -0.077671 -0.062430
-0.074793 -0.088483 -0.045847
0.058871 -0.036573 -0.092722
-0.110315 -0.064046 -0.076351
0.207239 0.030651 0.095278
-0.360264 -0.048994 -0.086767
0.045169 -0.099336 -0.008620
0.065414 0.028630 0.095865
0.196956 -0.006466 -0.099481
-0.223224 0.093153 -0.036141
-0.106594 -0.012508 0.099266
0.098072 0.081963 0.057371
0.452031 0.003345 0.099969
0.333945 0.029506 0.095611
-0.035181 -0.092111 0.038447
0.042238 -0.089743 -0.043375
-0.016795 -0.017368 0.098496
0.168610 -0.097185 -0.022193
-0.027846 -0.002220 -0.099634
-0.062721 -0.035880 -0.092972
0.060051 0.034137 0.094046
-0.037709 -0.034732 0.093748
0.342378 0.097758 -0.020676
0.006796 -0.013966 0.099035
-0.420630 -0.084754 -0.052442
-0.274055 -0.091208 0.040532
0.381054 -0.071843 -0.069053
0.246780 -0.098041 0.018657
0.155169 -0.088542 -0.045730
-0.258651 -0.021014 -0.097399
-0.008323 -0.060819 -0.078906
0.028861 0.060892 -0.079030
-0.148381 -0.075225 0.065695
0.359603 0.033100 -0.094057
-0.025986 0.032924 0.094483
0.097153 0.055040 -0.083206
0.283845 -0.077338 -0.062859
-0.071683 0.099275 -0.011727
0.239775 -0.076239 -0.064181
0.357417 0.087233 -0.048645
0.421702 -0.095053 -0.030100
-0.150333 -0.003350 -0.099598
-0.075079 0.099823 -0.005616
0.054680 0.082724 -0.055890
0.193831 -0.084046 0.053963
-0.144049 0.050263 -0.086154
0.082366 0.079443 -0.060447
-0.057422 0.099838 -0.005135
-0.021279 0.028564 0.095884
0.406225 -0.090031 0.043172
0.395634 -0.058137 0.081305
0.349432 0.085254 0.052354
-0.271198 0.096809 -0.024862
0.086861 -0.041341 -0.090665
0.156834 0.031012 0.095171
-0.042004 -0.094216 -0.032538
-0.239158 -0.027561 -0.095745
0.360626 -0.052235 0.085213
0.313924 0.028264 -0.095609
0.232753 0.096313 0.026929
0.105145 0.050674 0.086274
0.141458 0.074781 0.066463
0.044662 0.060626 -0.079237
0.242221 0.099457 0.010172
-0.042468 -0.097735 -0.019734
-0.361058 -0.041766 0.090843
-0.264040 0.090171 -0.042993
-0.149197 0.001473 0.100027
-0.197130 -0.050525 -0.085861
-0.040913 0.093007 -0.036545
0.109389 0.074958 0.066263
-0.144700 -0.009212 0.099584
0.236423 0.099462 -0.009754
0.436912 -0.037279 0.092785
-0.434246 0.070293 -0.070837
-0.422770 0.052216 -0.085000
-0.241993 -0.060889 0.079215
0.455655 -0.051349 0.085737
0.316220 -0.034637 -0.093419
-0.064128 -0.062893 0.077660
0.435332 0.072439 0.069054
0.074900 0.092740 0.037533
-0.160667 -0.070634 -0.070262
0.450768 0.014194 -0.098673
0.209486 0.083315 -0.055020
-0.228287 0.072520 0.068972
-0.178101 -0.099590 0.005972
-0.447655 -0.081148 -0.057865
0.109484 -0.063840 0.076896
0.341317 0.016855 -0.098251
0.188982 0.016989 0.098593
0.411405 -0.091214 -0.040156
0.465035 0.099961 0.001593
-0.297613 0.086679 -0.049582
-0.420513 -0.099607 0.005422
0.158517 -0.003081 0.099970
0.311315 -0.094719 -0.031141
-0.453368 0.061114 -0.078858
0.058508 -0.093965 0.033600
0.297130 -0.083195 0.055215
0.060060 0.094233 0.033502
-0.368539 -0.086754 0.049423
0.348191 -0.076689 0.064034
0.309027 0.034614 0.093874
-0.295052 0.099929 -0.002236
0.273090 -0.099450 0.007776
0.031503 -0.042338 -0.090233
-0.365819 0.097648 0.021528
0.029955 -0.099592 0.005915
0.364847 -0.099742 -0.000760
0.292902 -0.093464 -0.034627
-0.062867 -0.026857 0.096312
0.096095 -0.077429 -0.062742
-0.425450 -0.091648 -0.039153
0.067443 0.098948 -0.014043
-0.246098 -0.098862 -0.013109
-0.193567 -0.094734 0.031462
-0.124098 0.097770 -0.020619
0.388586 0.090793 -0.041669
-0.281464 -0.033085 -0.093978
0.066893 -0.099683 0.003026
-0.433035 0.070563 0.070929
-0.369504 0.030707 0.095262
0.115851 -0.051685 -0.085175
-0.339820 0.088234 0.047157
-0.284189 -0.047575 0.087934
-0.293888 -0.002671 0.099982
-0.165234 0.096129 -0.027200
-0.066430 -0.055103 0.083367
-0.100481 -0.035860 0.093341
-0.050143 0.096954 -0.024269
-0.211922 -0.098083 -0.018030
-0.151217 0.098836 0.015112
-0.126218 0.080524 -0.059054
0.282768 0.025918 0.096653
-0.395334 0.011271 -0.099049
0.057653 -0.098314 -0.016572
0.375160 0.071113 -0.070016
0.160424 0.004736 0.099925
0.404293 0.094139 0.033764
-0.031849 0.066616 0.074654
0.199574 -0.006746 0.099817
0.440242 -0.000208 -0.099697
-0.175980 -0.003964 -0.099579
0.369128 0.069812 -0.071317
-0.226562 0.038005 0.092572
0.126739 -0.020793 0.097811
0.153568 -0.027528 -0.095755
-0.465268 -0.087419 -0.047935
0.290165 0.099979 -0.000647
-0.323995 0.053474 -0.084256
-0.089844 0.086980 -0.049072
0.074158 0.098298 -0.018146
-0.074691 -0.053084 0.084711
0.010790 -0.039283 0.091918
0.415343 -0.063150 -0.077098
0.464645 -0.099642 -0.003947
0.052259 0.008613 -0.099300
-0.401809 -0.002901 0.099975
0.275409 -0.012555 -0.098895
-0.015863 0.019349 0.098186
0.004970 -0.023167 -0.096917
-0.086761 -0.048534 0.087401
-0.150544 -0.098460 -0.015646
-0.293341 -0.022717 -0.097018
0.082051 -0.045146 -0.088808
0.386704 -0.090975 0.041072
-0.127120 0.022879 0.097396
0.090971 -0.096650 -0.024587
-0.056491 0.004443 -0.099571
0.047467 0.014442 -0.098633
-0.440116 -0.039388 -0.091510
0.038282 0.099761 -0.006592
0.130187 0.059499 -0.080111
0.444126 -0.078309 -0.061607
0.206855 -0.047994 0.087720
0.170757 0.086453 -0.049964
-0.353625 0.025646 -0.096369
-0.042716 0.082999 0.055848
-0.463478 0.051238 0.085940
0.281614 0.058250 -0.081024
-0.289040 0.097316 -0.022653
-0.393566 -0.092011 -0.038314
-0.410271 -0.059665 0.080164
-0.214420 -0.090342 0.042535
-0.149352 -0.034256 -0.093556
-0.066927 0.099846 -0.004876
-0.197330 0.057542 0.081868
-0.349420 -0.098292 -0.016706
0.413596 -0.054575 -0.083363
0.069277 0.076308 -0.064368
0.195815 0.078196 0.062417
-0.399200 0.013548 0.099138
0.016691 0.078816 0.061617
-0.439370 0.003356 0.099968
-0.147058 0.060796 0.079468
-0.359747 -0.099708 0.002219
0.189643 0.010255 -0.099145
-0.088387 0.056945 -0.081911
-0.303622 -0.042450 -0.090182
-0.120604 0.096757 0.025402
-0.062036 0.025885 0.096663
0.327913 -0.089917 -0.043032
-0.417065 0.038637 -0.091936
0.268486 -0.075492 0.065392
0.154943 0.088732 0.046178
0.422188 0.089130 -0.045035
-0.134862 -0.083736 -0.054056
0.460533 -0.066477 -0.074207
0.380055 -0.065069 -0.075449
0.325844 -0.083218 0.055181
-0.281084 -0.010660 0.099447
-0.052347 -0.004138 0.099936
0.390331 0.096478 -0.025999
-0.153020 0.039822 0.091786
-0.083837 -0.092555 -0.037057
-0.401863 0.073766 0.067615
-0.174767 0.016449 -0.098316
-0.415567 0.064006 -0.076592
-0.307561 -0.064820 -0.075669
-0.445311 0.098032 -0.019446
0.342822 0.068546 0.072946
0.376309 -0.037967 0.092488
-0.376432 0.013458 -0.098789
-0.117692 -0.089530 0.044154
-0.269100 -0.088716 0.045751
-0.068501 0.079787 -0.060003
-0.165443 -0.089233 -0.044375
-0.292028 0.031551 -0.094614
0.319736 -0.067595 -0.073222
0.022327 0.083449 -0.054823
0.441520 -0.021892 -0.097202
-0.302385 -0.099703 -0.002005
-0.431850 -0.073316 -0.067498
-0.126150 -0.097626 -0.020219
0.125704 0.075016 -0.065834
-0.465162 -0.099250 -0.009531
0.248293 -0.080766 0.058789
0.138165 -0.096423 0.025748
0.006976 -0.082180 -0.056346
0.099722 -0.053821 0.084238
0.368383 0.026000 0.096629
0.044930 -0.071394 0.069864
0.285385 -0.065161 -0.075368
-0.097119 -0.098001 -0.018543
0.016096 0.087788 0.048032
0.351506 -0.004629 -0.099558
0.350730 -0.038559 0.092231
0.193589 -0.090453 -0.041916
0.182761 -0.035121 -0.093245
0.193491 0.098909 -0.014287
-0.129606 -0.057395 -0.081446
0.095339 -0.028912 -0.095352
-0.327101 -0.089886 -0.043093
-0.295214 -0.046840 0.088308
-0.381455 -0.094559 0.031948
0.063055 0.067316 -0.073674
-0.061038 0.043764 0.089994
-0.346051 0.083152 -0.055260
0.277387 0.055356 0.083354
0.333612 -0.070141 0.071118
-0.197789 -0.080247 -0.059109
-0.271491 -0.077018 0.063634
-0.030028 0.098440 0.017612
-0.374721 -0.086612 -0.049301
-0.280751 -0.041933 0.090771
-0.357875 -0.048600 0.087362
-0.274913 -0.099742 0.001147
0.240278 0.039429 0.091956
-0.270349 0.099281 -0.011671
-0.155056 -0.073696 0.067429
0.306477 -0.007270 -0.099405
-0.187507 -0.038723 0.092160
-0.373516 -0.099685 0.002958
-0.453721 -0.077152 0.063462
-0.301632 0.095001 0.031368
-0.435917 0.029236 -0.095326
0.151010 -0.099042 -0.011725
0.303475 0.013547 0.099138
-0.319055 -0.073939 -0.066791
0.360219 -0.075780 -0.064703
0.134391 -0.055860 0.082853
-0.384536 0.099549 0.009199
0.048336 0.093906 0.034409
-0.289536 0.025500 -0.096412
0.150727 0.094025 -0.033718
-0.448196 0.077767 0.062971
-0.294090 -0.093187 -0.035397
0.322777 0.099892 -0.003437
-0.101494 -0.017688 0.098445
-0.193043 0.017576 0.098500
-0.263516 -0.067731 -0.073103
-0.098126 0.060915 0.079375
0.075390 -0.057326 -0.081494
-0.116252 0.054565 -0.083529
0.373940 -0.072609 -0.068286
0.191823 -0.044086 -0.089349
0.327641 -0.009718 0.099536
0.155878 -0.015869 -0.098370
0.421305 0.072516 -0.068614
0.168832 0.067986 -0.073084
-0.345826 0.089432 -0.044443
0.011725 -0.099670 0.003410
0.288462 -0.059236 -0.080134
0.142515 -0.052597 -0.084636
0.359684 -0.001523 -0.099656
-0.303574 -0.098939 0.012988
0.451332 -0.095880 -0.027255
-0.355979 -0.097522 -0.020686
0.198208 0.099301 0.011818
0.325440 0.087759 -0.047726
-0.149522 -0.021749 0.097597
-0.440165 -0.096449 -0.025297
-0.396219 -0.006914 0.099801
-0.319713 0.079054 0.061311
0.062061 -0.076536 0.064208
0.129531 0.037877 -0.092265
0.367338 -0.002240 -0.099633
-0.194725 -0.076263 -0.064155
0.415105 0.028605 -0.095509
0.300250 -0.087442 0.048253
0.004764 0.054785 0.083742
0.022305 -0.079867 -0.059599
0.408237 -0.043302 0.090111
-0.308484 0.071359 0.070133
0.295449 -0.001563 -0.099654
0.456818 -0.037191 0.092823
-0.101235 -0.027609 0.096094
-0.364821 -0.023907 0.097114
-0.018121 -0.052006 0.085348
-0.051244 -0.036768 0.093007
0.165461 -0.093454 -0.034656
-0.356637 0.000853 0.100047
-0.237091 0.098076 -0.019251
0.439574 -0.063900 -0.076480
-0.106729 0.036979 0.093016
-0.043940 0.049033 0.087245
-0.156404 -0.091514 0.039825
-0.332836 0.033136 0.094406
0.266464 -0.044061 -0.089361
-0.353414 -0.059780 0.080075
-0.048974 0.066465 0.074787
-0.392769 -0.072588 -0.068308
-0.384785 -0.056246 -0.082227
-0.231216 0.099765 0.006915
0.267230 -0.049589 0.086778
-0.284612 -0.074169 -0.066529
-0.082415 -0.098201 0.017647
0.189060 0.099924 -0.002407
-0.029017 0.075597 -0.065175
0.184874 -0.026835 0.096319
-0.312918 0.099430 -0.010087
0.366769 0.010077 -0.099161
-0.131755 -0.070154 -0.070742
0.085835 0.095463 -0.029493
-0.055634 -0.001696 -0.099650
-0.415800 0.099935 0.002420
-0.182491 -0.093524 -0.034460
0.107419 -0.093916 -0.033372
-0.195170 0.096616 -0.025526
-0.219617 0.085648 0.051688
-0.140406 -0.090485 0.042203
-0.098874 0.077593 0.063194
-0.456109 0.011393 -0.099037
-0.037202 -0.099624 -0.004515
0.358999 -0.053414 -0.084152
-0.024374 0.063052 -0.077355
-0.378341 0.064599 -0.076069
-0.455726 -0.016063 0.098703
-0.274818 0.097973 0.020077
0.432498 0.009894 0.099542
-0.461210 0.098752 -0.015279
0.231985 0.099919 0.002937
0.175404 -0.080821 0.058709
-0.108541 0.098744 0.015692
-0.049464 -0.062774 -0.077389
0.164161 0.086909 -0.049193
0.376160 -0.048480 -0.087071
0.115567 -0.024269 0.097034
0.034406 -0.085628 0.051327
0.077204 0.096821 -0.024820
0.355875 0.064966 0.076108
-0.328461 0.071643 0.069849
-0.423510 -0.099584 -0.005785
-0.116923 -0.067710 0.073483
-0.444400 0.034641 0.093865
-0.192789 0.061061 0.079262
0.084563 -0.098687 -0.014214
-0.165268 -0.094215 -0.032542
0.002905 0.099455 0.010184
-0.288323 -0.032568 -0.094164
-0.431208 -0.099389 0.008416
-0.184822 0.088012 0.047591
-0.065884 0.070083 0.071409
-0.111879 0.081438 -0.057782
-0.184651 0.089785 -0.043749
-0.002111 0.056241 0.082752
0.366318 -0.006893 0.099803
-0.232785 -0.022817 -0.096996
-0.003968 0.053019 -0.084524
-0.364023 -0.053812 -0.083882
0.416611 -0.098367 -0.016236
0.355069 0.080133 -0.059557
0.245800 0.065445 0.075686
-0.445552 0.099379 0.010995
0.386494 0.058289 0.081361
-0.112442 -0.026354 -0.096096
0.084532 0.099907 0.003305
-0.272118 0.078538 0.061976
