0.465339 0.001019 0.022578
0.465339 0.036365 -0.090994
0.465339 -0.009323 -0.022817
0.465339 -0.076083 0.041447
0.465339 0.065147 0.034763
0.465339 0.043429 0.047381
0.465339 -0.010003 0.003785
0.465339 0.055263 0.083209
0.465339 0.044442 0.059039
0.465339 0.054908 0.002217
0.465339 0.027099 0.010570
0.465339 -0.020008 0.070117
0.465339 -0.074250 0.052033
0.465339 -0.045873 0.074523
0.465339 0.018218 -0.093250
0.465339 0.010134 -0.071302
0.465339 -0.061108 -0.015583
0.465339 -0.017067 0.023517
0.465339 -0.083723 0.020102
0.465339 -0.036935 -0.076294
0.465339 0.002660 -0.063257
0.465339 -0.075463 0.064082
0.465339 0.036693 0.012294
0.465339 0.011705 -0.026119
0.465339 -0.030911 0.031843
0.465339 -0.033072 0.076176
0.465339 0.023790 0.078604
0.465339 -0.022893 -0.002013
0.465339 0.035262 0.001728
0.465339 -0.026633 -0.084678
0.465339 -0.004080 -0.050708
0.465339 0.054287 -0.052750
0.465339 -0.099193 0.008503
0.465339 -0.029575 -0.061499
0.465339 -0.045622 -0.042759
0.465339 0.059136 -0.040620
0.465339 0.010651 -0.052823
0.465339 0.074631 -0.018561
0.465339 0.095854 -0.006301
0.465339 0.034098 0.049442
0.465339 -0.050321 0.054093
0.465339 0.039637 0.019788
0.465339 0.082045 0.037962
0.465339 0.000649 0.033358
0.465339 0.005347 -0.098245
0.465339 -0.018784 0.088060
0.465339 0.036060 -0.044957
0.465339 -0.059762 -0.046821
0.465339 -0.053698 0.053239
0.465339 0.016004 0.023190
0.465339 -0.013079 0.095988
0.465339 0.074642 0.060327
0.465339 0.020806 0.035527
0.465339 -0.004615 -0.021667
0.465339 -0.092312 -0.037429
0.465339 0.038716 -0.031631
0.465339 0.074321 -0.014117
0.465339 -0.034611 0.071287
0.465339 -0.063180 -0.005504
0.465339 0.081301 0.005046
0.465339 -0.004344 0.064355
0.465339 -0.018517 -0.076374
0.465339 0.003923 0.065947
0.465339 -0.000893 0.063875
0.465339 0.041502 -0.074653
0.465339 0.093582 -0.031888
0.465339 0.013002 0.031944
0.465339 0.028951 -0.032273
0.465339 -0.009452 -0.034810
0.465339 -0.038902 0.086680
0.465339 -0.086572 0.007229
0.465339 -0.039631 -0.075373
0.465339 0.003735 0.048604
0.465339 -0.068005 -0.053491
0.465339 0.075658 0.050849
0.465339 0.000706 0.044834
0.465339 -0.032819 -0.054294
0.465339 -0.018793 -0.012068
0.465339 -0.039525 -0.043045
0.465339 -0.018068 0.059684
0.465339 -0.061544 -0.004161
0.465339 -0.086916 0.027621
0.465339 -0.042478 -0.000801
0.465339 0.052671 0.020322
0.465339 -0.047856 0.025385
0.465339 0.028696 -0.083916
0.465339 -0.064837 0.039620
0.465339 -0.066924 -0.043356
0.465339 -0.093022 0.032205
0.465339 -0.075414 -0.028515
0.465339 0.074222 -0.062868
0.465339 0.024550 0.038166
0.465339 0.034070 0.014971
0.465339 0.002704 -0.026843
0.465339 -0.024998 0.060619
0.465339 0.006131 0.091259
0.465339 -0.071022 0.048547
0.465339 -0.018708 -0.001180
0.465339 0.058657 0.063357
0.465339 -0.047299 0.001588
0.465339 0.067665 -0.061743
0.465339 -0.092318 -0.004773
0.465339 -0.019459 0.018405
0.465339 -0.017782 0.022126
0.465339 -0.003378 -0.078233
0.465339 -0.022865 0.066130
0.465339 -0.020555 0.079471
0.465339 0.059510 -0.026652
0.465339 -0.072485 0.062107
0.465339 -0.075694 0.002686
0.465339 -0.089403 0.025430
0.465339 -0.046117 -0.027273
0.465339 -0.010442 -0.071624
0.465339 0.060897 0.026335
0.465339 0.044499 -0.040983
0.465339 -0.006061 0.001861
0.465339 -0.052818 0.029739
0.465339 0.035902 0.045805
0.465339 0.005598 -0.040511
0.465339 0.088128 -0.037038
0.465339 -0.078962 -0.021006
0.465339 0.029260 0.051857
0.465339 -0.014166 0.066882
0.465339 0.024556 -0.025479
0.465339 0.019788 0.079917
0.465339 0.041064 -0.021519
0.465339 0.031617 -0.060004
0.465339 -0.045993 0.026023
0.465339 -0.068342 -0.058753
0.465339 -0.089624 -0.042330
0.465339 0.058848 -0.013393
0.465339 0.023618 -0.004684
0.465339 -0.064571 -0.062401
0.465339 -0.075339 0.027627
0.465339 0.056182 -0.054725
0.465339 0.035396 -0.073237
0.465339 0.024072 0.028477
0.465339 -0.031037 0.008193
0.465339 0.038916 0.010018
0.465339 -0.003307 -0.035347
0.465339 -0.062212 -0.033482
0.465339 -0.062807 -0.077019
0.465339 -0.004380 0.010303
0.465339 -0.057938 -0.062772
0.465339 0.034891 0.032580
0.465339 -0.018723 0.096262
0.465339 -0.065479 0.008704
0.465339 0.091300 0.019386
0.465339 -0.036123 -0.034071
0.465339 -0.059790 0.025286
0.465339 0.022224 0.051050
0.465339 0.069680 0.071513
0.465339 0.021903 -0.015833
0.465339 0.069140 0.042633
0.465339 0.010425 -0.013813
0.465339 -0.032326 0.019678
0.465339 0.096527 0.024906
0.465339 -0.056817 -0.050879
0.465339 0.018776 -0.030327
0.465339 0.001255 0.090979
0.465339 0.063465 -0.064296
0.465339 0.011029 -0.022849
0.465339 0.051023 -0.042404
0.465339 0.060146 -0.017903
0.465339 0.068297 -0.013140
0.465339 -0.091269 0.025776
0.465339 0.079740 0.060292
0.465339 -0.094882 -0.010145
0.465339 -0.025403 -0.096305
0.465339 0.042379 0.009739
0.465339 0.031012 -0.053545
0.465339 -0.033066 0.011710
0.465339 0.055224 0.055438
0.465339 -0.026534 -0.021185
0.465339 0.033962 -0.045329
0.465339 0.081770 0.010986
0.465339 -0.073744 0.038574
0.465339 0.088487 0.042957
0.465339 -0.017348 0.016017
0.465339 0.034815 -0.043785
0.465339 0.056506 -0.074443
0.465339 -0.010123 0.070960
0.465339 0.074417 -0.022607
0.465339 -0.094234 0.025883
0.465339 0.073809 -0.046180
0.465339 -0.067320 0.056048
0.465339 0.033244 -0.037527
0.465339 0.028554 -0.073606
0.465339 -0.057045 -0.070932
0.465339 -0.058148 0.026670
0.465339 0.028957 -0.038622
0.465339 0.011279 0.031491
0.465339 0.004291 -0.029415
0.465339 -0.029478 -0.019063
0.465339 -0.024298 0.090181
0.465339 0.034420 0.029850
0.465339 0.025712 -0.046693
0.465339 0.005830 0.062934
0.465339 -0.015078 -0.038678
0.465339 -0.032714 0.037550
0.465339 -0.084876 0.051918
0.465339 0.067448 -0.040048
0.465339 0.088185 0.029330
0.465339 -0.002414 0.021357
0.465339 0.036791 -0.088541
0.465339 -0.062308 -0.013568
0.465339 -0.089813 -0.030355
0.465339 -0.080666 -0.054922
0.465339 0.044261 -0.054861
0.465339 -0.062021 -0.068799
0.465339 -0.068119 -0.057341
0.465339 0.002510 -0.049423
0.465339 -0.022773 0.054819
0.465339 0.030936 0.037402
0.465339 -0.017501 0.081892
0.465339 -0.087403 -0.019859
0.465339 0.014081 -0.026389
0.465339 -0.095835 0.007662
0.465339 -0.043319 0.019342
0.465339 0.086416 -0.032573
0.465339 0.069088 0.050924
0.465339 0.028520 -0.029005
0.465339 -0.031843 -0.052855
0.465339 -0.022269 -0.031571
0.465339 -0.013292 -0.061276
0.465339 0.066289 0.069430
0.465339 -0.054483 -0.021006
0.465339 0.004964 0.030465
0.465339 -0.062143 -0.022430
0.465339 -0.079571 -0.012800
0.465339 0.048942 -0.057858
0.465339 0.014577 0.042504
0.465339 -0.097006 -0.011919
0.465339 0.047828 -0.014293
0.465339 0.027289 -0.070104
0.465339 0.030611 -0.051770
0.465339 -0.044176 -0.001182
0.465339 0.062732 -0.002628
0.465339 0.048485 -0.085020
0.465339 -0.040107 0.050624
0.465339 0.030156 0.008346
0.465339 0.047749 0.020728
0.465339 -0.014715 0.055494
0.465339 0.065195 -0.064997
0.465339 0.064768 0.006901
0.465339 -0.059116 0.036654
0.465339 -0.036055 -0.064302
0.465339 0.047013 0.050364
0.465339 0.003616 -0.023107
0.465339 -0.092167 0.009275
0.465339 -0.074817 0.005824
0.465339 0.038701 0.064772
0.465339 0.014510 -0.017225
0.465339 -0.063161 0.028356
0.465339 -0.046494 0.056826
0.465339 0.044047 -0.010501
0.465339 0.032164 0.039736
0.465339 -0.031485 -0.092258
0.465339 -0.010152 -0.094577
0.465339 0.070607 -0.025265
0.465339 0.078519 -0.031919
0.465339 -0.084596 0.002200
0.465339 -0.048206 -0.065017
0.465339 -0.045265 -0.044377
0.465339 -0.008774 0.007326
0.465339 0.094230 -0.015018
0.465339 -0.052142 0.034499
0.465339 0.065243 -0.009691
0.465339 -0.019987 -0.091837
0.465339 0.043171 0.015620
0.465339 -0.013937 0.061629
0.465339 0.016075 0.074073
0.465339 0.012154 0.045828
0.465339 -0.002125 -0.019111
0.465339 -0.031295 0.014179
0.465339 0.063865 -0.036277
0.465339 -0.013735 -0.089140
0.465339 -0.030396 0.083408
0.465339 0.000502 -0.064549
0.465339 0.011194 0.086624
0.465339 0.076756 0.056006
0.465339 -0.038665 -0.028185
0.465339 -0.001671 0.030851
0.465339 0.052733 -0.010047
0.465339 0.013939 0.014055
0.465339 -0.008733 -0.054071
0.465339 -0.075769 -0.041733
0.465339 0.074419 -0.051570
0.465339 0.024337 0.013657
0.465339 -0.006495 0.046844
0.465339 0.050037 -0.048213
0.465339 0.003524 -0.044518
0.465339 0.074421 -0.055348
0.465339 -0.039632 -0.040638
0.465339 0.038408 0.056299
0.465339 0.058743 0.033521
0.465339 -0.094500 -0.012134
0.465339 -0.049762 -0.030282
0.465339 0.019083 -0.000841
0.465339 0.075603 0.023747
0.465339 -0.011398 -0.002679
0.465339 0.046406 -0.021557
0.465339 0.031624 0.090953
0.465339 -0.018924 -0.054616
0.465339 -0.067718 -0.008483
0.465339 -0.082988 -0.011524
0.465339 0.019531 -0.048597
0.465339 0.046762 0.048875
0.465339 0.036937 -0.049431
0.465339 -0.033108 -0.065293
0.465339 -0.029898 -0.008523
0.465339 -0.060316 0.050635
0.465339 -0.012169 0.065400
0.465339 0.024420 0.088964
0.465339 -0.023037 -0.089250
0.465339 0.054914 -0.042040
0.465339 -0.021282 0.093711
0.465339 0.079045 -0.045084
0.465339 -0.009178 0.040232
0.465339 0.047354 0.014777
0.465339 0.030286 0.062877
0.465339 -0.066823 0.061110
0.465339 0.051909 0.010880
0.465339 0.052766 -0.012879
0.465339 0.020504 0.004990
0.465339 0.018515 0.044170
0.465339 -0.058674 0.066687
0.465339 -0.011902 -0.072180
0.465339 -0.019947 0.064641
0.465339 -0.008972 -0.029121
0.465339 -0.022627 0.002083
0.465339 -0.083160 0.048217
0.465339 0.035850 0.075957
0.465339 -0.055345 -0.051781
0.465339 0.010535 0.069546
0.465339 0.027029 -0.040948
0.465339 -0.024364 -0.092223
0.465339 -0.077386 -0.061046
0.465339 -0.094807 0.001402
0.465339 0.086915 0.030018
0.465339 -0.068041 0.062083
0.465339 -0.000450 -0.030506
0.465339 -0.065763 -0.047786
0.465339 0.050543 0.044424
0.465339 0.058755 0.067640
0.465339 -0.084882 -0.041772
0.465339 0.013844 -0.024132
0.465339 0.007172 0.043027
0.465339 0.069338 -0.026037
0.465339 0.019629 -0.046822
0.465339 -0.035659 -0.005557
0.465339 0.035244 0.091055
0.465339 -0.031425 0.060976
0.465339 0.008720 0.077791
0.465339 0.020672 -0.047788
0.465339 0.051844 0.041568
0.465339 0.041361 0.041602
0.465339 -0.037288 -0.025827
0.465339 -0.056692 0.000185
0.465339 0.083052 -0.029529
0.465339 -0.064454 0.058046
0.465339 0.001304 0.063752
0.465339 -0.002391 -0.029044
0.465339 0.035402 -0.089716
0.465339 0.028369 0.002022
0.465339 -0.083330 -0.007244
0.465339 -0.027548 0.013354
0.465339 -0.067618 -0.072958
0.465339 -0.068882 0.044241
0.465339 0.004129 -0.068067
0.465339 0.016817 -0.041416
0.465339 -0.004983 -0.024410
0.465339 0.020804 -0.088187
0.465339 0.074480 -0.034738
0.465339 -0.027027 0.058404
0.465339 0.083380 0.001256
0.465339 -0.083244 -0.040280
0.465339 0.007046 -0.064826
0.465339 0.000415 -0.086269
0.465339 0.053116 -0.014393
0.465339 0.040532 -0.001225
0.465339 -0.018065 0.004632
0.465339 0.064017 -0.057710
0.465339 -0.023931 -0.074159
0.465339 0.057771 -0.024325
0.465339 0.003070 -0.056137
0.465339 0.015051 -0.015356
0.465339 0.007513 -0.066140
0.465339 0.074563 0.035943
0.465339 -0.064593 0.028876
0.465339 0.032226 -0.042306
0.465339 -0.078348 -0.001256
0.465339 0.026396 -0.091131
0.465339 0.022324 0.035160
0.465339 0.053741 0.007229
0.465339 -0.054201 -0.012792
0.465339 0.040631 0.080541
0.465339 -0.018637 0.086594
0.465339 -0.019597 0.085492
0.465339 0.007277 -0.018387
0.465339 0.042586 -0.070055
0.465339 -0.005792 0.039660
0.465339 -0.006553 0.017334
0.465339 0.006268 -0.012448
0.465339 -0.034846 -0.003006
0.465339 0.019720 -0.044055
0.465339 0.014549 -0.070185
0.465339 -0.000328 -0.088310
0.465339 0.044196 -0.077206
0.465339 -0.078133 0.030323
0.465339 -0.069208 0.021462
0.465339 -0.064460 0.019551
0.465339 -0.064201 -0.044916
0.465339 0.042184 0.012916
0.465339 0.086973 0.039783
0.465339 0.005159 0.003910
0.465339 -0.038382 0.070865
0.465339 0.029468 -0.045250
0.465339 0.045241 -0.065609
0.465339 -0.020364 -0.079652
0.465339 -0.011497 0.064095
0.465339 -0.014967 -0.098198
0.465339 -0.010451 0.000215
0.465339 0.039952 0.061030
0.465339 0.023957 0.052287
0.465339 -0.073858 0.015896
0.465339 -0.018328 0.070477
0.465339 -0.050425 0.025341
0.465339 -0.055745 -0.036883
0.465339 -0.005175 -0.063784
0.465339 0.014215 -0.013032
0.465339 -0.091577 0.031662
0.465339 0.045242 -0.057721
0.465339 -0.091834 -0.022174
0.465339 -0.027911 -0.054132
0.465339 -0.039839 0.009418
0.465339 -0.042259 -0.072219
0.465339 -0.048052 -0.039299
0.465339 0.001472 -0.025659
0.465339 0.070661 0.039693
0.465339 0.046884 0.076672
0.465339 -0.001403 0.087791
0.465339 -0.047065 -0.007674
0.465339 0.044300 0.005517
0.465339 0.044610 -0.075935
0.465339 0.065771 -0.016858
0.465339 0.012975 0.020538
0.465339 -0.012104 -0.085155
0.465339 -0.043515 -0.024756
0.465339 -0.064721 0.073855
0.465339 0.022210 -0.092100
0.465339 0.034111 0.075112
0.465339 0.063758 -0.027953
0.465339 0.047691 0.057974
0.465339 -0.062038 -0.060209
0.465339 -0.069304 -0.003713
0.465339 0.011942 0.019544
0.465339 -0.083687 -0.037281
0.465339 -0.010903 0.034343
0.465339 -0.062603 0.006781
0.465339 0.047682 -0.039541
0.465339 0.034305 -0.001817
0.465339 -0.051148 -0.022936
0.465339 0.085771 0.018484
0.465339 0.049269 -0.002380
0.465339 -0.037658 0.052458
0.465339 -0.018447 -0.079060
0.465339 -0.085795 -0.019443
0.465339 0.014322 0.026883
0.465339 -0.049906 0.041393
0.465339 -0.040697 -0.072929
0.465339 -0.081429 -0.056653
0.465339 0.024984 0.059419
0.465339 -0.048313 -0.061903
0.465339 -0.029516 -0.092492
0.465339 0.025026 -0.071684
0.465339 0.077292 0.048302
0.465339 0.015875 0.031704
0.465339 0.040928 0.087949
0.465339 0.063555 -0.008385
0.465339 -0.090471 0.009216
0.465339 0.064058 0.008534
0.465339 -0.024547 0.096921
0.465339 -0.091941 -0.025179
0.465339 0.007775 0.066845
0.465339 0.024689 0.010135
0.465339 0.098073 0.018223
0.465339 -0.037934 0.020868
0.465339 0.055528 -0.046255
0.465339 0.044673 -0.078798
0.465339 0.093986 -0.000759
0.465339 0.006867 0.092504
0.465339 -0.005670 0.099797
0.465339 0.074213 0.015338
0.465339 -0.045309 0.007651
0.465339 -0.037978 -0.055346
0.465339 -0.000320 0.059438
0.465339 0.011844 0.044415
0.465339 0.075790 -0.024889
0.465339 -0.042755 -0.016897
0.465339 -0.032322 -0.024246
0.465339 0.042222 -0.029276
0.465339 -0.010226 0.096576
0.465339 -0.077629 -0.043428
0.465339 -0.069491 0.063025
0.465339 0.044470 0.089380
0.465339 0.019580 -0.081173
0.465339 0.039529 0.044621
0.465339 0.042352 -0.042862
0.465339 -0.013312 0.034387
0.465339 0.089405 -0.039667
0.465339 0.085003 -0.001657
0.465339 0.049459 0.057291
0.465339 0.063438 0.039325
0.465339 0.023095 0.012818
0.465339 0.053187 0.040970
0.465339 -0.013109 0.020871
0.465339 0.037072 -0.036075
0.465339 0.019489 -0.092420
0.465339 0.048540 0.035511
0.465339 0.046639 -0.087909
0.465339 -0.072726 -0.014484
0.465339 0.049378 0.074202
0.465339 -0.052089 -0.081334
0.465339 0.049490 -0.063465
0.465339 -0.020190 0.061597
0.465339 0.038283 -0.000092
0.465339 0.070770 -0.033382
0.465339 -0.018996 -0.046640
0.465339 0.009688 -0.086844
0.465339 0.024127 -0.092877
0.465339 -0.007490 -0.096449
0.465339 0.015341 -0.061402
0.465339 -0.028642 -0.062476
0.465339 -0.005152 -0.090354
0.465339 -0.044065 -0.012995
0.465339 0.056855 0.008807
0.465339 -0.043947 -0.084099
0.465339 0.080450 -0.026238
0.465339 0.075106 0.002936
0.465339 -0.008801 0.011785
0.465339 0.013765 0.048798
0.465339 0.038851 -0.078276
0.465339 -0.013174 0.004095
0.465339 -0.015513 -0.068266
0.465339 0.056749 0.056535
0.465339 -0.047189 0.077526
0.465339 0.020320 -0.095408
0.465339 -0.020248 -0.071567
0.465339 0.002417 0.002933
0.465339 0.015303 0.004099
0.465339 0.031320 -0.078124
0.465339 0.008899 0.065497
0.465339 -0.007970 0.072588
0.465339 -0.071635 -0.048613
0.465339 -0.017287 0.092248
0.465339 0.045085 -0.042574
0.465339 0.010097 -0.017866
0.465339 -0.029437 -0.066859
0.465339 0.087401 -0.009610
0.465339 0.002708 0.085030
0.465339 -0.075943 -0.006074
0.465339 -0.001121 0.089285
0.465339 0.079644 0.023746
0.465339 0.016417 -0.005562
0.465339 -0.060957 0.072484
0.465339 -0.012374 0.024663
0.465339 0.013810 -0.052699
0.465339 -0.015413 -0.040289
0.465339 -0.041850 0.042040
0.465339 -0.008261 -0.080031
0.465339 0.069733 0.053727
0.465339 0.032718 -0.076520
0.465339 -0.085084 0.011384
0.465339 0.080205 0.004158
0.465339 0.020277 -0.018707
0.465339 0.027942 -0.062834
0.465339 0.072949 0.033454
0.465339 0.003045 -0.054298
0.465339 -0.067206 0.054468
0.465339 0.060461 0.015130
0.465339 0.001712 -0.041962
0.465339 -0.091423 0.014712
0.465339 0.000989 0.002952
0.465339 0.080252 -0.042383
0.465339 0.037234 -0.040461
0.465339 -0.010420 0.054908
0.465339 -0.042325 -0.089015
0.465339 -0.068140 -0.001351
0.465339 -0.012316 -0.089907
0.465339 -0.010511 -0.021878
0.465339 0.013917 0.088270
0.465339 -0.080515 0.027934
0.465339 -0.010293 0.077160
0.465339 0.036415 -0.092468
0.465339 -0.036005 0.029315
0.465339 -0.090929 0.012239
0.465339 0.006855 0.094061
0.465339 0.009221 0.086693
0.465339 -0.018865 -0.051948
0.465339 0.066314 0.024077
0.465339 0.083787 -0.053694
0.465339 0.009304 -0.007193
0.465339 -0.008935 0.038707
0.465339 0.042286 -0.085319
0.465339 -0.010064 -0.056017
0.465339 0.065168 -0.074823
0.465339 0.047264 0.080415
0.465339 0.034301 -0.004923
0.465339 0.066567 -0.074293
0.465339 0.085458 0.044070
0.465339 -0.012320 -0.013450
0.465339 0.026308 -0.024840
0.465339 -0.097499 0.009561
0.465339 -0.064429 0.002772
0.465339 -0.030750 -0.025342
0.465339 -0.024097 -0.014440
0.465339 -0.080462 0.043246
0.465339 -0.079207 0.042266
0.465339 0.005865 -0.004273
0.465339 -0.039781 -0.029186
0.465339 0.048447 0.071733
0.465339 -0.038191 -0.024498
0.465339 0.061575 -0.039880
0.465339 0.008797 0.039249
0.465339 0.088044 0.046179
0.465339 -0.056314 -0.045322
0.465339 -0.048577 -0.029002
0.465339 0.032280 0.023313
0.465339 -0.016879 0.026785
0.465339 0.080011 0.014212
0.465339 -0.079429 0.040271
0.465339 0.020831 0.063188
0.465339 0.074774 -0.056802
0.465339 -0.058366 0.028179
0.465339 0.017117 -0.014318
0.465339 0.037506 0.063472
0.465339 -0.080124 0.038716
0.465339 0.029985 -0.027493
0.465339 0.050888 0.053551
0.465339 0.025244 -0.022406
0.465339 0.069634 0.057645
0.465339 -0.044852 -0.077564
0.465339 0.051839 -0.024749
0.465339 -0.072257 -0.019261
0.465339 0.094534 0.011442
0.465339 -0.078720 -0.006318
0.465339 -0.040267 0.036733
0.465339 0.026287 -0.007482
0.465339 -0.085531 0.004216
0.465339 0.015779 0.029744
0.465339 -0.070977 -0.008684
0.465339 -0.098142 -0.002276
0.465339 -0.080069 0.048149
0.465339 0.067364 -0.033411
0.465339 -0.022648 0.009501
0.465339 -0.061175 -0.031962
0.465339 -0.093924 -0.004480
0.465339 -0.046575 0.004952
0.465339 0.009917 -0.038995
0.465339 0.051929 -0.034299
0.465339 0.008353 -0.039499
0.465339 0.022111 0.060834
0.465339 0.035841 -0.013784
0.465339 -0.005001 0.083882
0.465339 0.011818 0.097242
0.465339 0.034836 -0.029918
0.465339 -0.022789 -0.059712
0.465339 0.069222 -0.035979
0.465339 0.085012 -0.031615
0.465339 0.067243 0.008861
0.465339 -0.057392 -0.026110
0.465339 0.028295 0.065690
0.465339 -0.084067 0.023733
0.465339 0.069840 0.055480
0.465339 -0.066545 0.011952
0.465339 -0.076562 0.023298
0.465339 0.057431 0.066359
0.465339 0.053354 0.063255
0.465339 0.036793 -0.073914
0.465339 0.038692 0.077808
0.465339 0.059125 0.054649
0.465339 -0.056296 0.020021
0.465339 -0.011843 0.073593
0.465339 0.011977 -0.048713
0.465339 0.022195 -0.067210
0.465339 0.003976 0.007455
0.465339 -0.033335 0.074399
0.465339 -0.016919 0.029782
0.465339 0.052188 -0.066949
0.465339 -0.023229 -0.066718
0.465339 -0.030294 -0.032190
0.465339 -0.018759 -0.080541
0.465339 0.062681 0.060936
0.465339 0.022498 0.002880
0.465339 0.068676 -0.038591
0.465339 -0.075162 -0.009215
0.465339 0.013576 -0.051218
0.465339 -0.029793 0.027253
0.465339 -0.029298 -0.039063
0.465339 0.089315 0.036153
0.465339 0.006971 -0.024578
0.465339 -0.057783 -0.022828
0.465339 0.043985 0.026855
0.465339 -0.084229 0.046944
0.465339 -0.056810 -0.011531
0.465339 -0.048552 -0.080694
0.465339 0.093258 -0.004753
0.465339 0.041698 0.025519
0.465339 -0.061991 0.071553
0.465339 0.052430 0.027953
0.465339 -0.038873 0.022355
0.465339 0.049131 0.008438
0.465339 0.031105 -0.064176
0.465339 0.008002 0.014981
0.465339 0.052158 -0.084750
0.465339 0.009786 0.030738
0.465339 -0.024701 0.010599
0.465339 0.075764 -0.030076
0.465339 0.060801 -0.045249
0.465339 0.009506 0.079195
0.465339 -0.027265 0.015146
0.465339 0.006955 -0.090929
0.465339 0.062175 -0.013292
0.465339 0.012478 -0.053370
0.465339 0.023149 0.009412
0.465339 0.046768 -0.035426
0.465339 0.036259 -0.007040
0.465339 0.004191 -0.086348
0.465339 0.031940 -0.052483
0.465339 0.062323 -0.008947
0.465339 0.064887 -0.020781
0.465339 -0.058244 -0.009956
0.465339 0.021998 -0.082326
0.465339 0.032233 -0.085259
0.465339 -0.012147 0.029489
0.465339 -0.041646 -0.083345
0.465339 -0.027055 -0.034217
0.465339 -0.042953 -0.077289
0.465339 -0.079572 0.024322
0.465339 -0.073413 0.046396
0.465339 -0.038199 0.090208
0.465339 0.056676 -0.025359
0.465339 -0.046669 -0.015594
0.465339 0.005145 -0.082577
0.465339 0.010202 -0.080753
0.465339 0.017496 0.028748
0.465339 0.090750 0.016028
0.465339 0.018378 -0.084070
0.465339 -0.011964 -0.037929
0.465339 -0.064540 0.026700
0.465339 0.068263 0.048833
0.465339 0.065765 -0.071041
0.465339 0.036490 0.056329
0.465339 -0.048381 0.039010
0.465339 -0.091086 -0.036122
0.465339 -0.045714 0.071889
0.465339 -0.030420 0.051695
0.465339 0.033702 -0.053925
0.465339 0.040474 0.003050
0.465339 0.042425 0.045861
0.465339 -0.059028 0.041630
0.465339 0.036611 0.007980
0.465339 0.076902 0.005729
0.465339 -0.059997 -0.055020
0.465339 0.027524 0.008997
0.465339 0.015212 -0.096518
0.465339 -0.017385 -0.091549
0.465339 0.045090 -0.035879
0.465339 0.015124 0.086325
0.465339 -0.074628 -0.013814
0.465339 -0.043081 0.039354
0.465339 -0.016242 -0.080568
0.465339 0.007840 0.034872
0.465339 0.048997 0.025835
0.465339 -0.029043 -0.036603
0.465339 -0.040008 0.002705
0.465339 0.013228 0.028741
0.465339 -0.049567 0.005802
0.465339 0.037724 0.052400
0.465339 -0.015350 0.018992
0.465339 -0.033498 -0.026335
0.465339 -0.038905 0.056931
0.465339 -0.051699 -0.060041
0.465339 0.043872 0.083944
0.465339 0.007015 -0.089401
0.465339 -0.010033 -0.011825
0.465339 -0.020608 -0.093175
0.465339 0.019069 0.020837
0.465339 -0.008399 0.029173
0.465339 0.017496 0.091408
0.465339 0.059560 -0.015878
0.465339 0.051557 0.083629
0.465339 0.048150 -0.015584
0.465339 -0.027026 -0.029522
0.465339 0.004985 -0.073513
0.465339 0.034358 0.092274
0.465339 -0.063221 0.022225
0.465339 0.025654 0.029979
0.465339 -0.033418 -0.020797
0.465339 0.035723 -0.002568
0.465339 -0.012846 -0.005789
0.465339 -0.032380 -0.059634
0.465339 0.015235 0.069167
0.465339 0.019730 -0.061398
0.465339 0.064549 -0.062766
0.465339 -0.008053 -0.064934
0.465339 -0.001522 -0.014406
0.465339 -0.098670 -0.011140
0.465339 0.040617 -0.058598
0.465339 0.088411 0.003951
0.465339 0.034763 0.079597
0.465339 -0.088856 0.018679
0.465339 0.060106 -0.041700
0.465339 0.060822 0.036126
0.465339 0.046840 0.071444
0.465339 0.008481 -0.077276
0.465339 -0.047722 0.013356
0.465339 -0.033054 -0.091556
0.465339 -0.007288 0.068665
0.465339 0.068200 -0.015985
0.465339 0.069849 0.022623
0.465339 0.035117 -0.084596
0.465339 -0.052132 -0.012422
0.465339 -0.032127 -0.040422
0.465339 0.094278 -0.003846
0.465339 -0.063371 0.052904
0.465339 -0.044741 0.011054
0.465339 -0.033320 0.072350
0.465339 0.080505 0.002702
0.465339 -0.008504 -0.042352
0.465339 -0.053743 0.074647
0.465339 -0.034747 0.074242
0.465339 -0.060146 -0.064358
0.465339 0.034563 0.022972
0.465339 -0.047699 -0.046268
0.465339 0.003034 0.086629
0.465339 0.025213 0.095025
0.465339 0.024486 -0.018142
0.465339 -0.029934 0.092786
0.465339 0.049616 0.048180
0.465339 0.030539 0.067357
0.465339 -0.011435 0.020293
0.465339 -0.054506 0.061695
0.465339 0.088948 0.023826
0.465339 0.066856 0.065289
0.465339 -0.014835 -0.073486
0.465339 -0.094987 -0.030128
0.465339 0.025483 -0.009562
0.465339 0.010228 0.099245
0.465339 -0.009137 0.046269
0.465339 -0.093619 -0.013899
0.465339 -0.018520 -0.036265
0.465339 0.023392 0.086334
0.465339 -0.072416 0.012489
0.465339 0.005610 0.089386
0.465339 0.037771 -0.085910
0.465339 0.063691 0.026126
0.465339 0.001857 0.100001
0.465339 -0.007034 0.020505
0.465339 -0.004111 0.086207
0.465339 -0.033466 0.000568
0.465339 0.047687 0.052195
0.465339 -0.020441 0.027484
0.465339 -0.031284 -0.065535
0.465339 -0.062377 -0.039714
0.465339 -0.010234 0.029604
0.465339 -0.066494 -0.066378
0.465339 -0.058824 0.032782
0.465339 -0.017143 -0.011477
0.465339 -0.041877 -0.012334
0.465339 0.001919 0.015956
0.465339 0.045815 -0.056200
0.465339 -0.087753 -0.021623
0.465339 -0.064516 0.048540
0.465339 0.071543 -0.040584
0.465339 0.018683 -0.007090
0.465339 0.069041 0.008488
0.465339 -0.016390 0.091107
0.465339 0.057770 0.055438
0.465339 -0.042889 -0.056439
0.465339 -0.003384 -0.058475
0.465339 0.008428 0.001049
0.465339 0.066407 -0.060182
0.465339 0.045061 0.001962
0.465339 -0.021822 0.089785
0.465339 0.008617 -0.070713
0.465339 -0.005072 -0.054156
0.465339 -0.052573 -0.028656
0.465339 -0.023488 0.042085
0.465339 0.060541 0.051806
0.465339 0.032902 -0.083968
0.465339 -0.068891 0.054951
0.465339 -0.054450 0.060176
0.465339 -0.086843 0.011838
0.465339 0.039030 -0.081892
0.465339 0.013620 -0.039051
0.465339 0.030217 0.019596
0.465339 0.055076 -0.081183
0.465339 -0.045918 0.013131
0.465339 -0.096746 -0.022334
0.465339 -0.084133 -0.016615
0.465339 0.015425 0.078008
0.465339 -0.059364 -0.063004
0.465339 -0.031981 0.068059
0.465339 0.054504 0.030844
0.465339 -0.060794 0.039211
0.465339 -0.012786 -0.027537
0.465339 0.027676 -0.059557
0.465339 0.050699 0.008471
0.465339 -0.071367 -0.024651
0.465339 0.025496 0.040725
0.465339 0.015090 0.045596
0.465339 0.070469 0.018027
0.465339 0.016760 0.067708
0.465339 0.007762 0.051676
0.465339 -0.090375 -0.011961
0.465339 0.018873 -0.062898
0.465339 -0.099560 -0.006091
0.465339 -0.046882 -0.056111
0.465339 -0.030097 0.090673
0.465339 -0.032517 0.025540
0.465339 0.070217 0.068858
0.465339 0.026737 0.059235
0.465339 -0.037538 -0.059401
0.465339 -0.058296 -0.016940
0.465339 0.008009 -0.012448
0.465339 0.006351 0.028553
0.465339 -0.073233 -0.010691
0.465339 0.060475 0.040314
0.465339 -0.054063 0.013533
0.465339 -0.037975 0.016695
0.465339 0.058020 0.060299
0.465339 0.041056 0.020959
0.465339 0.032759 0.079489
0.465339 -0.011110 -0.079790
0.465339 0.019864 0.019556
0.465339 -0.017109 -0.060953
0.465339 -0.055597 -0.019060
0.465339 0.051705 -0.077727
0.465339 -0.058509 -0.064861
0.465339 0.017157 -0.098135
0.465339 -0.054063 -0.071105
0.465339 -0.028182 0.050733
0.465339 0.014812 0.098236
0.465339 0.040302 0.070533
0.465339 0.099446 -0.004648
0.465339 -0.022289 0.069130
0.465339 0.060492 0.018305
0.465339 0.042701 0.081872
0.465339 -0.050701 -0.083785
0.465339 -0.043836 0.067923
0.465339 0.000392 0.020284
0.465339 -0.014898 0.090418
0.465339 0.086144 0.009439
0.465339 -0.009859 0.027808
0.465339 0.078767 0.021973
0.465339 0.000344 -0.047032
0.465339 0.054017 -0.060348
0.465339 0.052238 0.045177
0.465339 0.098322 -0.002373
0.465339 0.002954 -0.002564
0.465339 -0.043742 -0.071787
0.465339 -0.037495 0.069068
0.465339 -0.068583 0.023762
0.465339 0.055738 -0.024076
0.465339 0.049581 0.082903
0.465339 -0.009959 0.044608
0.465339 -0.041137 0.056036
0.465339 -0.056370 0.021768
0.465339 -0.016839 0.075818
0.465339 -0.028320 0.026470
0.465339 -0.053268 -0.011475
0.465339 -0.065826 -0.018312
0.465339 -0.018667 -0.070747
0.465339 -0.028456 -0.034913
0.465339 -0.002194 0.094427
0.465339 0.024047 -0.072890
0.465339 0.030102 0.013267
0.465339 0.032148 0.051361
0.465339 0.026422 0.005601
0.465339 -0.085757 -0.028475
0.465339 -0.085791 -0.002532
0.465339 -0.027778 0.024377
0.465339 -0.044916 0.022591
0.465339 -0.090566 0.030477
0.465339 -0.012037 0.097094
0.465339 0.093454 0.005820
0.465339 0.053212 -0.057906
0.465339 -0.024250 0.063715
0.465339 -0.007757 0.040988
0.465339 0.076593 -0.048096
0.465339 0.013457 0.061777
0.465339 -0.029504 0.032562
0.465339 0.066477 0.026758
0.465339 -0.007400 0.091125
0.465339 0.052312 -0.039555
0.465339 -0.014533 0.084158
0.465339 0.044490 0.035855
0.465339 -0.060658 0.062559
0.465339 -0.013326 0.040737
0.465339 -0.002434 0.017774
0.465339 -0.061724 0.041884
0.465339 -0.029718 -0.007121
0.465339 -0.050871 0.000016
0.465339 0.029666 -0.037003
0.465339 -0.068778 0.034014
0.465339 0.028041 -0.048891
0.465339 0.084793 0.000887
0.465339 0.076358 -0.018326
0.465339 -0.007447 -0.093227
0.465339 0.040990 0.057674
0.465339 0.036515 0.036767
0.465339 -0.055193 -0.065997
0.465339 0.072019 0.012628
0.465339 -0.052618 0.000091
0.465339 0.077943 -0.045963
0.465339 0.038453 -0.060756
0.465339 -0.020686 -0.049675
0.465339 -0.036950 0.066076
0.465339 0.073548 0.028439
0.465339 0.014201 0.024870
0.465339 0.040265 -0.040889
0.465339 0.090575 -0.028590
0.465339 0.024182 0.011992
0.465339 0.061332 -0.071534
0.465339 0.062150 0.029244
0.465339 -0.033041 -0.093270
0.465339 -0.012600 -0.079968
0.465339 0.092929 -0.026584
0.465339 0.041461 -0.018000
0.465339 0.071373 -0.064457
0.465339 0.004775 -0.011342
0.465339 0.049534 0.052964
0.465339 -0.055447 0.014592
0.465339 0.042414 -0.079516
0.465339 0.033457 0.044522
0.465339 0.074462 0.064816
0.465339 0.000593 0.028649
0.465339 0.034350 0.062383
0.465339 0.089402 -0.004023
0.465339 -0.026376 0.031360
0.465339 0.064166 0.035799
0.465339 0.016605 0.045818
0.465339 -0.045618 0.016435
0.465339 0.011113 -0.057541
0.465339 -0.036437 0.021091
0.465339 -0.063621 -0.016224
0.465339 -0.038717 0.066278
0.465339 0.048392 0.054039
0.465339 0.000157 0.096025
0.465339 0.009980 -0.091509
0.465339 -0.034634 -0.043802
0.465339 -0.011125 0.014044
0.465339 0.036117 0.049996
0.465339 -0.049542 -0.033703
0.465339 -0.026775 -0.081892
0.465339 -0.074382 -0.065758
0.465339 -0.031653 -0.004529
0.465339 0.018555 -0.035795
0.465339 -0.014356 0.063370
0.465339 0.069594 0.028197
0.465339 0.044717 0.073665
0.465339 -0.073124 0.013786
0.465339 -0.041718 -0.084927
0.465339 -0.033110 0.088828
0.465339 0.028455 -0.034688
0.465339 0.004411 0.091977
0.465339 0.080638 -0.000723
0.465339 -0.025712 -0.055544
0.465339 -0.073388 0.000750
0.465339 -0.021354 -0.020323
0.465339 -0.034145 -0.010774
0.465339 -0.019531 -0.030813
0.465339 -0.049637 -0.026568
0.465339 -0.000454 -0.051190
0.465339 -0.081737 0.056889
0.465339 -0.007979 0.037157
0.465339 0.020831 -0.096752
0.465339 0.027048 0.017517
0.465339 0.024401 -0.007719
0.465339 0.008878 0.031956
0.465339 0.085482 -0.033688
0.465339 0.087450 -0.031110
0.465339 0.004869 -0.094312
0.465339 -0.015850 0.037940
0.465339 0.014719 -0.065728
0.465339 0.013608 -0.075142
0.465339 0.049490 0.034430
0.465339 -0.021043 -0.081251
0.465339 -0.035418 0.080007
0.465339 0.086955 -0.038082
0.465339 0.002941 -0.087390
0.465339 -0.013185 -0.035325
0.465339 0.025811 0.060560
0.465339 -0.001284 0.080550
0.465339 0.029013 0.029732
0.465339 -0.005016 0.065876
0.465339 0.052486 -0.025985
0.465339 0.051870 0.030840
0.465339 0.051877 -0.049854
0.465339 0.016935 -0.057104
0.465339 -0.017318 -0.071483
0.465339 0.047949 -0.003078
0.465339 -0.054191 0.073015
0.465339 0.021403 0.000524
0.465339 0.033157 -0.010778
0.465339 0.043159 -0.035532
0.465339 -0.042970 0.016792
0.465339 0.026799 -0.043418
0.465339 -0.030405 0.080078
0.465339 0.028068 0.038553
0.465339 -0.006158 -0.011545
0.465339 0.075424 0.033476
0.465339 0.037891 0.005859
0.465339 0.064701 0.001688
0.465339 0.015295 -0.094539
0.465339 0.033556 0.004781
0.465339 0.035709 0.020023
0.465339 -0.072171 0.066676
0.465339 -0.024973 0.040886
0.465339 -0.083166 0.051074
0.465339 0.071048 -0.047828
0.465339 0.023300 -0.052061
0.465339 -0.095376 0.017004
0.465339 -0.052493 0.014358
0.465339 0.011715 -0.086819
0.465339 -0.092344 -0.023651
0.465339 0.089544 0.014296
0.465339 -0.069835 -0.063889
0.465339 -0.051499 0.017061
0.465339 -0.005333 0.076465
0.465339 0.015848 -0.058650
0.465339 -0.035075 0.034179
0.465339 0.044260 0.042046
0.465339 -0.032286 0.045003
0.465339 -0.050148 0.049055
0.465339 0.073337 -0.003734
0.465339 -0.046984 0.085959
0.465339 -0.055622 0.076770
0.465339 -0.022214 -0.091769
0.465339 0.041555 0.038119
0.465339 0.093961 -0.010995
0.465339 -0.060740 -0.012660
0.465339 0.001389 -0.098272
0.465339 -0.038494 0.055078
0.465339 -0.093687 -0.025879
0.465339 -0.004892 0.067787
0.465339 0.076326 0.038389
0.465339 -0.002130 0.034436
0.465339 -0.001869 -0.096982
0.465339 -0.074111 0.055173
0.465339 -0.069996 -0.045493
0.465339 0.020340 -0.010174
0.465339 0.037586 0.019640
0.465339 0.055887 -0.002837
0.465339 -0.010344 0.042233
0.465339 -0.056824 0.066239
0.465339 0.001486 -0.065922
0.465339 -0.015501 0.020686
0.465339 0.007070 -0.040346
0.465339 0.020194 0.083180
0.465339 -0.025707 -0.073948
0.465339 -0.056533 0.038803
0.465339 -0.061742 0.012422
0.465339 -0.062398 0.039984
0.465339 0.058242 -0.035487
0.465339 -0.032068 -0.076273
0.465339 -0.075106 0.031922
0.465339 0.064365 -0.031110
0.465339 -0.004981 -0.001709
0.465339 -0.079947 0.053153
0.465339 0.012489 0.087745
0.465339 0.089341 -0.005779
0.465339 -0.010581 -0.061747
0.465339 0.044825 0.088102
0.465339 0.059975 -0.063219
0.465339 0.016810 0.054425
0.465339 0.016924 -0.052163
0.465339 0.005966 -0.017044
0.465339 -0.046039 -0.040533
0.465339 -0.064084 0.059728
0.465339 0.024470 0.019295
0.465339 -0.016905 0.017534
0.465339 -0.068523 0.029242
0.465339 0.011280 0.041145
0.465339 0.001344 -0.069458
0.465339 -0.094643 -0.015861
0.465339 -0.056743 -0.035271
0.465339 0.005727 0.025634
0.465339 -0.038383 0.010003
0.465339 0.001515 0.083758
0.465339 0.047666 -0.020716
0.465339 0.064734 -0.012395
0.465339 0.072297 0.015611
0.465339 0.037827 -0.056210
0.465339 -0.072165 -0.068427
0.465339 0.079474 -0.057483
0.465339 0.064312 0.037287
0.465339 -0.064513 -0.022564
0.465339 0.013480 0.081745
0.465339 0.079264 -0.008540
0.465339 -0.033536 -0.049430
0.465339 0.020663 -0.076855
0.465339 -0.086384 0.018954
0.465339 -0.078266 0.061999
0.465339 -0.045692 0.053178
0.465339 -0.048911 -0.012317
0.465339 0.025496 -0.068087
0.465339 -0.001179 -0.056416
0.465339 0.033061 -0.005711
0.465339 0.026325 -0.086220
0.465339 0.084626 -0.003005
0.465339 0.032507 0.084908
0.465339 0.054741 -0.056736
0.465339 0.004395 -0.056995
0.465339 -0.049217 -0.054897
0.465339 0.070331 0.021015
0.465339 0.067530 0.003185
0.465339 0.013438 -0.058844
0.465339 -0.003596 -0.025147
0.465339 0.001776 0.057467
0.465339 0.039912 0.031020
0.465339 -0.049724 -0.059313
0.465339 -0.006713 -0.079235
0.465339 -0.096953 0.004423
0.465339 -0.040149 -0.036570
0.465339 0.027705 0.051556
0.465339 0.082880 0.020684
0.465339 -0.018416 0.029112
0.465339 0.084787 -0.048398
0.465339 -0.010280 0.075694
0.465339 0.012602 -0.027282
0.465339 -0.004567 0.075006
0.465339 0.075130 0.031839
0.465339 -0.040664 0.085008
0.465339 -0.088955 0.030382
0.465339 0.008739 -0.042174
0.465339 0.035169 0.068470
0.465339 -0.040995 -0.079653
0.465339 -0.095771 -0.005064
0.465339 -0.051622 -0.058275
0.465339 0.019744 0.008174
0.465339 -0.073589 0.004590
0.465339 0.024012 -0.078813
0.465339 0.012171 -0.015843
0.465339 0.038370 -0.049046
0.465339 0.017055 -0.073746
0.465339 -0.001990 0.097505
0.465339 0.060117 -0.030136
0.465339 0.045038 -0.088733
0.465339 0.026494 0.019235
0.465339 -0.014597 0.032161
0.465339 0.051596 -0.083144
0.465339 -0.080651 0.001362
0.465339 -0.085249 0.031383
0.465339 0.081406 0.009270
0.465339 -0.015634 -0.072019
0.465339 -0.044539 -0.040291
0.465339 -0.039207 -0.030458
0.465339 -0.049776 -0.069850
0.465339 0.077131 -0.027321
0.465339 0.038601 0.050844
0.465339 0.023075 -0.031354
0.465339 -0.044955 0.042986
0.465339 0.076846 -0.037509
0.465339 0.031928 -0.066778
0.465339 0.065860 0.045683
0.465339 -0.006572 0.019048
0.465339 -0.025014 -0.052843
0.465339 0.001201 0.013827
0.465339 0.088996 0.008082
0.465339 0.037079 0.054709
0.465339 0.073294 -0.015215
0.465339 -0.075170 -0.054228
0.465339 0.052765 0.018196
0.465339 -0.075345 -0.059600
0.465339 -0.005801 0.059804
0.465339 -0.076161 0.035641
0.465339 0.016524 0.085830
0.465339 0.022419 -0.043226
0.465339 0.036627 0.060451
0.465339 -0.060118 0.031285
0.465339 -0.007406 0.061093
0.465339 0.034890 0.013119
0.465339 -0.026411 -0.037798
0.465339 -0.061709 0.059342
0.465339 -0.052878 0.080090
0.465339 0.076350 -0.022446
0.465339 0.099940 0.000891
0.465339 0.017317 -0.042835
0.465339 -0.036913 -0.056754
0.465339 0.069341 -0.000438
0.465339 -0.055225 0.037965
0.465339 0.078129 0.051996
0.465339 -0.064262 0.006585
0.465339 -0.037970 -0.011554
0.465339 0.013427 -0.088313
0.465339 -0.025774 -0.072151
0.465339 0.075591 -0.064621
0.465339 0.076617 0.032294
0.465339 -0.006984 0.092555
0.465339 -0.069144 0.019278
0.465339 -0.076310 0.037915
0.465339 0.082917 0.055961
0.465339 0.005517 -0.049190
0.465339 0.030737 -0.001894
0.465339 0.047921 -0.034674
0.465339 -0.067174 -0.059407
0.465339 -0.056804 -0.024679
0.465339 0.014838 0.079503
0.465339 -0.038283 -0.041129
0.465339 -0.043142 0.083437
0.465339 -0.031935 0.041615
0.465339 0.031198 0.029380
0.465339 -0.050898 0.083538
0.465339 0.041875 0.022559
0.465339 0.078754 -0.013794
0.465339 -0.035887 0.053868
0.465339 -0.046927 0.067301
0.465339 0.076475 0.030613
0.465339 0.009148 -0.061321
0.465339 -0.057680 0.079167
0.465339 0.026892 0.077368
0.465339 -0.035857 0.049725
0.465339 -0.021185 0.041193
0.465339 0.054027 -0.032401
0.465339 -0.012034 -0.070750
0.465339 -0.073310 -0.013025
0.465339 -0.030164 -0.002801
0.465339 -0.068915 -0.041656
0.465339 0.067234 0.060070
0.465339 -0.005097 0.082123
0.465339 0.066303 0.000785
0.465339 0.010486 0.007162
0.465339 -0.037218 -0.050709
0.465339 0.003084 0.083223
0.465339 0.063844 -0.073094
0.465339 0.074138 0.019805
0.465339 0.069377 -0.002818
0.465339 0.090809 0.037040
0.465339 0.024376 0.071793
0.465339 0.026494 0.087005
0.465339 0.037674 -0.087413
0.465339 -0.013037 -0.036861
0.465339 -0.011529 0.001363
0.465339 0.019792 -0.089535
0.465339 -0.070160 -0.006586
0.465339 -0.048000 -0.037852
0.465339 0.048500 -0.047699
0.465339 0.078625 -0.027443
0.465339 0.013241 -0.020976
0.465339 -0.064408 -0.047326
0.465339 -0.042534 -0.054882
0.465339 -0.028294 0.016718
0.465339 0.006447 -0.047810
0.465339 0.001386 -0.021903
0.465339 0.093183 0.030918
0.465339 -0.040987 -0.062472
0.465339 -0.000784 0.083734
0.465339 -0.077360 0.042633
0.465339 -0.078211 0.055688
0.465339 -0.042594 -0.069205
0.465339 0.041645 -0.007449
0.465339 -0.032242 0.051807
0.465339 0.057557 -0.076074
0.465339 0.021731 -0.037270
0.465339 -0.090659 -0.005317
0.465339 0.060608 0.007153
0.465339 0.033023 0.076201
0.465339 0.072917 0.043834
0.465339 0.062242 -0.005436
0.465339 0.093107 0.011751
0.465339 -0.031998 0.012933
0.465339 0.002930 -0.037465
0.465339 0.046218 0.085414
0.465339 0.040559 0.035101
0.465339 0.075524 0.016949
0.465339 -0.048721 -0.036326
0.465339 0.012359 0.090836
0.465339 0.057446 -0.018269
0.465339 -0.053697 -0.060009
0.465339 0.009427 -0.069553
0.465339 0.002724 0.067551
0.465339 0.079676 -0.007120
0.465339 -0.014165 -0.071999
0.465339 -0.067060 0.070709
0.465339 -0.002702 -0.030745
0.465339 -0.026288 -0.065024
0.465339 0.022180 -0.012902
0.465339 -0.038308 -0.044260
0.465339 0.044546 0.038479
0.465339 0.019597 -0.058458
0.465339 -0.078076 0.014337
0.465339 -0.016641 0.053508
0.465339 -0.037148 0.025394
0.465339 -0.071891 -0.034673
0.465339 -0.040310 -0.058432
0.465339 -0.038988 -0.034131
0.465339 -0.024534 0.008946
0.465339 0.024659 -0.053841
0.465339 -0.043739 0.014341
0.465339 -0.082286 0.054149
0.465339 -0.045636 -0.055262
0.465339 0.009599 0.025019
0.465339 -0.070305 0.009373
0.465339 -0.055869 0.036504
0.465339 -0.065212 -0.055678
0.465339 0.041826 -0.035887
0.465339 -0.001316 -0.073012
0.465339 -0.023541 -0.010590
0.465339 0.087850 -0.017713
0.465339 0.050449 0.051180
0.465339 0.037368 0.076754
0.465339 0.043048 -0.052457
0.465339 -0.053602 -0.075252
0.465339 -0.044180 0.089266
0.465339 0.043281 0.065952
0.465339 0.007089 0.026161
0.465339 -0.036701 -0.065601
0.465339 -0.016392 -0.093937
0.465339 0.004993 -0.009445
0.465339 0.040946 0.045915
0.465339 -0.065018 -0.003159
0.465339 -0.062315 -0.027525
0.465339 0.013591 -0.041715
0.465339 -0.025254 0.049839
0.465339 0.050061 -0.037004
0.465339 0.070723 0.013678
0.465339 -0.083553 0.013970
0.465339 -0.064964 -0.007175
0.465339 -0.039258 0.004805
0.465339 0.062065 0.039582
0.465339 0.004294 0.075814
0.465339 0.063188 -0.050584
0.465339 0.012366 0.008295
0.465339 0.037848 -0.006274
0.465339 -0.068157 -0.068322
0.465339 -0.088502 -0.008247
0.465339 -0.053372 -0.066109
0.465339 -0.018526 0.077035
0.465339 -0.058737 0.059783
0.465339 -0.050868 0.024016
0.465339 -0.086286 -0.049781
0.465339 0.003814 0.080668
0.465339 0.072087 -0.046746
0.465339 -0.010901 0.098753
0.465339 0.071098 0.064922
0.465339 -0.092704 0.026543
0.465339 0.089149 -0.044935
0.465339 -0.041606 -0.049486
0.465339 -0.056754 -0.033818
0.465339 0.002595 -0.067278
0.465339 0.024051 -0.050740
0.465339 0.029118 -0.052561
0.465339 0.006220 0.009458
0.465339 -0.040220 0.066982
0.465339 0.032611 0.062149
0.465339 -0.055802 -0.046971
0.465339 -0.031307 0.078649
0.465339 -0.029050 -0.068831
0.465339 -0.006520 -0.015512
0.465339 -0.092969 0.028688
0.465339 -0.042721 0.065394
0.465339 -0.087357 0.021138
0.465339 0.070426 -0.019811
0.465339 0.094964 0.019721
0.465339 0.002745 0.091427
0.465339 -0.063934 -0.052207
0.465339 0.038152 0.007392
0.465339 0.032710 -0.057986
0.465339 0.032252 0.047508
0.465339 0.011659 -0.024044
0.465339 0.083798 -0.005566
0.465339 0.022693 -0.068756
0.465339 -0.084128 0.028368
0.465339 0.021525 0.024836
0.465339 0.059756 0.073627
0.465339 0.067219 0.044720
0.465339 -0.082246 -0.037133
0.465339 -0.000972 -0.085821
0.465339 -0.044406 0.071212
0.465339 -0.005046 0.018538
0.465339 -0.006685 -0.060390
0.465339 0.064299 -0.070017
0.465339 -0.037915 -0.021798
0.465339 -0.019583 0.031620
0.465339 0.018259 -0.067190
0.465339 -0.014176 -0.047979
0.465339 -0.069272 -0.009576
0.465339 -0.087738 -0.013935
0.465339 0.098227 0.003144
0.465339 -0.050698 0.029583
0.465339 -0.023343 0.082612
0.465339 0.008916 0.021768
0.465339 -0.076460 0.050758
0.465339 0.049588 0.062914
0.465339 -0.032257 0.071237
0.465339 -0.048226 -0.051283
0.465339 0.075334 -0.001905
0.465339 0.035551 0.048386
0.465339 -0.006083 -0.028746
0.465339 0.077527 -0.039521
0.465339 -0.086347 0.014984
0.465339 -0.010833 -0.035383
0.465339 0.052989 0.014037
0.465339 -0.030085 0.069784
0.465339 -0.064842 -0.017121
0.465339 -0.080179 0.055469
0.465339 0.040082 -0.007664
0.465339 0.033808 -0.072692
0.465339 -0.035741 0.005075
0.465339 -0.052936 -0.055897
0.465339 -0.010004 0.069297
0.465339 -0.022900 -0.029972
0.465339 0.077615 -0.030612
0.465339 0.006942 -0.056194
0.465339 0.044900 0.010507
0.465339 0.033762 -0.066726
0.465339 0.042454 0.077056
0.465339 -0.077176 0.021081
0.465339 -0.003591 0.015854
0.465339 -0.028441 0.069332
0.465339 0.003654 -0.034588
0.465339 0.042136 -0.045140
0.465339 -0.086988 -0.008304
0.465339 0.048236 0.039215
0.465339 0.040555 -0.016632
0.465339 0.073771 -0.043082
0.465339 -0.027226 -0.001441
0.465339 -0.003709 0.035307
0.465339 -0.049661 -0.052050
0.465339 0.011830 -0.046047
0.465339 -0.027072 -0.068588
0.465339 -0.024647 0.004954
0.465339 -0.060071 0.042605
0.465339 -0.070151 -0.011053
0.465339 -0.019973 -0.016773
0.465339 0.039824 0.040643
0.465339 0.012814 0.063636
0.465339 0.076872 -0.049670
0.465339 0.072677 0.047544
0.465339 0.020103 -0.006033
0.465339 0.036933 -0.043739
0.465339 0.031195 0.066048
0.465339 0.011863 -0.096632
0.465339 -0.040706 0.089363
0.465339 -0.013248 -0.074747
0.465339 -0.017744 -0.085818
0.465339 0.008328 0.026870
0.465339 -0.008731 -0.097578
0.465339 0.026861 0.067034
0.465339 -0.090386 -0.039191
0.465339 0.003535 -0.021346
0.465339 -0.091033 0.022822
0.465339 -0.034040 0.038268
0.465339 0.061347 -0.059960
0.465339 -0.011579 -0.054528
0.465339 0.003477 0.044707
0.465339 0.008294 -0.010745
0.465339 0.091263 -0.034270
0.465339 -0.012894 0.006592
0.465339 -0.070577 0.026693
0.465339 0.093007 -0.035197
0.465339 -0.058120 -0.008396
0.465339 0.003532 -0.015949
0.465339 -0.062369 0.026954
0.465339 0.044495 0.006861
0.465339 -0.020723 0.086752
0.465339 0.021357 -0.017546
0.465339 -0.012120 -0.067426
0.465339 -0.056001 -0.005536
0.465339 0.018725 0.057981
0.465339 -0.094829 0.008857
0.465339 -0.045287 -0.023734
0.465339 0.017118 0.078264
0.465339 -0.010724 0.007065
0.465339 -0.026809 0.046275
0.465339 0.031160 -0.013998
0.465339 -0.005291 0.056248
0.465339 0.035789 -0.010125
0.465339 -0.059378 0.013587
0.465339 -0.012705 0.068720
0.465339 -0.006405 0.051391
0.465339 0.049986 0.078207
0.465339 -0.013494 0.085600
0.465339 0.030745 0.083533
0.465339 -0.033060 -0.044807
0.465339 -0.014166 0.015581
0.465339 -0.057945 -0.036781
0.465339 -0.009746 -0.006702
0.465339 0.011735 0.060610
0.465339 0.046921 0.002676
0.465339 0.018937 0.033917
0.465339 0.014158 0.074129
0.465339 -0.065072 0.066243
0.465339 -0.084182 0.021721
0.465339 0.011649 -0.033905
0.465339 0.033614 0.031660
0.465339 -0.061422 0.028540
0.465339 -0.000485 -0.076011
-0.466955 0.062917 -0.071044
-0.466955 -0.034417 0.002665
-0.466955 0.014159 0.038784
-0.466955 -0.086646 -0.044976
-0.466955 -0.089582 0.006586
-0.466955 0.008977 -0.010312
-0.466955 0.055075 0.004227
-0.466955 -0.086642 -0.016372
-0.466955 0.028958 0.065420
-0.466955 -0.067247 0.030218
-0.466955 -0.020113 0.079308
-0.466955 -0.023438 0.015415
-0.466955 -0.047378 -0.058238
-0.466955 -0.030374 0.085544
-0.466955 -0.005417 -0.046793
-0.466955 -0.046621 0.086854
-0.466955 0.008058 -0.052302
-0.466955 0.041680 0.014114
-0.466955 -0.034645 -0.073592
-0.466955 0.085991 0.019304
-0.466955 -0.007108 0.011675
-0.466955 -0.034314 -0.053551
-0.466955 0.004229 -0.061836
-0.466955 0.012129 -0.077771
-0.466955 0.018591 -0.006175
-0.466955 -0.012146 -0.025268
-0.466955 0.033756 -0.048066
-0.466955 -0.076772 0.037482
-0.466955 -0.058094 -0.071759
-0.466955 0.057916 0.054030
-0.466955 0.010262 -0.048647
-0.466955 0.011794 -0.019602
-0.466955 -0.019833 0.021538
-0.466955 0.053339 -0.022339
-0.466955 -0.021099 -0.070930
-0.466955 0.056997 -0.047859
-0.466955 -0.047659 0.036445
-0.466955 0.001287 -0.057055
-0.466955 0.065704 -0.044131
-0.466955 0.017663 -0.079729
-0.466955 0.016676 -0.015018
-0.466955 -0.081862 -0.056755
-0.466955 0.013949 -0.071936
-0.466955 -0.005804 -0.086710
-0.466955 -0.032842 0.063135
-0.466955 -0.003041 -0.081832
-0.466955 0.021938 0.081411
-0.466955 0.025682 0.008636
-0.466955 0.011452 -0.083571
-0.466955 -0.066980 -0.013248
-0.466955 0.063077 0.054899
-0.466955 0.080071 0.039772
-0.466955 0.066393 0.009699
-0.466955 0.063717 0.021803
-0.466955 -0.034118 -0.030649
-0.466955 -0.047591 0.083491
-0.466955 0.060527 0.023152
-0.466955 -0.002499 0.035856
-0.466955 -0.007205 0.090962
-0.466955 0.068162 -0.010512
-0.466955 0.066213 -0.057866
-0.466955 0.030544 0.029467
-0.466955 0.087572 0.041990
-0.466955 -0.089314 -0.043164
-0.466955 -0.007331 -0.011491
-0.466955 -0.034328 0.069186
-0.466955 -0.062452 -0.016919
-0.466955 0.050056 0.004122
-0.466955 0.008808 -0.034004
-0.466955 0.044650 -0.027076
-0.466955 0.019513 -0.071573
-0.466955 -0.029370 -0.044439
-0.466955 0.046023 0.081019
-0.466955 0.020380 -0.026585
-0.466955 -0.042752 -0.074363
-0.466955 -0.010383 0.045333
-0.466955 -0.021211 0.073356
-0.466955 -0.034788 -0.027646
-0.466955 -0.064125 -0.032100
-0.466955 0.056547 0.070168
-0.466955 0.084325 -0.029128
-0.466955 0.025911 0.062108
-0.466955 0.019723 -0.039542
-0.466955 0.093489 -0.019292
-0.466955 0.069176 -0.059306
-0.466955 -0.009966 0.015314
-0.466955 0.005207 0.080724
-0.466955 0.040128 -0.062478
-0.466955 -0.080097 -0.007960
-0.466955 -0.017233 0.085125
-0.466955 -0.061320 -0.037496
-0.466955 0.049650 -0.061704
-0.466955 -0.097037 0.020273
-0.466955 0.002627 0.017136
-0.466955 -0.045263 0.088330
-0.466955 -0.027718 -0.030423
-0.466955 -0.021663 0.093356
-0.466955 -0.027570 -0.015592
-0.466955 -0.004830 -0.085128
-0.466955 -0.028223 0.023286
-0.466955 0.055588 0.079409
-0.466955 0.010016 0.081779
-0.466955 0.054104 -0.078640
-0.466955 -0.027190 0.040475
-0.466955 -0.003309 -0.035135
-0.466955 -0.011104 -0.030426
-0.466955 -0.051684 -0.031665
-0.466955 0.025226 -0.000968
-0.466955 0.006073 0.046683
-0.466955 -0.029862 -0.040410
