0.465339 0.015869 0.051809
0.465339 -0.042830 0.022274
0.465339 0.016031 0.071535
0.465339 0.050619 -0.062024
0.465339 -0.022836 0.042617
0.465339 0.016180 0.044460
0.465339 -0.090259 -0.005967
0.465339 0.002919 0.099432
0.465339 -0.018583 -0.027273
0.465339 -0.043486 -0.072788
0.465339 -0.053258 -0.013438
0.465339 0.003998 -0.085333
0.465339 0.034086 -0.038052
0.465339 -0.047917 -0.074108
0.465339 0.084643 -0.004282
0.465339 0.010554 0.077320
0.465339 0.033621 0.066744
0.465339 -0.088879 -0.024811
0.465339 -0.041799 0.073095
0.465339 0.018425 -0.038551
0.465339 0.043314 0.009519
0.465339 0.023291 -0.045307
0.465339 -0.043150 -0.057742
0.465339 -0.042132 0.016833
0.465339 0.074920 0.048950
0.465339 0.034479 0.019054
0.465339 0.042866 -0.084705
0.465339 0.091261 -0.021009
0.465339 0.005601 -0.050664
0.465339 0.055335 -0.045110
0.465339 0.013209 -0.067828
0.465339 -0.076461 -0.015844
0.465339 -0.009947 -0.019280
0.465339 0.057075 -0.052314
0.465339 0.022007 -0.024410
0.465339 -0.003035 0.084452
0.465339 0.057151 0.007449
0.465339 0.046310 -0.080176
0.465339 0.044921 0.038927
0.465339 -0.050101 0.025708
0.465339 -0.056683 0.006212
0.465339 0.026551 -0.000755
0.465339 -0.098163 -0.016717
0.465339 0.097152 0.016239
0.465339 -0.023752 0.010372
0.465339 -0.025921 -0.012409
0.465339 -0.051165 0.081460
0.465339 0.055411 -0.053070
0.465339 0.018131 0.041908
0.465339 -0.026608 0.090166
0.465339 -0.039696 0.000057
0.465339 -0.082539 -0.047934
0.465339 -0.061659 -0.056158
0.465339 0.079579 -0.009181
0.465339 0.060379 0.065178
0.465339 -0.011803 0.049889
0.465339 -0.059705 -0.004539
0.465339 -0.046888 0.062102
0.465339 -0.048421 -0.077631
0.465339 -0.013267 0.089216
0.465339 0.040463 0.018570
0.465339 0.083559 -0.034179
0.465339 -0.045522 -0.042243
0.465339 0.050754 0.035908
0.465339 0.022218 0.084037
0.465339 0.045997 -0.078579
0.465339 0.019260 0.061791
0.465339 0.036878 0.066145
0.465339 0.038884 0.008716
0.465339 -0.056588 -0.045478
0.465339 0.087900 0.001936
0.465339 0.090865 0.020726
0.465339 0.079046 0.054247
0.465339 0.068590 -0.019408
0.465339 -0.014520 0.001991
0.465339 -0.028952 0.008053
0.465339 -0.002150 0.074212
0.465339 -0.084540 -0.051963
0.465339 0.025009 -0.026013
0.465339 -0.092268 0.003514
0.465339 0.031529 0.021221
0.465339 -0.018711 -0.052352
0.465339 -0.060497 -0.066932
0.465339 -0.080949 0.035359
0.465339 -0.034962 -0.068962
0.465339 0.063874 -0.004028
0.465339 -0.048799 -0.084823
0.465339 0.078039 -0.039775
0.465339 -0.001236 -0.071441
0.465339 0.004985 -0.000448
0.465339 -0.051950 -0.058073
0.465339 0.039205 0.061850
0.465339 -0.056852 -0.047706
0.465339 0.074750 0.063237
0.465339 0.071486 0.061158
0.465339 0.042060 -0.015349
0.465339 -0.037179 -0.065411
0.465339 0.021949 0.050196
0.465339 0.035032 0.061140
0.465339 -0.003760 -0.089694
0.465339 0.056048 0.022042
0.465339 0.018328 0.017122
0.465339 0.027695 0.054720
0.465339 0.006079 0.082596
0.465339 -0.060018 -0.017374
0.465339 -0.090259 -0.018551
0.465339 -0.045238 0.027037
0.465339 -0.016964 0.050976
0.465339 0.005333 0.024930
0.465339 -0.045186 -0.021454
0.465339 -0.063650 0.071688
0.465339 -0.037461 -0.010354
0.465339 -0.029053 -0.059877
0.465339 0.053836 0.041586
0.465339 -0.072771 0.030122
0.465339 -0.055590 -0.060518
0.465339 0.011963 0.032506
0.465339 0.051253 0.078061
0.465339 0.040438 -0.090449
0.465339 0.006463 0.092759
0.465339 0.025394 0.015357
0.465339 0.005961 0.001818
0.465339 0.059610 -0.007691
0.465339 0.086581 0.046276
0.465339 -0.060094 -0.014135
0.465339 0.040410 0.022340
0.465339 0.080566 -0.051313
0.465339 0.032490 -0.043161
0.465339 -0.048362 -0.041694
0.465339 -0.037247 -0.070281
0.465339 0.030294 0.003038
0.465339 -0.037397 -0.005813
0.465339 -0.062280 0.020424
0.465339 -0.055335 -0.034301
0.465339 0.016595 -0.054012
0.465339 -0.055631 0.011725
0.465339 0.062619 -0.033749
0.465339 0.012262 0.053875
0.465339 0.056301 -0.055160
0.465339 -0.003240 0.015519
0.465339 0.036671 0.089162
0.465339 0.041821 0.029223
0.465339 0.040792 -0.052143
0.465339 0.037962 0.059997
0.465339 0.090140 0.008022
0.465339 0.040577 0.011666
0.465339 0.068180 -0.015066
0.465339 -0.017964 0.000956
0.465339 -0.000592 -0.036660
0.465339 0.041297 -0.013363
0.465339 0.016163 0.036031
0.465339 0.009934 -0.012801
0.465339 -0.003289 -0.075002
0.465339 -0.065307 -0.034107
0.465339 0.019145 -0.094786
0.465339 0.017682 -0.078172
0.465339 0.036812 -0.086544
0.465339 -0.074473 0.045753
0.465339 0.009601 -0.031230
0.465339 -0.046554 -0.069352
0.465339 0.015777 0.066781
0.465339 -0.000991 -0.097591
0.465339 0.052734 0.070295
0.465339 -0.035921 -0.061451
0.465339 0.068199 -0.005576
0.465339 0.030403 -0.010819
0.465339 -0.056077 0.038154
0.465339 0.000945 0.057263
0.465339 0.014148 -0.045247
0.465339 -0.006055 -0.005751
0.465339 -0.082691 -0.037630
0.465339 -0.015915 0.087621
0.465339 -0.022555 -0.038322
0.465339 0.066620 0.018089
0.465339 0.084632 -0.002286
0.465339 -0.021146 -0.037236
0.465339 0.043729 0.073212
0.465339 -0.040254 -0.041310
0.465339 -0.029530 -0.019809
0.465339 0.089583 -0.003687
0.465339 -0.006193 -0.031828
0.465339 -0.020877 0.054444
0.465339 -0.091229 0.032027
0.465339 -0.055827 0.074984
0.465339 -0.031046 -0.038344
0.465339 -0.018225 0.029418
0.465339 -0.083391 -0.006096
0.465339 0.004050 -0.060672
0.465339 0.001719 -0.064397
0.465339 -0.046215 -0.057817
0.465339 0.075581 0.058924
0.465339 0.021849 0.022382
0.465339 0.029948 -0.035792
0.465339 0.026008 -0.012456
0.465339 0.044224 0.001521
0.465339 -0.029689 -0.081630
0.465339 -0.018186 0.079491
0.465339 0.017428 -0.056782
0.465339 0.049580 -0.075967
0.465339 0.042896 -0.047297
0.465339 -0.020456 -0.030468
0.465339 0.017169 -0.024779
0.465339 -0.002695 -0.018728
0.465339 -0.039115 0.051301
0.465339 -0.000484 0.023515
0.465339 0.033545 -0.005056
0.465339 0.065164 0.013615
0.465339 -0.006231 0.044944
0.465339 0.000576 0.053902
0.465339 -0.025949 0.073682
0.465339 -0.067972 0.064449
0.465339 0.084385 -0.015538
0.465339 0.071930 -0.020885
0.465339 0.014704 -0.069793
0.465339 -0.054028 0.083929
0.465339 0.019479 -0.097496
0.465339 0.097008 0.023097
0.465339 -0.009768 -0.094642
0.465339 0.030350 0.081324
0.465339 -0.062819 0.067253
0.465339 0.003419 -0.056210
0.465339 0.005665 0.088260
0.465339 -0.046729 -0.021175
0.465339 -0.073100 -0.014692
0.465339 0.062522 0.009593
0.465339 -0.050046 -0.086086
0.465339 -0.021804 0.097395
0.465339 -0.049918 0.041292
0.465339 -0.090880 0.010824
0.465339 0.068493 0.025588
0.465339 -0.035353 0.081569
0.465339 -0.049654 0.046733
0.465339 -0.096184 -0.008461
0.465339 -0.082531 0.056059
0.465339 -0.009850 0.060580
0.465339 0.008814 0.041100
0.465339 0.032761 0.035702
0.465339 0.050133 0.028627
0.465339 -0.031081 -0.047143
0.465339 -0.024364 0.068821
0.465339 0.019064 -0.065240
0.465339 0.040455 -0.024904
0.465339 -0.046657 -0.009454
0.465339 -0.025687 -0.064627
0.465339 -0.088555 0.031658
0.465339 0.040505 0.061232
0.465339 0.070690 -0.019444
0.465339 -0.000490 -0.067805
0.465339 -0.075216 0.019592
0.465339 -0.032345 0.055194
0.465339 0.091668 -0.019305
0.465339 -0.009242 0.006750
0.465339 0.003218 -0.000289
0.465339 -0.059304 0.062346
0.465339 -0.072868 -0.054915
0.465339 0.002863 -0.096209
0.465339 -0.006368 0.014224
0.465339 0.043757 0.028213
0.465339 -0.027138 0.062947
0.465339 0.033569 0.065047
0.465339 -0.066705 -0.042375
0.465339 -0.077376 -0.056111
0.465339 0.016538 0.074819
0.465339 0.027372 0.095969
0.465339 -0.014711 -0.058853
0.465339 0.025317 -0.037753
0.465339 0.046832 0.082216
0.465339 -0.027355 0.043272
0.465339 -0.017071 0.042056
0.465339 0.061900 0.056653
0.465339 0.037618 -0.092274
0.465339 -0.067913 -0.010181
0.465339 0.082709 0.052351
0.465339 0.075164 0.027913
0.465339 -0.019043 0.055465
0.465339 -0.046356 0.052238
0.465339 -0.002623 0.092679
0.465339 -0.069282 0.035126
0.465339 0.096435 -0.001130
0.465339 0.078946 0.050921
0.465339 0.040121 0.071793
0.465339 0.077145 -0.002213
0.465339 0.069465 -0.039220
0.465339 0.036488 -0.029589
0.465339 0.067757 0.037947
0.465339 -0.027772 -0.091120
0.465339 -0.097093 -0.015818
0.465339 0.070682 0.011109
0.465339 0.029118 0.037042
0.465339 0.025340 -0.041329
0.465339 0.095713 -0.003128
0.465339 0.070971 -0.058859
0.465339 0.011421 -0.045335
0.465339 0.022097 -0.026161
0.465339 -0.030924 0.021889
0.465339 0.063009 0.066552
0.465339 -0.038171 -0.036882
0.465339 0.026805 -0.033697
0.465339 -0.040449 -0.070042
0.465339 0.079794 -0.040056
0.465339 0.064333 -0.015394
0.465339 0.068893 -0.045777
0.465339 0.076681 -0.053437
0.465339 0.048690 0.054276
0.465339 -0.003006 0.096805
0.465339 0.028005 -0.007863
0.465339 -0.059987 0.022832
0.465339 -0.074056 0.043286
0.465339 -0.033017 0.011182
0.465339 -0.058947 -0.026988
0.465339 0.041556 0.037362
0.465339 0.060286 0.009752
0.465339 0.002953 -0.065273
0.465339 0.089414 0.015315
0.465339 -0.029402 0.089909
0.465339 -0.000448 0.055366
0.465339 -0.034981 0.020222
0.465339 0.011762 -0.071356
0.465339 0.061758 -0.035432
0.465339 0.053846 0.034446
0.465339 -0.036464 0.007606
0.465339 0.070699 -0.045969
0.465339 -0.009302 -0.083108
0.465339 -0.005708 -0.067716
0.465339 0.021853 0.004192
0.465339 0.024109 0.027699
0.465339 0.005224 0.038508
0.465339 -0.026461 0.027560
0.465339 0.073891 0.005066
0.465339 -0.046578 -0.080286
0.465339 -0.019480 -0.095101
0.465339 -0.069295 0.010087
0.465339 0.017476 -0.010138
0.465339 0.018197 0.074993
0.465339 -0.063143 0.022899
0.465339 -0.079440 -0.033786
0.465339 -0.004901 -0.075453
0.465339 -0.084507 0.016932
0.465339 0.025736 -0.019617
0.465339 -0.067382 -0.018478
0.465339 -0.014642 0.048365
0.465339 0.034088 -0.068063
0.465339 -0.000002 0.088396
0.465339 -0.002292 -0.085089
0.465339 0.051273 -0.023561
0.465339 -0.040440 -0.022708
0.465339 0.014995 -0.077897
0.465339 -0.049419 0.058752
0.465339 -0.007905 0.064951
0.465339 0.064909 -0.017887
0.465339 0.032219 0.005987
0.465339 0.027927 -0.032455
0.465339 -0.078609 -0.057229
0.465339 0.061441 -0.000270
0.465339 0.070570 -0.025448
0.465339 -0.025112 -0.020468
0.465339 0.034235 0.001236
0.465339 -0.011868 -0.060345
0.465339 -0.054071 -0.060874
0.465339 0.072650 -0.062684
0.465339 0.045851 0.084346
0.465339 -0.004624 0.096170
0.465339 0.038248 -0.022752
0.465339 -0.045484 0.025416
0.465339 -0.063538 -0.000216
0.465339 0.037436 -0.009811
0.465339 -0.025647 0.093215
0.465339 0.026806 -0.063946
0.465339 -0.038388 -0.011433
0.465339 0.042981 0.051301
0.465339 0.077012 0.020053
0.465339 -0.080129 0.048580
0.465339 -0.091779 0.026093
0.465339 0.067515 -0.040208
0.465339 -0.029769 0.053810
0.465339 -0.076469 0.011056
0.465339 0.047254 -0.084096
0.465339 -0.053906 -0.042331
0.465339 -0.004533 0.036859
0.465339 0.036739 -0.058808
0.465339 -0.007477 -0.092329
0.465339 0.020562 -0.072570
0.465339 0.020856 -0.000764
0.465339 -0.015223 -0.067688
0.465339 0.037673 -0.077031
0.465339 -0.071809 -0.045055
0.465339 0.092347 -0.030138
0.465339 -0.005008 -0.066501
0.465339 0.018586 0.082176
0.465339 0.022014 -0.018348
0.465339 -0.022547 0.080740
0.465339 0.095076 0.026323
0.465339 -0.057102 0.078219
0.465339 -0.071503 0.047501
0.465339 0.076689 -0.015940
0.465339 -0.031845 0.014017
0.465339 -0.021550 -0.033996
0.465339 -0.030930 -0.032307
0.465339 -0.040843 -0.010219
0.465339 -0.019953 -0.063750
0.465339 -0.082231 -0.033500
0.465339 0.001789 -0.029399
0.465339 0.096614 -0.007947
0.465339 -0.010662 -0.058291
0.465339 0.022847 -0.047262
0.465339 -0.046893 0.014354
0.465339 -0.046504 0.063626
0.465339 0.058936 -0.002073
0.465339 -0.043306 0.027357
0.465339 0.048099 -0.051416
0.465339 0.054972 -0.062818
0.465339 -0.003914 -0.010916
0.465339 0.014809 -0.059316
0.465339 -0.035291 -0.088044
0.465339 0.074555 -0.065296
0.465339 0.081381 -0.040352
0.465339 0.059944 0.004647
0.465339 -0.050370 -0.063363
0.465339 -0.087337 -0.015758
0.465339 0.079552 -0.055747
0.465339 0.027218 0.082842
0.465339 -0.059505 0.027919
0.465339 -0.024781 -0.013499
0.465339 -0.018356 0.088085
0.465339 -0.095920 -0.026014
0.465339 -0.037323 -0.044574
0.465339 -0.066306 -0.062308
0.465339 -0.089254 -0.043875
0.465339 0.080282 0.049888
0.465339 -0.045236 -0.073972
0.465339 0.010700 -0.020643
0.465339 0.004652 0.081525
0.465339 -0.012327 0.085635
0.465339 -0.067330 -0.032416
0.465339 -0.056308 -0.076502
0.465339 0.058552 -0.014292
0.465339 0.027211 0.045355
0.465339 -0.060606 -0.059362
0.465339 -0.059240 0.034624
0.465339 0.042453 -0.001158
0.465339 0.036133 0.024918
0.465339 -0.020452 0.058683
0.465339 0.008713 0.009489
0.465339 0.014064 -0.081163
0.465339 0.011085 0.067550
0.465339 0.025006 0.053141
0.465339 -0.055643 -0.048584
0.465339 0.053519 0.075421
0.465339 -0.057925 -0.071580
0.465339 0.004570 0.093238
0.465339 0.028081 -0.016818
0.465339 0.055616 -0.015125
0.465339 -0.086818 -0.027173
0.465339 -0.042686 -0.053960
0.465339 0.018878 0.022014
0.465339 -0.064152 0.067274
0.465339 -0.001674 -0.058443
0.465339 -0.080762 0.011780
0.465339 0.076723 -0.042330
0.465339 0.098359 0.017204
0.465339 -0.006424 -0.010245
0.465339 0.004302 -0.006388
0.465339 -0.054865 0.073108
0.465339 0.050832 -0.069710
0.465339 -0.059994 0.008499
0.465339 0.039336 -0.062089
0.465339 0.007437 -0.094373
0.465339 0.048948 0.045237
0.465339 -0.094481 -0.011868
0.465339 -0.068989 0.062025
0.465339 0.012082 -0.036053
0.465339 0.041237 0.006236
0.465339 -0.055478 0.083019
0.465339 0.028033 -0.068803
0.465339 -0.007838 0.014872
0.465339 0.057397 -0.032103
0.465339 0.003598 -0.008915
0.465339 0.036071 0.004032
0.465339 -0.006078 -0.039551
0.465339 0.015032 -0.034695
0.465339 0.048724 -0.000444
0.465339 0.047777 0.062063
0.465339 0.098948 -0.002427
0.465339 0.066825 -0.073843
0.465339 -0.017338 -0.050743
0.465339 0.027968 -0.020127
0.465339 -0.080583 0.022920
0.465339 0.001473 -0.059844
0.465339 0.037620 -0.079893
0.465339 0.033369 0.069129
0.465339 0.018694 0.087312
0.465339 0.017103 -0.020943
0.465339 -0.001931 0.066440
0.465339 0.010335 -0.087831
0.465339 -0.012209 0.041787
0.465339 -0.053861 -0.023615
0.465339 0.060347 -0.059045
0.465339 -0.037391 0.024093
0.465339 0.032950 0.073623
0.465339 -0.012326 -0.024855
0.465339 -0.085248 -0.032795
0.465339 -0.045022 0.009584
0.465339 -0.038540 -0.022094
0.465339 -0.093424 0.019484
0.465339 0.015363 0.053470
0.465339 -0.004380 0.081871
0.465339 0.071271 0.039018
0.465339 0.002423 -0.097767
0.465339 -0.002363 -0.012970
0.465339 0.066002 -0.014036
0.465339 0.031600 0.014912
0.465339 -0.055290 -0.002884
0.465339 0.003578 0.022397
0.465339 -0.051608 0.013555
0.465339 0.058195 -0.037906
0.465339 -0.036800 0.019211
0.465339 0.041997 0.023892
0.465339 -0.044830 0.083078
0.465339 0.025012 0.087844
0.465339 -0.026004 -0.057897
0.465339 0.060702 0.023243
0.465339 0.009242 -0.077282
0.465339 0.059542 0.025024
0.465339 0.005581 0.070507
0.465339 0.045155 0.060843
0.465339 -0.039654 -0.082713
0.465339 -0.050233 0.048394
0.465339 -0.081226 0.031742
0.465339 0.018626 -0.045354
0.465339 -0.026781 0.022448
0.465339 -0.029397 0.078365
0.465339 -0.044043 -0.053394
0.465339 0.074063 -0.002643
0.465339 -0.012493 0.053012
0.465339 -0.031043 0.047907
0.465339 -0.034472 0.072119
0.465339 -0.079448 -0.012025
0.465339 0.062650 -0.067430
0.465339 -0.006019 0.099090
0.465339 0.060458 0.033128
0.465339 -0.026074 -0.035307
0.465339 -0.010332 -0.056811
0.465339 -0.048921 -0.033662
0.465339 0.063601 0.022621
0.465339 0.065262 0.069743
0.465339 0.049638 -0.071926
0.465339 0.082526 -0.052602
0.465339 -0.017035 0.077709
0.465339 0.029552 -0.083445
0.465339 0.004334 -0.080490
0.465339 -0.082488 -0.053114
0.465339 -0.064717 -0.040324
0.465339 -0.075836 0.012504
0.465339 0.064430 -0.059270
0.465339 -0.078814 0.053303
0.465339 -0.004009 0.010879
0.465339 -0.057509 -0.021657
0.465339 -0.050750 0.023018
0.465339 0.087905 -0.024789
0.465339 0.032743 -0.025545
0.465339 -0.055747 0.031035
0.465339 0.043075 0.013880
0.465339 0.068375 0.070969
0.465339 0.049107 -0.041439
0.465339 -0.034294 -0.003550
0.465339 -0.027926 -0.058691
0.465339 0.025568 0.072291
0.465339 0.005571 0.032355
0.465339 0.082599 0.005477
0.465339 -0.071579 -0.054478
0.465339 0.036155 0.022889
0.465339 0.006643 0.030734
0.465339 -0.017819 0.036923
0.465339 0.052944 0.025172
0.465339 -0.030165 -0.043155
0.465339 0.031769 -0.021570
0.465339 -0.027312 0.006332
0.465339 0.022599 0.051676
0.465339 -0.046385 -0.018572
0.465339 -0.065525 -0.045004
0.465339 -0.040803 -0.078262
0.465339 -0.006874 -0.001135
0.465339 0.010842 0.091758
0.465339 -0.061985 0.065663
0.465339 0.084035 0.018738
0.465339 -0.000151 -0.093107
0.465339 0.059009 -0.061900
0.465339 -0.043818 0.086816
0.465339 0.090936 0.005379
0.465339 0.015488 0.037646
0.465339 -0.070881 -0.003799
0.465339 0.008207 -0.074189
0.465339 0.044605 -0.004497
0.465339 0.022894 0.045505
0.465339 -0.052574 0.068844
0.465339 0.031146 -0.074679
0.465339 -0.043922 -0.043485
0.465339 0.021045 -0.037517
0.465339 0.036457 0.092601
0.465339 -0.073241 0.038389
0.465339 -0.059777 -0.043280
0.465339 0.032809 -0.035678
0.465339 -0.001774 -0.034453
0.465339 -0.040426 0.066623
0.465339 -0.020658 0.092108
0.465339 -0.048856 -0.020148
0.465339 0.048717 -0.055563
0.465339 0.064562 -0.056549
0.465339 -0.024937 -0.070678
0.465339 -0.055703 0.047064
0.465339 -0.020567 0.010933
0.465339 0.048385 -0.062107
0.465339 0.081889 0.041217
0.465339 -0.012832 -0.017795
0.465339 -0.089846 0.001838
0.465339 0.084599 -0.021967
0.465339 0.006287 -0.065037
0.465339 -0.078493 -0.035383
0.465339 -0.036497 -0.054453
0.465339 0.081540 -0.019734
0.465339 0.030687 0.083009
0.465339 0.033686 0.085094
0.465339 0.009805 0.012138
0.465339 0.002497 -0.086224
0.465339 0.036464 -0.074215
0.465339 0.042564 0.018610
0.465339 -0.002164 -0.044773
0.465339 0.064781 -0.053199
0.465339 -0.064529 -0.036176
0.465339 0.029662 0.088715
0.465339 -0.027886 -0.095428
0.465339 0.049047 0.014072
0.465339 -0.011717 -0.011180
0.465339 0.039403 -0.041793
0.465339 -0.028751 0.006273
0.465339 -0.021233 -0.081128
0.465339 -0.091181 -0.022953
0.465339 -0.002777 -0.095176
0.465339 0.000871 0.041225
0.465339 0.088388 -0.016895
0.465339 0.029324 -0.042550
0.465339 0.005360 -0.014484
0.465339 -0.060808 0.074708
0.465339 -0.008576 0.048794
0.465339 0.046874 0.070188
0.465339 0.088182 0.029645
0.465339 0.077568 -0.008281
0.465339 0.050929 -0.032439
0.465339 -0.025243 -0.067744
0.465339 0.051506 0.002370
0.465339 0.060742 0.069058
0.465339 -0.013853 -0.022175
0.465339 0.068121 -0.009556
0.465339 0.012366 0.017753
0.465339 0.045900 0.045805
0.465339 -0.061709 -0.071907
0.465339 0.055565 0.007287
0.465339 -0.016162 0.031814
0.465339 0.024663 -0.018425
0.465339 0.030190 0.060490
0.465339 0.063195 -0.007799
0.465339 0.048606 0.022404
0.465339 -0.069494 0.026762
0.465339 0.062618 -0.019709
0.465339 -0.031171 -0.035348
0.465339 0.028080 -0.067469
0.465339 -0.041416 -0.071652
0.465339 -0.024862 -0.022089
0.465339 0.045356 -0.051969
0.465339 0.076543 -0.028929
0.465339 -0.069409 0.049738
0.465339 0.011464 0.081288
0.465339 0.012544 -0.051206
0.465339 0.033440 -0.010270
0.465339 -0.089760 -0.032832
0.465339 -0.067123 0.057535
0.465339 -0.031069 0.078894
0.465339 -0.046148 -0.045161
0.465339 0.078315 0.009412
0.465339 0.083967 -0.053377
0.465339 0.017598 0.047438
0.465339 -0.042221 -0.056694
0.465339 -0.067680 -0.023087
0.465339 0.034738 -0.029949
0.465339 -0.017957 0.052392
0.465339 -0.063820 0.051994
0.465339 0.080293 0.058902
0.465339 -0.039774 -0.055895
0.465339 -0.014927 -0.004134
0.465339 0.005151 0.048892
0.465339 -0.047881 0.038579
0.465339 0.003407 -0.072273
0.465339 -0.096051 0.023181
0.465339 -0.007359 -0.079312
0.465339 -0.065342 0.036761
0.465339 0.080782 0.033904
0.465339 0.044345 -0.047050
0.465339 -0.067009 -0.050815
0.465339 -0.086532 -0.046904
0.465339 0.004872 0.063836
0.465339 -0.035597 0.048701
0.465339 0.001313 0.089653
0.465339 -0.048636 0.026738
0.465339 -0.046908 -0.049853
0.465339 0.003570 0.038346
0.465339 -0.039615 0.009933
0.465339 0.025338 -0.092068
0.465339 0.066312 0.057076
0.465339 0.084152 -0.038700
0.465339 -0.076591 0.042053
0.465339 0.025664 0.029864
0.465339 0.089898 -0.000601
0.465339 -0.003992 0.004513
0.465339 -0.082918 -0.036100
0.465339 -0.004105 -0.061288
0.465339 -0.016078 0.028958
0.465339 0.031826 0.080430
0.465339 0.048064 -0.037852
0.465339 -0.091358 -0.033860
0.465339 0.015908 -0.048338
0.465339 -0.011069 0.070542
0.465339 -0.044687 0.023448
0.465339 0.000223 -0.014252
0.465339 0.048560 -0.066592
0.465339 0.062680 0.058714
0.465339 -0.051041 -0.047997
0.465339 0.023540 0.019185
0.465339 0.066236 -0.021690
0.465339 -0.008260 0.096888
0.465339 0.068210 -0.068179
0.465339 0.024920 0.035647
0.465339 0.005063 -0.065590
0.465339 -0.002811 -0.055956
0.465339 0.012370 0.028408
0.465339 -0.035716 0.042312
0.465339 0.084751 0.015880
0.465339 -0.019036 0.045825
0.465339 0.038282 -0.020910
0.465339 0.090650 -0.038616
0.465339 -0.078175 0.037864
0.465339 -0.069026 -0.043302
0.465339 -0.006417 0.067333
0.465339 0.002342 0.029634
0.465339 0.086590 -0.027756
0.465339 0.009150 -0.059840
0.465339 0.038599 -0.044660
0.465339 -0.062419 0.077422
0.465339 0.042729 -0.012468
0.465339 -0.052842 0.023376
0.465339 0.000524 0.063120
0.465339 -0.087935 -0.014379
0.465339 0.016637 0.070004
0.465339 0.062654 -0.023518
0.465339 0.023969 -0.079986
0.465339 0.004164 -0.038944
0.465339 0.009756 -0.028221
0.465339 0.042123 0.033951
0.465339 0.056179 0.014373
0.465339 0.024922 0.045424
0.465339 -0.020526 -0.092735
0.465339 0.021679 0.079206
0.465339 -0.029047 -0.056648
0.465339 -0.099360 -0.005947
0.465339 -0.044751 -0.026256
0.465339 0.085555 -0.039781
0.465339 0.029973 0.075252
0.465339 -0.065967 0.056588
0.465339 -0.075058 -0.046173
0.465339 0.004612 0.062054
0.465339 0.088917 -0.019490
0.465339 -0.051677 0.007442
0.465339 -0.029572 -0.035743
0.465339 -0.083568 -0.032657
0.465339 0.053473 0.046771
0.465339 -0.025484 0.036711
0.465339 0.076350 0.064153
0.465339 -0.008752 -0.028488
0.465339 -0.014994 -0.093487
0.465339 -0.008532 -0.080605
0.465339 0.046538 -0.025803
0.465339 -0.024700 -0.033089
0.465339 0.057235 -0.012743
0.465339 -0.085651 0.000104
0.465339 -0.028072 0.087080
0.465339 0.047917 0.000696
0.465339 0.033785 -0.002773
0.465339 -0.056856 0.062452
0.465339 0.092878 0.009850
0.465339 -0.021202 -0.023021
0.465339 -0.078565 0.003147
0.465339 0.014113 -0.051451
0.465339 -0.067614 0.026091
0.465339 0.009298 -0.016495
0.465339 -0.018845 -0.073227
0.465339 0.012598 0.048345
0.465339 0.009042 -0.047280
0.465339 -0.055643 0.028950
0.465339 0.002862 0.081390
0.465339 0.001277 0.069287
0.465339 -0.061928 0.068536
0.465339 0.044509 0.069447
0.465339 0.005688 -0.091537
0.465339 -0.011208 0.082341
0.465339 0.058267 -0.057399
0.465339 0.062876 -0.048657
0.465339 -0.020086 -0.043986
0.465339 -0.033742 0.076624
0.465339 0.030444 0.013927
0.465339 -0.092895 -0.026567
0.465339 0.058067 0.043395
0.465339 -0.009145 -0.026969
0.465339 -0.013916 -0.010193
0.465339 -0.066336 0.007350
0.465339 0.073517 -0.041760
0.465339 0.069687 -0.006937
0.465339 -0.063948 -0.065527
0.465339 -0.008909 -0.018222
0.465339 -0.010877 -0.044972
0.465339 0.044392 -0.016758
0.465339 -0.053123 -0.083437
0.465339 -0.081426 -0.025863
0.465339 0.087785 0.043547
0.465339 -0.008886 0.017649
0.465339 -0.046200 -0.055745
0.465339 -0.002711 0.014284
0.465339 0.038819 -0.029085
0.465339 -0.048355 0.000593
0.465339 0.072877 0.006445
0.465339 0.008134 0.051107
0.465339 -0.022985 -0.031652
0.465339 0.042963 -0.080166
0.465339 0.031848 -0.034134
0.465339 -0.059087 -0.055787
0.465339 0.027138 -0.044614
0.465339 -0.083976 0.044513
0.465339 -0.040564 -0.035885
0.465339 -0.075661 0.056701
0.465339 0.059391 -0.038887
0.465339 0.028649 0.072135
0.465339 0.060185 -0.046806
0.465339 -0.087721 -0.044203
0.465339 -0.070125 -0.062906
0.465339 0.087856 -0.033981
0.465339 0.063809 -0.072598
0.465339 -0.014635 0.056089
0.465339 -0.059107 0.001379
0.465339 -0.035802 0.032496
0.465339 -0.065003 -0.072228
0.465339 -0.023954 0.033535
0.465339 0.062569 0.028607
0.465339 0.018754 -0.048818
0.465339 -0.042609 -0.070813
0.465339 -0.013114 -0.082980
0.465339 0.041145 -0.059019
0.465339 0.046935 -0.019727
0.465339 -0.061986 -0.002281
0.465339 0.023866 0.076282
0.465339 -0.044843 -0.064817
0.465339 -0.043934 -0.087026
0.465339 0.038267 0.083295
0.465339 0.010852 -0.030548
0.465339 -0.020195 -0.010282
0.465339 -0.007369 -0.007621
0.465339 0.073222 -0.040083
0.465339 0.006486 -0.077258
0.465339 -0.005385 0.077819
0.465339 0.026867 -0.065647
0.465339 0.032145 0.068295
0.465339 0.003020 -0.047085
0.465339 -0.004973 0.067647
0.465339 0.032957 0.032416
0.465339 0.030774 0.065435
0.465339 0.020558 -0.075543
0.465339 0.051678 0.043194
0.465339 -0.044729 0.081490
0.465339 0.068789 -0.025733
0.465339 -0.094444 0.027742
0.465339 -0.092659 0.018257
0.465339 0.083004 -0.002954
0.465339 -0.065459 0.051521
0.465339 0.037801 -0.045906
0.465339 0.023734 0.001662
0.465339 0.081818 0.032562
0.465339 -0.066957 0.050612
0.465339 -0.034698 0.045621
0.465339 0.074753 0.032753
0.465339 -0.054324 -0.000375
0.465339 0.056863 0.010953
0.465339 0.012192 -0.069203
0.465339 0.070203 0.012729
0.465339 0.041657 -0.053148
0.465339 0.028883 0.016332
0.465339 0.066590 -0.065404
0.465339 -0.071657 0.018832
0.465339 0.063361 -0.055607
0.465339 0.052003 -0.025020
0.465339 0.070630 -0.064421
0.465339 0.012794 0.027066
0.465339 -0.060948 -0.019154
0.465339 0.009498 -0.092631
0.465339 -0.082144 0.042883
0.465339 -0.053976 0.008440
0.465339 0.038895 -0.005831
0.465339 0.076791 -0.006516
0.465339 0.045193 -0.038343
0.465339 0.058414 0.006314
0.465339 0.003631 0.072547
0.465339 -0.077587 0.028703
0.465339 -0.088573 0.044280
0.465339 0.086634 -0.016634
0.465339 0.006037 -0.099387
0.465339 0.031213 0.040189
0.465339 0.004724 0.078635
0.465339 0.021968 -0.096977
0.465339 -0.036961 -0.023524
0.465339 -0.085947 0.009151
0.465339 0.015921 -0.043957
0.465339 -0.088434 -0.030895
0.465339 0.020950 0.029377
0.465339 0.016883 0.090124
0.465339 -0.062468 0.011310
0.465339 -0.082823 0.054058
0.465339 0.050567 -0.053238
0.465339 -0.053101 0.013192
0.465339 -0.057558 -0.002293
0.465339 0.006672 0.089464
0.465339 0.084670 0.009257
0.465339 0.021661 0.026841
0.465339 0.060019 -0.019905
0.465339 0.043222 -0.038885
0.465339 -0.068741 0.022282
0.465339 0.092654 -0.023855
0.465339 0.014084 0.028475
0.465339 0.032035 -0.082184
0.465339 -0.041358 0.029269
0.465339 -0.013374 0.012434
0.465339 -0.048407 -0.022020
0.465339 0.011862 -0.082825
0.465339 -0.026234 0.003718
0.465339 -0.032090 0.007650
0.465339 0.068231 -0.059082
0.465339 0.009417 0.098851
0.465339 -0.008819 -0.072632
0.465339 -0.003766 -0.016310
0.465339 -0.009803 -0.033083
0.465339 -0.059755 -0.032595
0.465339 -0.053085 -0.003353
0.465339 0.017812 -0.083531
0.465339 -0.051328 0.064952
0.465339 -0.038637 -0.081368
0.465339 0.085273 0.005705
0.465339 -0.025519 0.041200
0.465339 -0.049304 -0.079527
0.465339 -0.009651 0.071931
0.465339 0.075788 -0.012748
0.465339 -0.091611 -0.009941
0.465339 -0.074272 -0.026940
0.465339 0.035381 0.000433
0.465339 -0.018787 0.038318
0.465339 0.091594 0.032387
0.465339 -0.072324 -0.008639
0.465339 -0.030820 0.088725
0.465339 0.013672 -0.022985
0.465339 -0.011962 0.065067
0.465339 -0.087197 -0.010775
0.465339 -0.091698 0.027779
0.465339 0.056407 0.072541
0.465339 -0.038632 0.018089
0.465339 -0.053752 -0.008037
0.465339 0.018581 -0.047075
0.465339 -0.070397 -0.045489
0.465339 -0.014647 -0.038773
0.465339 -0.031876 0.018361
0.465339 0.085279 -0.016912
0.465339 -0.037614 0.063215
0.465339 0.004201 0.086208
0.465339 0.001037 -0.084606
0.465339 -0.002396 -0.028521
0.465339 -0.058819 -0.047721
0.465339 -0.028361 0.071364
0.465339 0.023924 0.006513
0.465339 0.064016 0.035205
0.465339 -0.034008 -0.086945
0.465339 -0.003593 0.020039
0.465339 0.018744 -0.025023
0.465339 -0.027632 -0.047561
0.465339 0.047671 -0.081673
0.465339 0.059656 0.026995
0.465339 0.021473 0.076730
0.465339 0.071336 -0.061906
0.465339 -0.022423 -0.046261
0.465339 0.012853 -0.075275
0.465339 -0.029577 0.000496
0.465339 0.019652 -0.013980
0.465339 -0.006947 0.048268
0.465339 -0.093328 -0.005023
0.465339 0.088761 0.003918
0.465339 0.015859 -0.057346
0.465339 -0.041395 0.024638
0.465339 -0.041120 -0.074651
0.465339 -0.021395 0.043305
0.465339 0.076841 0.061592
0.465339 -0.071795 0.003109
0.465339 -0.007144 -0.057475
0.465339 -0.075165 0.024590
0.465339 0.010314 -0.038597
0.465339 0.082782 -0.048434
0.465339 0.018442 -0.055325
0.465339 0.013802 -0.086430
0.465339 0.017502 0.023882
0.465339 0.021041 -0.091413
0.465339 -0.050179 0.015228
0.465339 0.042281 -0.002635
0.465339 -0.054043 -0.055700
0.465339 0.012407 -0.021519
0.465339 0.022458 -0.048983
0.465339 -0.006416 0.031756
0.465339 -0.032981 -0.037586
0.465339 0.010876 0.090001
0.465339 0.060768 -0.040912
0.465339 0.025919 -0.079592
0.465339 -0.010827 0.040192
0.465339 -0.061842 -0.013661
0.465339 -0.094473 -0.002353
0.465339 -0.050748 0.069395
0.465339 0.049479 0.029908
0.465339 -0.011977 0.094556
0.465339 0.031620 0.076116
0.465339 0.064723 0.066889
0.465339 -0.014154 -0.002794
0.465339 -0.009242 -0.010181
0.465339 0.004438 0.040763
0.465339 0.024320 -0.073081
0.465339 -0.058384 -0.013331
0.465339 0.044236 0.087071
0.465339 0.057691 -0.018068
0.465339 -0.029435 0.033252
0.465339 0.027382 0.076427
0.465339 -0.052356 0.033851
0.465339 0.005539 0.009258
0.465339 0.023240 0.078124
0.465339 -0.029751 0.083121
0.465339 0.045469 -0.026669
0.465339 -0.021851 0.092698
0.465339 -0.045358 0.077777
0.465339 -0.028782 0.088318
0.465339 0.033316 -0.083152
0.465339 -0.062414 0.042472
0.465339 0.044195 -0.023168
0.465339 -0.066275 0.035324
0.465339 -0.004023 -0.046875
0.465339 0.077955 0.004308
0.465339 0.082413 -0.014869
0.465339 -0.046231 -0.034121
0.465339 0.014699 -0.040674
0.465339 0.059368 0.039455
0.465339 -0.044952 0.045352
0.465339 0.058141 0.067543
0.465339 0.053438 -0.011275
0.465339 -0.062250 0.072522
0.465339 0.021082 0.066020
0.465339 0.039493 0.028875
0.465339 -0.050980 -0.038883
0.465339 0.030350 -0.033011
0.465339 -0.081240 0.017777
0.465339 0.036415 0.027676
0.465339 -0.005453 -0.083240
0.465339 -0.028565 0.083976
0.465339 -0.085030 -0.043701
0.465339 -0.075945 -0.050583
0.465339 -0.028467 -0.025832
0.465339 -0.014604 -0.037131
0.465339 -0.000800 0.048270
0.465339 -0.027041 -0.014493
0.465339 -0.022150 -0.075361
0.465339 0.039477 -0.076989
0.465339 0.070857 -0.036281
0.465339 0.029833 -0.070257
0.465339 0.049298 -0.027265
0.465339 -0.028535 -0.007419
0.465339 -0.003242 0.075885
0.465339 0.052424 0.055845
0.465339 0.088076 -0.044340
0.465339 -0.067958 -0.000274
0.465339 -0.061458 -0.068368
0.465339 0.012877 -0.016899
0.465339 -0.010660 -0.096512
0.465339 0.011394 -0.067832
0.465339 -0.041405 0.057395
0.465339 -0.052951 0.004429
0.465339 -0.038451 0.008002
0.465339 0.037051 0.038699
0.465339 -0.027304 -0.012661
0.465339 0.030722 0.012399
0.465339 -0.051905 0.079945
0.465339 -0.067009 -0.034712
0.465339 -0.009934 0.002326
0.465339 -0.044769 -0.004267
0.465339 0.027027 -0.092890
0.465339 0.040889 0.089898
0.465339 0.061704 0.041493
0.465339 -0.037431 -0.045973
0.465339 0.013234 -0.070791
0.465339 0.064456 0.021375
0.465339 0.088405 0.031732
0.465339 -0.014141 -0.084680
0.465339 -0.067813 0.032690
0.465339 -0.057678 0.075516
0.465339 0.038602 0.021991
0.465339 0.030842 -0.048246
0.465339 0.078892 0.012771
0.465339 0.044210 -0.033677
0.465339 -0.050704 -0.030044
0.465339 -0.011465 0.077733
0.465339 -0.057419 0.079733
0.465339 0.011282 -0.012320
0.465339 -0.067731 0.019633
0.465339 0.035159 0.050531
0.465339 -0.005872 -0.042342
0.465339 0.013838 -0.041982
0.465339 0.070856 0.042512
0.465339 0.062331 -0.012830
0.465339 0.011499 -0.048973
0.465339 0.031773 -0.060906
0.465339 -0.059816 -0.036603
0.465339 0.021866 -0.046080
0.465339 0.097781 0.014106
0.465339 -0.085468 0.039400
0.465339 -0.043044 0.062022
0.465339 0.024402 -0.036420
0.465339 0.036312 0.047301
0.465339 -0.042744 0.001908
0.465339 0.088533 0.040729
0.465339 0.075524 -0.002220
0.465339 0.014486 0.035210
0.465339 -0.049364 -0.067243
0.465339 0.003103 0.010047
0.465339 -0.057240 0.031120
0.465339 -0.048868 0.065028
0.465339 -0.051361 0.052873
0.465339 0.084433 0.039914
0.465339 -0.058221 0.027439
0.465339 0.014765 0.033742
0.465339 0.055822 -0.030980
0.465339 -0.009277 -0.058463
0.465339 0.017240 -0.042290
0.465339 0.002447 -0.081490
0.465339 0.001244 0.044799
0.465339 0.009335 -0.075567
0.465339 -0.064202 0.058324
0.465339 0.038457 -0.003131
0.465339 -0.048375 0.060196
0.465339 0.086171 -0.032796
0.465339 -0.043521 -0.069564
0.465339 0.038672 0.048155
0.465339 0.042361 -0.042692
0.465339 0.050138 0.054396
0.465339 0.080396 0.041362
0.465339 0.020145 -0.026370
0.465339 -0.016605 -0.008558
0.465339 0.075119 -0.052463
0.465339 0.038362 0.065715
0.465339 -0.017312 0.033918
0.465339 -0.047067 0.026646
0.465339 0.086020 0.047887
0.465339 -0.041076 0.031592
0.465339 -0.013470 -0.093557
0.465339 -0.019659 0.085035
0.465339 -0.004513 -0.071522
0.465339 -0.077241 -0.010822
0.465339 -0.037451 -0.061921
0.465339 0.088360 0.026530
0.465339 0.093723 -0.030830
0.465339 0.054410 -0.047197
0.465339 -0.008306 -0.075343
0.465339 -0.069581 0.021054
0.465339 0.041417 0.008805
0.465339 0.026340 -0.078134
0.465339 -0.003318 0.058690
0.465339 -0.022945 0.038144
0.465339 0.021471 0.097239
0.465339 0.013767 -0.027201
0.465339 0.038251 0.078449
0.465339 -0.044083 -0.016926
0.465339 0.055753 0.045188
0.465339 -0.050453 -0.032275
0.465339 -0.051045 -0.025775
0.465339 -0.022924 0.030449
0.465339 -0.062475 -0.018436
0.465339 -0.020442 0.069222
0.465339 0.038516 0.010547
0.465339 -0.042173 -0.073348
0.465339 0.084085 -0.041734
0.465339 -0.021062 -0.094955
0.465339 -0.091469 0.023159
0.465339 0.024977 0.019023
0.465339 -0.000364 0.060315
0.465339 -0.087142 0.023659
0.465339 -0.057573 -0.061736
0.465339 -0.051979 -0.023449
0.465339 -0.022045 0.006423
0.465339 -0.017941 0.005448
0.465339 0.007050 0.010479
0.465339 -0.039845 -0.060849
0.465339 -0.055214 0.079076
0.465339 -0.064175 -0.014650
0.465339 -0.057356 -0.079195
0.465339 0.000467 -0.023745
0.465339 -0.030112 0.060117
0.465339 -0.068252 0.053401
0.465339 0.043431 -0.045167
0.465339 -0.041246 -0.024330
0.465339 -0.078925 0.027268
0.465339 0.020864 -0.071126
0.465339 -0.071300 0.057135
0.465339 -0.014084 -0.098561
0.465339 -0.063348 -0.053400
0.465339 -0.040740 -0.031818
0.465339 0.021695 -0.006353
0.465339 -0.010118 -0.071822
0.465339 0.073857 0.021561
0.465339 0.064939 0.003416
0.465339 -0.051733 -0.021510
0.465339 0.011716 0.093372
0.465339 -0.046733 0.077793
0.465339 0.050969 -0.057506
0.465339 0.025544 0.017291
0.465339 0.074221 0.017732
0.465339 0.073983 -0.035486
0.465339 0.001433 0.099468
0.465339 0.011725 -0.023412
0.465339 0.006595 -0.020860
0.465339 0.066395 -0.035540
0.465339 0.035923 0.016938
0.465339 0.085584 0.051712
0.465339 -0.045313 0.059400
0.465339 -0.047723 -0.015561
0.465339 0.080460 -0.004566
0.465339 0.037380 0.063518
0.465339 -0.001965 -0.041757
0.465339 0.089548 0.042743
0.465339 -0.036364 -0.082562
0.465339 0.024786 0.070290
0.465339 0.089398 -0.040608
0.465339 -0.040093 0.025477
0.465339 -0.055488 -0.028172
0.465339 0.048228 0.034393
0.465339 -0.055950 -0.056032
0.465339 0.035573 -0.042107
0.465339 0.092763 -0.016947
0.465339 0.024561 -0.023145
0.465339 -0.055947 -0.012510
0.465339 -0.013646 0.075621
0.465339 0.061594 0.059966
0.465339 -0.003849 0.021742
0.465339 -0.027199 -0.028340
0.465339 0.008672 0.056796
0.465339 0.046279 0.034014
0.465339 0.067106 0.044963
0.465339 0.050091 0.067575
0.465339 0.036587 -0.071514
0.465339 -0.022988 -0.016825
0.465339 0.046211 0.001508
0.465339 -0.038768 -0.090700
0.465339 -0.016099 -0.015121
0.465339 -0.067951 -0.052882
0.465339 -0.089766 -0.003008
0.465339 -0.084880 0.043200
0.465339 0.038761 0.041391
0.465339 -0.035672 0.021914
0.465339 0.037195 0.010925
0.465339 0.030644 0.079446
0.465339 0.083412 -0.010144
0.465339 -0.004884 0.076531
0.465339 0.011027 0.074210
0.465339 0.045562 -0.041061
0.465339 -0.040485 0.028093
0.465339 -0.011465 0.002540
0.465339 0.063680 0.064816
0.465339 0.021173 0.039043
0.465339 -0.038223 0.042846
0.465339 -0.027140 0.002384
0.465339 0.047290 -0.048038
0.465339 0.040696 -0.017467
0.465339 0.004088 -0.048156
0.465339 0.017546 0.035965
0.465339 -0.054786 -0.068646
0.465339 -0.079215 0.047301
0.465339 0.031086 0.036277
0.465339 0.010125 0.039362
0.465339 -0.006671 -0.013693
0.465339 -0.047892 0.028647
0.465339 0.020428 0.037674
0.465339 -0.009842 -0.092741
0.465339 -0.052062 0.060666
0.465339 0.076217 0.021395
0.465339 -0.028874 -0.028388
0.465339 0.050798 0.085727
0.465339 0.032652 0.083741
0.465339 0.066939 0.069262
0.465339 0.045430 -0.036373
0.465339 0.036865 0.019988
0.465339 -0.052713 -0.066218
0.465339 0.052945 0.084243
0.465339 0.097306 0.008957
0.465339 -0.034073 0.031197
0.465339 0.096773 0.010606
0.465339 0.044098 0.040270
0.465339 0.018798 -0.033517
0.465339 -0.070952 0.066586
0.465339 -0.091118 0.036312
0.465339 -0.074172 0.026358
0.465339 0.059331 0.001994
0.465339 -0.023869 -0.077599
0.465339 -0.043351 0.081462
0.465339 -0.085184 -0.028065
0.465339 0.031414 -0.012553
0.465339 -0.085513 -0.003581
0.465339 -0.043935 -0.045733
0.465339 -0.033924 0.028572
0.465339 -0.063779 -0.037859
0.465339 0.002010 0.077087
0.465339 -0.006631 0.091462
0.465339 -0.035087 0.067893
0.465339 0.072491 0.068270
0.465339 0.066940 -0.002006
0.465339 0.039235 -0.035923
0.465339 0.036450 0.052149
0.465339 0.036159 -0.046333
0.465339 0.008180 -0.017428
0.465339 -0.012575 0.027287
0.465339 -0.015919 -0.041885
0.465339 0.049525 -0.063130
0.465339 0.060016 0.071775
0.465339 0.000549 -0.049130
0.465339 0.014753 -0.007321
0.465339 -0.054164 0.061157
0.465339 0.001792 -0.070178
0.465339 0.053046 -0.018405
0.465339 0.089976 -0.042063
0.465339 0.066103 -0.043715
0.465339 -0.045010 0.034213
0.465339 0.028955 0.044404
0.465339 0.001511 -0.068459
0.465339 -0.086607 0.021506
0.465339 0.077750 -0.052154
0.465339 -0.051344 -0.045120
0.465339 0.037395 0.037123
0.465339 -0.011419 0.008830
0.465339 -0.034837 0.001789
0.465339 0.009129 0.005630
0.465339 -0.090639 0.008065
0.465339 0.035051 -0.058919
0.465339 0.028958 -0.029206
0.465339 -0.075959 -0.028156
0.465339 -0.021234 0.021545
0.465339 -0.019692 -0.053603
0.465339 0.087191 -0.029907
0.465339 0.022446 -0.081615
0.465339 0.030497 -0.081128
0.465339 -0.065635 0.017724
0.465339 0.006646 0.085583
0.465339 -0.022229 0.024287
0.465339 -0.066113 0.044356
0.465339 0.042269 -0.048969
0.465339 0.072247 -0.030406
0.465339 0.017798 0.073670
0.465339 -0.051877 -0.027453
0.465339 0.010472 0.052298
0.465339 0.066612 0.061815
0.465339 0.085204 0.041637
0.465339 0.048294 0.071095
0.465339 -0.080840 0.041045
0.465339 0.007643 -0.011010
0.465339 -0.013337 -0.037857
0.465339 -0.039362 0.016314
0.465339 0.056185 -0.007068
0.465339 -0.042637 -0.007047
0.465339 -0.088559 0.040611
0.465339 -0.066836 0.048032
0.465339 -0.045175 0.072014
0.465339 -0.049468 -0.054391
0.465339 -0.028043 -0.087889
0.465339 -0.083159 -0.043112
0.465339 0.034984 0.057123
0.465339 0.033146 0.039563
0.465339 0.060476 0.058357
0.465339 -0.004014 -0.004043
0.465339 0.068886 -0.024050
0.465339 -0.083685 0.039013
0.465339 0.042289 -0.023035
0.465339 -0.072669 0.007991
0.465339 -0.039792 -0.057436
0.465339 0.065742 -0.064183
0.465339 0.005114 -0.025187
0.465339 0.056050 -0.067488
0.465339 -0.093036 -0.000461
0.465339 -0.041422 0.068324
0.465339 -0.014537 -0.090851
0.465339 0.065045 0.063576
0.465339 0.025813 0.042416
0.465339 -0.019740 0.074904
0.465339 -0.038844 0.063757
0.465339 -0.067256 0.036432
0.465339 -0.088896 0.029950
0.465339 0.032766 0.051377
0.465339 0.071923 -0.002300
0.465339 -0.013559 -0.005177
0.465339 -0.038577 -0.026375
0.465339 -0.067029 0.020878
0.465339 -0.043269 -0.028568
0.465339 -0.044724 0.056255
0.465339 -0.009309 0.065001
0.465339 0.002189 -0.022823
0.465339 -0.050316 0.066073
0.465339 -0.024454 -0.042896
0.465339 0.042856 0.006680
0.465339 0.027572 0.035159
0.465339 -0.080957 -0.032623
0.465339 -0.084544 -0.023506
0.465339 0.074170 0.025873
0.465339 0.083892 -0.005535
0.465339 -0.061502 -0.036835
0.465339 0.022891 -0.003531
0.465339 -0.058464 0.025964
0.465339 0.032879 0.060289
0.465339 -0.009716 0.078066
0.465339 0.064057 0.044861
0.465339 0.022262 0.053809
0.465339 -0.028636 0.068472
0.465339 -0.035104 -0.023592
0.465339 -0.036093 0.077506
0.465339 -0.068950 -0.040772
0.465339 0.030672 -0.046699
0.465339 -0.034855 -0.084089
0.465339 0.022721 -0.022554
0.465339 -0.005548 -0.076759
0.465339 -0.003169 0.029235
0.465339 -0.023994 -0.075598
0.465339 0.043488 -0.037135
0.465339 0.076122 -0.019225
0.465339 -0.064394 0.050459
0.465339 -0.019272 0.012877
0.465339 0.013719 -0.053194
0.465339 -0.085068 -0.035722
0.465339 0.036356 0.043484
0.465339 0.035012 -0.026030
0.465339 -0.076010 -0.058462
0.465339 -0.067530 -0.006514
0.465339 0.053193 -0.073765
0.465339 -0.042796 0.010428
0.465339 0.033574 0.013011
0.465339 -0.065865 -0.046715
0.465339 -0.003347 -0.058201
0.465339 -0.062209 0.002914
0.465339 0.034731 0.072465
0.465339 -0.035246 0.052710
0.465339 0.019146 0.023518
0.465339 -0.039220 0.022423
0.465339 0.087847 0.000075
0.465339 0.076808 0.016488
0.465339 -0.064017 -0.061323
0.465339 0.061130 0.066455
0.465339 0.019807 -0.089883
0.465339 0.085696 -0.049934
0.465339 -0.009054 0.051943
0.465339 0.004584 0.003094
0.465339 0.038712 -0.019315
0.465339 0.091020 -0.013456
0.465339 0.014174 -0.092418
0.465339 0.078069 0.049763
0.465339 0.044992 0.022534
0.465339 0.058883 -0.003862
0.465339 -0.034497 -0.038257
0.465339 -0.050039 0.072637
0.465339 0.025752 0.079630
0.465339 -0.021374 -0.052836
0.465339 -0.086677 0.037164
0.465339 -0.076538 -0.063207
0.465339 -0.086211 -0.014480
0.465339 -0.015777 -0.066362
0.465339 0.017131 0.091506
0.465339 0.088872 0.013451
0.465339 -0.056852 0.012612
0.465339 0.020416 -0.064052
0.465339 -0.038638 -0.031646
0.465339 -0.060804 0.049211
0.465339 0.013122 -0.072717
0.465339 -0.038225 -0.053543
0.465339 0.029584 -0.068407
0.465339 0.071481 0.002588
0.465339 -0.070320 0.038162
0.465339 0.052914 -0.055330
0.465339 -0.065373 0.069331
0.465339 0.023179 0.066841
0.465339 0.038988 -0.051725
0.465339 0.057940 0.078479
0.465339 -0.067444 -0.073354
0.465339 0.038968 0.014544
0.465339 -0.002984 0.037332
0.465339 -0.016912 -0.084356
0.465339 -0.035236 -0.019638
0.465339 -0.040982 0.048726
0.465339 -0.012789 0.001468
0.465339 -0.061056 0.046550
0.465339 -0.018585 -0.071814
0.465339 -0.031117 0.032227
0.465339 0.051286 -0.010732
0.465339 -0.072909 0.031544
0.465339 0.024897 0.094636
0.465339 0.012915 0.021990
0.465339 -0.072257 0.028196
0.465339 -0.047495 -0.005827
0.465339 -0.058188 -0.004104
0.465339 0.067180 -0.051318
0.465339 0.072675 0.029248
0.465339 -0.020973 -0.082988
0.465339 -0.020046 0.078847
0.465339 0.072333 0.013653
0.465339 -0.007720 0.004351
0.465339 0.033226 -0.000571
0.465339 0.050890 0.066315
0.465339 -0.000024 0.050456
0.465339 -0.014504 0.072845
0.465339 -0.043216 0.013474
0.465339 0.044404 -0.028695
0.465339 0.025727 -0.043735
0.465339 -0.061695 0.052510
0.465339 0.087162 0.040026
0.465339 -0.013223 0.025592
0.465339 -0.018436 0.076563
0.465339 0.019231 0.051329
0.465339 0.047256 0.004918
0.465339 0.029663 -0.060349
0.465339 0.037704 0.032639
0.465339 0.072584 0.003755
0.465339 -0.005187 0.075028
0.465339 0.093060 -0.008694
0.465339 0.020460 -0.020181
0.465339 -0.051399 -0.013465
0.465339 -0.029305 0.013635
0.465339 -0.042651 0.036959
0.465339 -0.003871 0.091109
0.465339 -0.034222 -0.021925
0.465339 -0.029448 -0.071072
0.465339 0.053178 0.000068
0.465339 -0.015140 -0.043205
0.465339 -0.043671 0.015076
0.465339 0.016466 0.073138
0.465339 -0.013381 0.010613
0.465339 0.000013 0.036585
0.465339 0.017540 -0.034943
0.465339 -0.067811 0.016255
0.465339 -0.028369 0.035178
0.465339 -0.043940 -0.022369
0.465339 0.008506 -0.067856
0.465339 -0.011176 -0.012467
0.465339 0.002657 -0.077318
0.465339 0.064664 0.047418
0.465339 0.088630 0.038820
0.465339 -0.074159 -0.043279
0.465339 -0.005972 0.052430
0.465339 0.050946 0.072683
0.465339 0.013420 0.089788
0.465339 -0.005672 -0.015182
0.465339 0.009492 -0.079000
0.465339 0.043110 -0.004110
0.465339 -0.029463 -0.094989
0.465339 0.021626 -0.093007
0.465339 0.058314 -0.039760
0.465339 -0.002154 -0.010866
0.465339 0.007504 -0.046368
0.465339 0.063710 0.041618
0.465339 -0.049296 0.007986
0.465339 0.003573 0.060969
0.465339 -0.017995 -0.044263
0.465339 -0.024436 -0.060526
0.465339 -0.073062 0.058355
0.465339 -0.030111 -0.061191
0.465339 -0.061231 -0.074987
0.465339 -0.040617 0.091320
0.465339 0.086097 0.039180
0.465339 0.013919 -0.060379
0.465339 -0.088347 -0.045609
0.465339 0.008689 0.093417
0.465339 0.021812 -0.062802
0.465339 0.038249 -0.004493
0.465339 -0.043221 -0.081637
0.465339 0.050652 0.052202
0.465339 -0.010833 -0.027419
0.465339 0.066912 0.043419
0.465339 0.061883 0.043308
0.465339 -0.091313 -0.026333
0.465339 0.081470 -0.001657
0.465339 0.084935 0.032717
0.465339 0.002538 -0.062435
0.465339 0.060478 0.055067
0.465339 0.033440 0.017834
0.465339 -0.012058 -0.008780
0.465339 -0.054564 -0.075924
0.465339 -0.046917 0.050755
0.465339 0.017378 0.001052
0.465339 0.046779 -0.039508
0.465339 -0.072224 -0.005104
0.465339 0.024791 -0.078504
0.465339 -0.049047 0.067499
0.465339 -0.046287 0.076435
0.465339 0.074365 0.036502
0.465339 0.061705 -0.007966
0.465339 -0.075179 -0.048940
0.465339 -0.014265 0.015775
0.465339 -0.008167 -0.054372
0.465339 -0.032141 0.043983
0.465339 -0.011300 -0.029443
0.465339 -0.016979 0.038734
0.465339 0.075969 -0.048999
0.465339 -0.038377 -0.038647
0.465339 0.020400 -0.011260
0.465339 -0.045467 -0.011926
0.465339 -0.050456 -0.003331
0.465339 -0.000739 0.076889
0.465339 -0.038064 0.039501
0.465339 0.044358 -0.025538
0.465339 -0.044747 -0.040962
0.465339 0.039169 0.017345
0.465339 -0.016803 -0.013187
0.465339 -0.023566 -0.048693
0.465339 0.040516 -0.081682
0.465339 0.024847 0.073903
0.465339 -0.065529 -0.028644
0.465339 0.034229 -0.018692
0.465339 0.006560 -0.049382
0.465339 -0.025665 -0.046319
0.465339 -0.004663 0.034755
0.465339 -0.016023 -0.074264
0.465339 0.042334 0.004843
0.465339 -0.081328 -0.050559
0.465339 0.003862 -0.003773
0.465339 0.011218 -0.034735
0.465339 -0.077238 0.059815
0.465339 0.067434 -0.055185
0.465339 -0.022784 0.054850
0.465339 -0.005973 0.028925
0.465339 -0.009784 0.028812
0.465339 -0.000452 -0.026467
0.465339 0.059838 -0.034930
0.465339 0.034625 -0.066381
0.465339 -0.015086 0.007211
0.465339 0.010497 0.079581
0.465339 0.091409 -0.027135
0.465339 0.016190 0.047049
0.465339 -0.021985 -0.051165
0.465339 -0.025013 0.049306
0.465339 0.076102 -0.050609
0.465339 0.049076 0.016004
0.465339 0.001308 0.046391
0.465339 0.028055 -0.009247
0.465339 0.000589 0.043005
0.465339 -0.057093 -0.016961
0.465339 0.063107 -0.028221
0.465339 -0.005757 -0.080179
0.465339 0.023873 0.061959
0.465339 0.003533 0.094875
0.465339 -0.022419 -0.022105
0.465339 -0.011595 0.089638
0.465339 0.047707 -0.004359
0.465339 0.025030 0.085215
0.465339 -0.029682 0.034868
0.465339 0.039771 0.042642
0.465339 0.068668 -0.032971
0.465339 -0.016517 -0.093067
0.465339 -0.080733 -0.042615
0.465339 -0.010269 -0.008848
0.465339 0.094805 -0.007388
0.465339 -0.091464 0.019144
0.465339 0.039816 -0.010636
0.465339 -0.083691 0.009660
0.465339 -0.023950 -0.045908
0.465339 0.010213 -0.058697
0.465339 -0.059088 -0.007464
0.465339 0.080293 0.047916
0.465339 0.006908 0.057706
0.465339 -0.058129 0.015247
0.465339 0.007706 -0.080148
0.465339 -0.047089 0.022355
0.465339 0.073244 -0.046244
0.465339 -0.083311 0.040752
0.465339 0.006731 0.025647
0.465339 -0.047740 -0.075701
0.465339 -0.033533 -0.017292
0.465339 0.071492 0.006571
0.465339 -0.036994 -0.083751
0.465339 -0.024556 0.077681
0.465339 -0.055746 -0.014726
0.465339 0.061204 -0.014964
0.465339 -0.050585 0.055638
0.465339 0.039907 -0.053326
0.465339 0.055721 -0.013276
0.465339 0.038289 -0.059215
0.465339 0.051441 0.049166
0.465339 -0.094009 -0.022555
0.465339 0.053963 0.016466
0.465339 0.043849 0.005782
0.465339 -0.036860 -0.059741
0.465339 0.073249 0.015179
0.465339 0.058286 0.009794
0.465339 -0.006202 -0.053451
0.465339 0.029255 -0.025962
0.465339 0.043100 0.037524
0.465339 0.074308 -0.027175
0.465339 0.044874 0.089232
0.465339 -0.029414 -0.024505
0.465339 0.008134 0.089919
0.465339 -0.016339 0.024022
