0.321819 -0.098670 -0.014320
0.344905 0.096663 0.025726
-0.128807 0.052539 -0.084808
0.001930 -0.096002 0.027198
-0.150824 -0.056676 -0.081935
0.101052 -0.093739 -0.033863
0.281603 0.098593 0.016642
-0.178460 -0.092247 -0.037770
-0.260216 -0.014104 -0.098650
-0.186946 -0.089709 -0.043441
-0.228542 0.061353 -0.078673
0.258331 0.088184 -0.046892
0.295405 0.071458 -0.069672
-0.218352 0.073787 0.067590
0.105652 0.024372 -0.096700
0.083715 0.078560 -0.061585
0.376271 0.099242 -0.012085
0.353889 -0.012061 0.099315
-0.044865 0.081470 -0.057734
0.189484 0.093887 0.034462
0.068595 0.022887 0.097395
-0.317797 0.075971 -0.064750
0.156846 0.032179 0.094751
0.225519 0.050559 0.086342
-0.350786 -0.096584 0.025194
0.123125 0.059968 -0.079747
-0.180778 -0.088511 -0.045791
-0.231685 0.097378 0.022737
-0.136585 0.026506 0.096482
-0.299243 0.086075 -0.050602
0.377813 0.027634 0.096154
-0.096346 -0.058648 -0.080590
-0.396268 0.053245 0.084754
0.177851 -0.069003 -0.071893
-0.156126 -0.001528 0.100018
0.131093 -0.055270 0.083253
-0.136106 0.094633 0.032390
-0.236542 -0.085679 0.051240
-0.139472 -0.092238 0.038154
0.379851 -0.039128 -0.091622
-0.335761 0.027343 -0.095876
0.062868 0.088519 0.046598
-0.291303 -0.009890 0.099520
0.395596 0.051355 0.085871
-0.458453 0.035749 0.093465
-0.014715 0.095881 0.028416
-0.158489 -0.098393 -0.016070
-0.345734 0.088988 0.045677
-0.031243 0.080424 -0.059181
0.021095 -0.048986 -0.086771
0.023641 -0.036178 0.093227
0.414999 -0.018947 -0.097861
-0.243954 -0.025557 -0.096327
-0.048532 -0.003803 0.099947
-0.142447 0.006322 0.099875
0.451286 0.032874 -0.094138
0.445000 0.025376 -0.096448
-0.060596 0.089418 -0.044471
-0.074347 0.076833 -0.063773
-0.406084 -0.016909 0.098569
-0.150108 0.099006 -0.013672
0.105703 0.095787 -0.028378
-0.420046 -0.094413 -0.031992
0.291336 0.039692 0.091842
0.446385 -0.096196 0.026528
0.029042 -0.055005 -0.083071
-0.443632 0.045194 -0.088903
-0.392933 0.057572 0.081848
-0.122813 0.094735 -0.031744
0.277830 0.088010 -0.047234
0.117074 0.098509 0.017173
-0.028549 -0.042900 0.090315
0.130848 -0.020112 0.097963
0.011751 0.093247 -0.035878
-0.134240 0.009630 -0.099204
0.403235 0.062417 0.078211
-0.417466 -0.074784 0.066194
0.095454 -0.038427 -0.091926
0.380357 -0.045849 -0.088450
-0.191792 0.097557 -0.021574
0.001672 0.090182 -0.042970
0.003952 0.038608 -0.091948
0.103816 -0.020806 -0.097445
0.237408 -0.003377 0.099960
-0.062388 -0.090792 0.041495
-0.239407 -0.010305 0.099481
-0.256401 0.098504 -0.016846
0.394538 0.010318 -0.099139
0.181316 -0.011289 0.099388
-0.456700 0.044343 -0.089337
0.092842 0.062917 -0.077460
-0.254518 0.019049 -0.097890
-0.076536 -0.080933 -0.058181
0.104546 -0.065512 0.075421
0.071050 0.098669 -0.015802
0.317215 0.035294 0.093629
0.441295 0.098289 0.018563
0.069969 -0.077421 -0.062752
0.144607 -0.098039 0.018669
-0.049624 -0.076270 0.064509
-0.343192 0.070914 -0.070215
-0.394539 0.003566 0.099962
0.457235 -0.008034 0.099695
-0.396719 0.097400 -0.022276
-0.181087 0.098456 -0.017149
0.265389 -0.085542 -0.051109
-0.221236 -0.090817 -0.041074
-0.395681 0.075591 0.065544
-0.451407 -0.016627 0.098613
0.408808 0.086736 -0.049485
0.196367 0.013809 0.099097
0.080466 -0.047509 -0.087604
0.183079 0.099926 0.002698
0.318517 -0.018452 -0.097961
-0.124642 -0.044319 0.089592
0.096500 -0.094045 0.033377
0.321091 -0.040601 -0.090985
-0.330694 -0.052734 -0.084555
-0.301143 -0.046519 -0.088109
-0.012387 0.034620 -0.093509
0.409777 0.031083 0.095146
-0.280090 -0.068742 -0.072154
0.160728 0.093057 -0.036406
0.460974 0.028228 0.095982
0.102419 -0.097929 0.019228
-0.157800 -0.066687 -0.074023
-0.238683 0.077372 0.063479
0.328041 0.046195 -0.088393
-0.315429 -0.005909 -0.099518
0.421052 -0.097636 0.020537
0.269739 -0.066704 0.074370
0.070205 0.099747 0.007104
0.391325 0.023565 0.097243
-0.133664 0.034633 0.093867
0.203188 0.050772 0.086216
-0.274945 0.095932 -0.027878
-0.178019 -0.047602 0.087920
0.016859 0.099641 0.008224
0.133720 0.011257 -0.099050
0.218151 -0.096061 0.026992
0.292977 -0.079712 -0.059798
-0.455044 0.096828 0.025156
-0.270343 0.030714 0.095259
0.239503 0.021926 -0.097247
0.210660 -0.089970 -0.042929
-0.362582 -0.074056 0.067021
-0.317133 -0.084680 0.052929
0.454357 -0.066942 -0.073798
0.030350 0.019718 -0.097740
-0.043893 -0.051574 -0.085241
-0.211544 0.089128 -0.045040
0.390706 -0.037087 -0.092506
0.144452 -0.010687 -0.099082
-0.157951 0.064822 -0.075872
0.026905 -0.019394 0.098123
0.452827 0.073379 -0.067690
0.216320 0.021824 0.097632
0.346698 0.002704 -0.099626
-0.097776 -0.094397 -0.032036
0.231547 -0.013336 0.099135
-0.106333 0.083132 -0.055289
-0.337975 0.085210 0.052429
0.455976 -0.083914 -0.053795
0.143226 -0.093595 0.034628
0.223205 0.062011 -0.078163
-0.088728 -0.072905 -0.067964
0.381689 0.097036 -0.023906
0.092329 0.079503 0.060732
0.295682 0.084478 -0.053303
-0.302260 0.058124 0.081472
-0.161476 -0.012101 -0.098948
-0.441755 0.089156 0.045347
-0.317984 0.067077 0.074247
0.010928 0.059617 -0.080019
0.034315 0.087341 0.048825
-0.254219 -0.027514 -0.095759
-0.420542 0.098253 0.018791
0.081157 -0.074544 -0.066104
0.417879 -0.052382 -0.084763
-0.356624 -0.020798 -0.097447
-0.425635 0.090324 -0.042691
0.363067 -0.099593 -0.005505
-0.304941 0.099858 -0.004515
0.311101 -0.035817 -0.092994
0.033409 -0.035812 -0.092996
0.399254 -0.081162 0.058207
-0.033946 -0.031095 -0.094694
-0.183583 -0.026670 0.096367
0.350595 0.082570 0.056478
0.462253 -0.088351 0.046468
0.440849 0.062823 0.077895
-0.376465 0.028365 0.095942
-0.281704 0.069774 0.071718
-0.074803 0.099878 -0.003868
0.406774 0.098187 -0.018756
0.202731 -0.009415 -0.099202
-0.178590 0.085051 0.052697
-0.346233 -0.062477 0.077983
-0.194744 -0.092000 -0.038340
0.380161 0.048737 -0.087057
-0.161159 0.044809 -0.089099
0.174690 0.018707 0.098321
0.233884 -0.099216 0.010251
-0.079562 0.095284 -0.030107
0.423590 0.013558 -0.098773
-0.062582 0.036179 0.093311
-0.450079 0.097815 0.020783
-0.193308 -0.094196 -0.032593
-0.111353 -0.073059 0.068151
0.208431 0.003170 0.099974
-0.418536 0.040050 -0.091324
0.203489 0.048099 -0.087423
-0.211091 -0.084839 0.052661
-0.414180 -0.098307 0.016979
0.154461 -0.099696 0.002583
-0.026230 0.063397 0.077450
0.019390 0.019150 -0.097867
-0.062868 -0.081843 0.057205
-0.235355 -0.050374 -0.085951
-0.364649 -0.075576 -0.064933
-0.447280 -0.046051 -0.088347
0.303125 0.078664 -0.061450
0.151661 -0.014524 0.098946
-0.236949 -0.063518 -0.076812
-0.106230 0.061234 0.079128
0.375171 -0.070129 0.071130
0.345860 0.091517 -0.039995
-0.313466 0.015467 -0.098471
-0.436387 0.021989 -0.097233
0.342997 -0.068074 0.073163
0.137037 0.100000 0.000354
0.359543 0.006695 -0.099481
0.252903 0.037813 0.092655
0.368756 -0.006233 0.099866
-0.334259 -0.033507 -0.093826
-0.409647 0.090270 0.043161
0.380455 -0.013277 0.099144
0.027418 0.069540 -0.071590
0.409745 -0.074783 0.066196
0.414936 0.054373 0.084022
-0.446566 -0.012652 -0.098880
-0.100610 -0.002013 0.100003
0.422457 -0.044504 0.089498
-0.344579 0.098289 0.018565
0.455161 -0.093626 -0.034176
-0.241017 -0.065680 0.075273
0.274503 -0.041262 -0.090699
-0.325267 0.061861 -0.078279
0.461298 0.083071 -0.055379
0.047329 -0.018244 0.098357
0.128434 -0.080425 0.059242
-0.303243 0.099011 -0.013645
-0.027779 0.039019 -0.091770
-0.377804 -0.080668 -0.058566
0.321552 -0.093740 -0.033862
0.190524 -0.050597 0.086182
-0.278898 -0.091465 -0.039575
-0.231166 -0.058593 -0.080632
-0.276840 0.099388 -0.010534
0.459661 0.034499 0.093916
-0.386235 -0.096617 0.025081
0.405621 -0.047841 0.087798
-0.035242 0.020096 0.098019
-0.383144 0.078329 0.062245
0.115303 0.074182 -0.066780
-0.380268 0.090074 -0.043182
-0.405552 -0.037230 -0.092444
0.200546 0.084566 0.053517
0.386849 -0.001486 -0.099657
-0.341362 -0.011501 0.099367
0.166936 0.099674 -0.007513
0.369756 0.028164 -0.095638
0.337061 0.058879 0.080955
-0.446605 -0.058535 -0.080672
0.002640 -0.018936 0.098226
0.020178 0.059671 -0.079978
-0.040884 -0.075581 -0.064928
-0.172643 -0.099731 -0.001136
0.194725 -0.099610 0.005336
0.070441 -0.087577 -0.047624
0.206231 0.018120 0.098414
0.141926 0.019238 0.098210
-0.141692 -0.004803 0.099915
-0.153604 0.029953 0.095480
-0.116979 -0.043307 0.090108
-0.302794 -0.094353 -0.032157
0.332556 0.041373 -0.090752
-0.373383 0.079805 0.060343
0.090461 0.059403 0.080549
0.127526 0.082360 0.056788
0.144312 0.010745 -0.099098
-0.191224 0.061160 0.079186
0.152222 -0.088240 0.046686
-0.272167 -0.019661 0.098064
0.210985 -0.031262 -0.094634
0.132924 -0.046616 -0.088060
-0.079145 -0.021515 -0.097286
-0.071821 0.012458 -0.098936
0.353289 0.035564 0.093532
0.023798 0.055835 0.083028
-0.263043 0.076016 -0.064699
-0.043778 -0.071395 -0.069501
0.271978 -0.088358 -0.046092
0.127232 -0.024599 -0.096597
0.320840 0.065242 0.075865
-0.457947 -0.035755 0.093379
-0.435927 0.098263 -0.018364
0.093974 -0.089001 0.045194
0.006390 -0.099551 -0.006341
-0.389359 -0.001376 0.100023
0.261425 -0.038995 0.092043
-0.178515 -0.034035 0.093999
-0.295732 -0.040836 -0.090883
0.007130 -0.048732 -0.086922
0.141224 -0.094802 -0.030910
0.076988 -0.021545 -0.097280
-0.311847 0.092318 -0.038146
-0.018683 0.065251 0.075857
-0.340545 0.099382 -0.010598
0.211277 0.018160 -0.098045
0.224171 0.076661 -0.063968
-0.144565 -0.053639 -0.083999
0.386383 0.025672 -0.096361
-0.167703 0.044161 0.089792
0.324822 0.060762 0.079494
-0.022518 -0.099112 0.011349
-0.239252 0.067784 0.073624
0.465022 -0.069515 -0.071381
0.345586 0.015625 0.098809
-0.039392 0.063422 -0.077068
0.067531 0.043606 0.090075
-0.278929 -0.098476 -0.015544
-0.270301 -0.008715 0.099631
-0.029099 -0.099719 -0.001487
-0.417482 -0.098164 -0.017513
-0.242749 0.078721 -0.061378
-0.224586 -0.018115 0.098378
0.272449 -0.080931 -0.058184
-0.131613 -0.057009 -0.081709
0.032238 -0.091248 -0.040078
-0.085751 0.099997 0.000450
-0.315820 -0.017014 -0.098189
0.415217 0.093486 -0.035213
-0.298926 0.086935 0.049512
0.026238 -0.064311 -0.076118
-0.408272 0.054703 -0.083434
-0.323869 -0.039928 -0.091276
0.057814 -0.038901 0.092083
-0.401664 -0.092124 0.038417
0.080822 -0.041371 -0.090652
-0.435065 -0.061700 0.078586
-0.198916 0.040390 -0.091177
-0.303801 -0.099683 0.003013
0.151991 -0.058097 0.081333
0.021315 -0.042740 0.090397
0.064480 -0.049772 -0.086307
0.422815 -0.069693 -0.071203
0.421356 -0.015981 0.098716
0.098102 -0.000662 -0.099683
0.141956 0.040952 0.091297
0.385490 0.044652 0.089542
0.193831 0.063567 0.077318
0.133299 -0.079510 -0.060059
-0.201182 -0.071789 0.069470
-0.336089 0.000037 0.100067
0.383667 -0.098483 0.015868
0.075696 -0.071682 -0.069214
0.055128 -0.068572 -0.072324
-0.441751 -0.099718 -0.001540
-0.007857 0.073036 0.068442
-0.130877 0.027671 -0.095781
0.021700 -0.058245 0.081232
0.365950 -0.097685 0.020321
-0.410509 0.096504 0.026273
-0.272098 -0.080293 0.059413
0.187960 0.063400 -0.077085
-0.187295 -0.095554 -0.028376
0.323322 -0.098120 0.018156
0.061597 0.077539 -0.062901
0.085802 0.076410 0.064615
-0.086164 0.091539 0.040307
-0.173759 -0.007647 0.099732
0.446797 -0.041869 -0.090436
0.220408 0.099767 0.006893
0.227387 0.012059 0.099337
-0.095266 -0.004762 0.099917
0.303502 -0.098314 0.016932
-0.251763 0.034994 0.093738
0.042844 -0.042838 0.090347
-0.461540 -0.002162 -0.099636
-0.286118 0.015407 -0.098481
-0.060356 0.063117 0.077668
-0.091488 0.079318 0.060971
-0.094918 0.070378 0.071115
0.191734 0.079500 0.060736
0.217201 -0.097804 0.019788
-0.224879 0.005693 -0.099532
0.362968 -0.073047 -0.067802
-0.376048 0.096454 0.026446
0.250716 0.032178 0.094751
0.320665 -0.062443 0.078010
0.319469 0.063198 -0.077242
-0.050695 -0.055375 -0.082820
0.446004 0.018304 -0.098022
0.378429 -0.097714 -0.019827
-0.024216 0.099172 0.012989
0.445854 0.021253 0.097760
0.375558 -0.060588 -0.079086
0.052823 0.068374 0.073104
-0.466489 0.089940 0.043807
0.463659 -0.094658 0.031672
0.298997 -0.005333 -0.099536
-0.398764 0.071006 -0.070123
0.320912 -0.007776 -0.099357
-0.324452 -0.086749 -0.049069
-0.040135 -0.070836 0.070423
0.271090 0.054514 -0.083563
0.031419 -0.083459 -0.054465
-0.197195 0.097484 0.022264
0.339242 -0.077849 -0.062201
-0.226929 0.070245 -0.070884
-0.243176 -0.032934 -0.094032
0.182254 -0.099606 -0.005090
0.077546 0.060269 0.079877
0.457093 -0.073876 0.067225
-0.153616 0.050708 -0.085891
0.067295 0.012072 -0.098973
0.433001 0.071027 0.070465
0.005686 0.099615 -0.008138
-0.312172 -0.075835 0.065003
0.322773 0.099470 -0.009673
0.354600 0.075608 0.065525
-0.209339 -0.065243 0.075658
0.035191 -0.077199 -0.063039
-0.342923 -0.096003 0.027193
0.275992 -0.051988 0.085359
-0.018588 0.070690 -0.070439
0.415762 0.099996 0.000484
-0.347140 0.039619 0.091874
-0.309653 0.026548 0.096470
0.304247 -0.030318 -0.094944
0.299408 0.035614 0.093514
-0.003668 0.095432 -0.029598
-0.156972 0.060402 0.079774
-0.307160 -0.085669 -0.050894
-0.202826 -0.086793 -0.048994
-0.403422 -0.004670 0.099920
-0.451833 -0.096288 -0.025851
-0.408325 0.098842 -0.014711
0.226768 -0.084580 0.053100
0.405373 -0.092422 0.037727
-0.090610 -0.025141 0.096811
-0.216144 -0.044755 0.089370
0.322717 -0.086355 -0.049736
0.451453 0.025201 0.096861
-0.313688 -0.059597 -0.079854
-0.403895 0.077906 0.062790
-0.021238 -0.081146 0.058231
0.340423 -0.066809 -0.073915
-0.156739 0.099244 -0.012057
0.280585 0.031457 0.095011
-0.450705 0.002081 -0.099645
-0.328595 0.080946 -0.058506
0.269862 -0.055881 -0.082476
-0.380874 -0.087792 -0.047204
0.029398 0.094836 -0.031464
-0.227171 -0.065408 0.075513
0.430073 0.045277 0.089223
-0.064164 0.068316 0.073155
0.031660 -0.035708 0.093396
0.376522 0.085017 0.052755
-0.016014 0.058838 -0.080624
0.450442 -0.037754 -0.092217
0.328403 0.027099 -0.095947
0.312762 0.090503 0.042702
0.348303 -0.055925 -0.082446
0.085760 -0.096409 -0.025435
-0.216001 -0.023793 0.097140
0.027782 -0.069010 0.072248
0.372273 0.052962 -0.084558
0.410269 0.097097 0.023996
0.126863 0.041143 -0.090851
-0.063203 0.040473 -0.091141
-0.445914 0.079676 -0.060146
0.418426 0.047663 -0.087645
0.345323 0.099432 0.010427
0.220585 -0.085226 0.052006
-0.263108 -0.093380 0.035223
-0.425835 -0.056775 0.082231
-0.266605 0.076504 0.064508
-0.092206 0.049038 0.087242
0.068982 0.065617 -0.075171
-0.339515 0.096743 0.025449
0.005319 -0.061774 -0.078165
-0.289262 -0.097508 0.021111
-0.336179 -0.058105 -0.080964
0.184904 -0.081889 -0.056775
-0.314848 0.002483 -0.099633
0.001506 0.099845 0.005287
0.165064 0.099993 -0.000200
-0.321098 -0.000117 0.100063
-0.122355 0.016903 -0.098244
-0.054773 -0.064681 0.076154
-0.088523 0.096757 0.025400
-0.052550 0.033560 0.094254
0.120451 0.076227 0.064823
-0.457402 0.099453 0.010211
0.048292 -0.036963 -0.092559
0.209122 0.091418 -0.040224
0.313901 0.046701 0.088498
0.326439 0.065004 -0.075712
-0.284580 0.098127 -0.019025
0.029511 0.099813 0.006287
-0.250679 -0.060682 -0.079012
-0.395550 -0.080915 -0.058207
-0.120464 0.065906 0.075280
-0.410471 0.019912 -0.097697
0.163284 -0.007913 -0.099344
-0.320677 0.043806 0.089973
0.041661 -0.031602 -0.094512
-0.276148 0.048229 0.087719
-0.228913 0.083839 -0.054248
-0.000609 0.099664 -0.007620
0.356018 -0.005544 0.099892
0.368251 -0.046915 -0.087907
0.167099 -0.096974 0.023499
-0.140475 -0.076230 0.064555
0.239084 0.045509 0.089105
-0.290490 -0.078923 -0.060816
0.407354 -0.094762 0.031384
0.204388 0.043836 0.089958
-0.466738 0.067781 0.073626
-0.256515 -0.091873 0.038997
-0.011384 -0.050088 0.086483
0.269612 0.099939 -0.001937
0.462095 0.093778 0.034767
0.280018 0.017530 -0.098144
-0.350340 0.012890 0.099242
-0.353789 0.086561 0.050145
-0.416153 0.044807 0.089463
0.080378 -0.070949 0.070310
0.300830 0.041306 -0.090781
-0.066739 -0.078420 -0.061465
-0.344701 0.014939 0.098918
-0.038175 -0.030440 0.095271
0.267820 -0.051205 0.085822
0.329671 -0.081992 0.056985
-0.053669 -0.035393 -0.093147
-0.195906 0.017405 0.098527
-0.091769 -0.044708 -0.089031
-0.416679 0.038097 0.092532
0.084783 -0.086815 -0.048958
0.063079 0.096906 0.024848
-0.080768 0.072878 0.068615
0.303791 0.071578 -0.069551
-0.228235 -0.081439 0.057800
0.235571 0.079932 0.060179
-0.411312 -0.065692 0.075263
-0.030306 0.027994 0.096050
-0.446389 -0.086174 0.050403
0.329153 -0.099374 0.008578
0.084440 0.060025 0.080065
-0.130646 0.090110 0.043474
0.285849 -0.083061 0.055413
-0.212896 -0.080028 -0.059391
0.430061 -0.015963 0.098718
-0.438751 0.086295 0.050593
0.365932 0.002144 -0.099643
0.130375 -0.091681 -0.039077
-0.140298 -0.062138 -0.077883
0.163558 -0.046711 -0.088011
-0.208490 0.067822 0.073590
-0.265036 -0.079377 0.060593
0.185188 0.073778 0.067601
0.366967 0.092271 0.038616
-0.009253 0.012050 -0.098975
-0.400603 0.002929 0.099982
-0.454269 -0.086228 0.050313
-0.203812 0.099334 -0.011108
0.287467 0.015162 0.098882
0.232736 -0.017012 -0.098189
0.261105 0.095318 -0.029993
0.033741 0.033950 0.094113
-0.099296 -0.019957 -0.097635
0.323318 -0.046047 -0.088349
-0.242007 -0.098594 -0.014802
-0.377504 0.092157 -0.038517
-0.421499 0.088017 -0.047219
0.057779 0.040784 -0.091007
0.101593 -0.099680 0.003106
0.276190 0.040649 0.091428
0.392185 -0.045959 0.088757
-0.097426 0.053455 0.084630
-0.450168 0.065653 -0.075140
-0.392666 0.096336 0.026852
0.214273 -0.099714 0.002012
0.419637 -0.090052 -0.042767
-0.188918 0.086076 0.050964
0.073981 -0.059094 0.080607
0.439976 -0.001621 -0.099653
-0.171520 0.048681 0.087453
0.409681 -0.096144 -0.026344
-0.398377 -0.095607 0.028558
0.319007 0.076036 0.065039
-0.384492 -0.062628 -0.077503
-0.087892 0.024497 -0.096672
-0.289125 0.099472 0.010010
-0.400366 -0.096953 -0.023230
-0.428490 0.099950 -0.001574
-0.205529 -0.099676 -0.002870
-0.441829 0.083090 -0.055351
-0.426932 0.075430 -0.065364
-0.348680 0.029195 -0.095338
-0.179176 0.076161 -0.064535
-0.457416 0.014175 0.099039
0.189315 0.025220 -0.096493
-0.003005 0.083229 -0.055146
0.437689 -0.051637 -0.085203
0.282158 0.089931 0.043826
0.050661 -0.052169 0.085252
-0.018457 0.036538 -0.092819
-0.366075 0.022548 -0.097108
-0.076847 -0.048989 0.087132
-0.239760 -0.090494 0.042183
0.328077 -0.018299 -0.097986
-0.174068 -0.084087 0.053903
0.172692 -0.048733 -0.086921
0.350180 -0.087841 0.047470
0.101070 0.094248 0.033460
0.388913 -0.027727 0.096060
-0.078158 0.009773 -0.099190
-0.382978 0.077579 -0.062849
-0.183443 -0.071399 0.069860
0.329187 -0.096151 -0.026320
0.097177 -0.098209 -0.017231
-0.334535 0.053159 -0.084442
-0.049113 -0.020458 0.097886
0.140737 -0.086169 0.050412
0.195709 0.035194 0.093665
0.276023 -0.094088 0.033256
-0.428558 0.099652 -0.007742
-0.296475 -0.010871 -0.099064
-0.321906 -0.053425 -0.084145
0.410326 0.020232 0.097988
-0.377564 -0.001623 0.100015
-0.373548 0.010620 0.099473
-0.464150 -0.089865 0.043498
0.344642 -0.094441 0.032276
-0.256241 -0.087970 -0.046854
0.231950 0.081842 -0.057188
0.444642 -0.061891 -0.078074
0.231164 0.075002 -0.065849
0.012599 -0.064359 -0.076075
-0.186775 -0.056917 0.082134
-0.201101 0.061286 0.079088
-0.342782 0.099857 -0.004539
-0.377321 0.097978 0.020054
-0.132726 -0.072784 -0.068101
0.157300 -0.030362 0.095294
0.282181 -0.001810 -0.099647
-0.240993 0.042774 -0.090136
-0.433482 0.050125 -0.086236
0.117678 -0.015480 -0.098432
0.313252 -0.005449 0.099895
-0.283588 -0.094990 0.030680
-0.045400 0.043669 0.090043
-0.219059 -0.056253 -0.082222
-0.369930 0.049261 -0.086747
0.295732 -0.096120 -0.026428
-0.352408 0.089405 0.044858
0.145528 -0.099029 0.012227
0.428439 -0.082794 -0.055443
-0.068552 -0.057871 -0.081123
0.405050 0.056896 0.082307
-0.048541 0.087473 0.048602
-0.263063 0.006230 -0.099515
0.313123 0.050091 -0.086256
-0.151314 -0.088770 -0.045284
0.362519 0.057023 0.082221
-0.391334 0.044476 -0.089269
-0.435504 0.094913 -0.031251
-0.020524 0.060739 0.079512
0.170930 -0.095792 0.027918
-0.321703 -0.090984 -0.040689
-0.190016 0.045555 0.089082
-0.173576 0.082244 0.056958
0.413693 0.099138 -0.012841
-0.216066 -0.094818 0.031229
0.116816 -0.065379 0.075539
0.135738 -0.068802 0.072457
0.346504 -0.027267 0.096193
0.174788 -0.082815 -0.055411
-0.117630 0.099685 0.007754
0.323629 0.049603 0.086907
-0.262362 0.017650 0.098488
0.055394 0.097396 0.022658
0.092819 0.057082 -0.081818
0.335683 0.082022 -0.056922
-0.465830 -0.035387 0.093512
0.045867 0.053033 -0.084516
-0.259845 0.051965 0.085511
0.439188 0.037541 -0.092410
0.186040 0.057512 -0.081526
0.197233 -0.061714 0.078575
-0.391408 0.008004 -0.099357
0.319706 0.049218 -0.086772
0.171357 -0.085846 -0.050595
0.245041 -0.059894 -0.079624
-0.338976 0.008912 -0.099272
-0.362075 0.099557 -0.008747
0.352391 0.044390 -0.089312
0.463557 -0.081129 -0.057892
0.433054 -0.021932 0.097556
0.322794 -0.072165 0.069094
-0.276031 0.014016 0.099064
0.369087 0.015480 0.098832
-0.175750 0.094791 -0.031589
-0.259326 0.010218 0.099511
-0.130199 -0.099398 0.008326
-0.136451 -0.098417 -0.015919
-0.088523 -0.009093 -0.099232
-0.302500 -0.064784 0.076063
-0.261026 -0.056524 0.082401
-0.430047 -0.040569 -0.090999
0.311472 -0.012910 0.099202
0.088244 -0.062553 -0.077561
0.302163 -0.001511 0.100019
0.050411 -0.022437 -0.097080
-0.082379 0.098717 0.015859
0.352347 0.006420 0.099870
0.154017 -0.094875 0.031071
-0.329089 0.010024 -0.099166
0.023069 0.086597 0.050084
-0.331507 0.064872 0.076191
0.117794 0.067151 -0.073819
-0.237954 0.013697 0.099114
-0.295059 -0.052375 -0.084767
-0.270629 0.057325 0.082015
-0.322460 0.087575 0.048429
0.273261 -0.011267 0.099390
-0.153676 -0.026427 -0.096074
0.260044 0.091186 0.041122
-0.296257 -0.067105 -0.073654
-0.216946 -0.038586 0.092220
-0.461629 0.070843 0.070649
0.379962 -0.028653 0.095791
0.459528 0.096708 -0.025209
-0.342149 0.028853 -0.095437
-0.396225 -0.097357 0.021788
-0.179720 -0.018815 -0.097890
-0.045058 -0.065749 0.075212
-0.382909 0.071296 0.070196
-0.041720 -0.092865 -0.036292
-0.381311 -0.071196 -0.069700
0.217748 0.056162 0.082806
0.015427 0.019192 0.098221
-0.227858 0.090270 -0.042799
0.034081 -0.099658 -0.003458
0.253773 0.087967 0.047680
0.428904 0.020288 -0.097613
-0.427389 -0.049994 0.086538
-0.445234 0.091891 0.039494
-0.043713 -0.097127 -0.022455
-0.129088 0.095911 -0.027951
-0.051439 -0.051923 0.085397
0.371990 -0.099465 -0.007255
-0.162004 0.070394 0.071099
0.119645 -0.030813 0.095159
0.109740 0.093238 -0.035905
-0.017925 -0.011370 -0.099017
0.338864 -0.085151 0.052134
0.024490 -0.092536 -0.037101
0.242105 0.075006 0.066208
-0.119811 0.073058 -0.068055
0.202953 0.037959 -0.092229
0.194022 -0.028042 -0.095605
0.062432 0.093154 0.036499
0.109276 0.067938 0.073488
-0.462954 0.016650 -0.098284
-0.067701 -0.041863 0.090802
0.012229 0.025540 0.096763
0.255964 -0.084394 -0.053051
0.314216 -0.098681 -0.014252
0.112830 -0.049263 -0.086608
-0.169735 0.077442 -0.063026
-0.312409 -0.097927 -0.018874
-0.160488 0.039505 0.091923
-0.207520 -0.007499 -0.099383
0.008028 0.032350 0.094689
0.197983 0.069371 0.072121
0.136435 0.051013 -0.085711
0.028964 0.065319 0.075797
0.276140 0.099208 -0.012399
-0.432357 0.000130 -0.099707
0.105195 -0.034540 -0.093454
0.427415 0.067503 0.073871
0.260017 -0.095408 -0.028880
0.356524 0.031018 -0.094806
-0.383486 -0.007019 0.099791
0.059447 0.074210 0.067111
-0.407840 -0.091947 0.038825
-0.458981 -0.093407 0.035148
0.081239 -0.066771 0.074311
0.144833 -0.099632 0.004647
-0.211832 0.051918 -0.085175
-0.100009 0.059324 -0.080247
0.133832 -0.099635 -0.004170
-0.370487 -0.031841 -0.094426
-0.076608 -0.096365 -0.025583
-0.313467 0.085967 0.051148
-0.256377 -0.075460 -0.065066
0.053451 -0.057379 0.081820
0.075794 -0.010847 0.099429
-0.063135 0.027268 0.096261
0.428432 -0.032765 0.094456
0.309551 -0.098624 0.014977
0.353256 0.054512 0.083927
0.376872 0.016604 -0.098291
0.156209 -0.062221 -0.077819
0.439400 -0.076386 -0.064015
-0.197088 -0.076958 0.063712
-0.222442 0.057439 0.081938
0.205145 0.020384 -0.097591
-0.200606 -0.020784 -0.097450
0.329509 0.093474 -0.035248
-0.244907 -0.014949 -0.098516
0.240716 -0.039910 0.091647
-0.210050 -0.076550 -0.063829
-0.204575 0.094158 0.033711
0.026839 0.099327 -0.011185
0.307561 -0.099315 -0.008840
0.210511 0.085571 0.051817
0.101130 -0.057610 0.081663
-0.308058 -0.068212 -0.072678
-0.256443 0.094221 -0.033173
-0.066600 0.048090 -0.087427
-0.290810 0.094746 -0.031714
-0.306376 0.097626 0.021628
0.070712 0.063836 0.077104
-0.417938 -0.060237 -0.079357
-0.124419 -0.099668 0.003500
0.062540 0.017532 -0.098144
0.197140 -0.063463 -0.076855
0.310793 0.098465 0.017450
-0.409474 -0.099612 0.005264
-0.449908 -0.099605 0.005508
-0.341589 0.064426 -0.076221
0.463417 0.046894 -0.088036
0.461844 -0.074808 -0.065804
-0.313648 -0.010367 0.099475
0.451422 -0.054193 0.083986
-0.279814 -0.095777 -0.027608
0.407355 -0.026774 0.096336
-0.296294 -0.074136 0.066930
0.157105 0.078169 0.062452
-0.461507 -0.077746 -0.062333
0.171452 0.086288 0.050606
-0.339119 0.080894 0.058938
0.142113 0.032056 -0.094432
-0.297488 -0.099631 -0.004300
-0.348825 0.085037 -0.052359
0.299430 0.047947 -0.087500
0.188628 -0.097196 0.022506
0.225474 -0.096386 0.025875
-0.456671 0.098464 -0.017098
0.002889 0.036463 0.093208
0.091985 0.075245 0.065937
0.340859 0.048520 -0.087185
0.462831 -0.070624 0.070635
-0.409292 0.082557 -0.056135
-0.362509 0.069639 0.071853
0.384228 -0.099661 0.003703
-0.222522 -0.042847 0.090342
0.238062 -0.035058 -0.093267
0.032677 0.044276 -0.089370
0.145935 0.004794 -0.099560
-0.336284 -0.030142 0.095358
-0.429639 -0.070417 0.070842
0.426849 0.098809 0.015278
0.379605 -0.006631 0.099828
-0.297287 -0.085165 0.052110
0.343256 -0.099591 0.005925
0.275683 0.098276 -0.018280
-0.090795 0.070315 -0.070815
-0.089317 0.014674 -0.098597
-0.274436 0.096954 0.024633
0.170949 -0.042518 0.090510
-0.406733 0.072258 0.069234
-0.197162 -0.099684 0.002980
0.286165 -0.079436 0.060517
-0.087518 0.085016 0.052757
0.153472 0.094713 0.032168
0.002489 0.044065 -0.089478
-0.136720 0.078872 -0.061183
0.420770 0.025092 0.096893
-0.161341 -0.083675 -0.054147
0.139251 0.069394 -0.071736
-0.185151 -0.008854 -0.099255
-0.205441 0.086086 0.050948
0.139135 -0.020497 -0.097514
0.457240 0.068137 -0.072950
0.356887 0.099027 -0.013542
0.438082 0.032728 0.094553
-0.052658 0.052595 0.085138
-0.253208 -0.096877 -0.023570
-0.069256 -0.003950 -0.099579
0.427436 -0.035474 -0.093118
-0.439553 -0.069208 0.072051
-0.284920 -0.052869 0.084838
-0.217627 0.091182 -0.040770
0.032042 -0.093488 -0.034561
0.275687 -0.096746 0.024519
0.229758 0.092487 -0.037755
0.134673 0.095966 -0.027763
-0.156591 -0.099126 0.011197
-0.012994 0.072378 -0.068751
-0.023480 0.048977 -0.086915
-0.409691 -0.033280 -0.093908
-0.184079 0.051259 0.085928
0.161920 -0.095187 -0.029641
0.259547 0.075643 -0.065123
-0.117516 0.097425 -0.022165
-0.096982 -0.053276 0.084597
-0.123502 0.060523 0.079679
0.321352 0.086982 0.049432
0.328916 0.019694 -0.097746
0.420016 -0.039106 0.091995
-0.359560 -0.084100 0.053885
-0.073780 0.096954 -0.024269
-0.243941 -0.092711 0.037061
-0.012403 -0.099514 0.007096
0.238804 -0.016402 0.098649
-0.407710 -0.096389 -0.025503
0.157522 -0.062506 0.077960
-0.062443 -0.034950 -0.093306
0.166500 -0.088745 -0.045333
0.205159 0.099485 0.009876
0.129663 -0.063126 -0.077117
-0.222092 0.099487 0.009850
-0.409684 -0.000320 -0.099694
-0.443949 0.095216 0.030707
0.337305 -0.020258 -0.097567
-0.449725 -0.005698 -0.099525
0.222824 0.096489 -0.025961
-0.066307 0.040323 0.091569
-0.421483 -0.051020 0.085931
-0.332445 -0.085050 -0.051942
-0.011665 -0.027338 0.096172
-0.137849 -0.088963 0.045267
0.416484 0.038678 0.092281
0.120063 0.015784 -0.098421
0.385098 0.099854 -0.004623
-0.012022 -0.090790 0.041500
-0.214114 0.064437 0.076575
0.084929 0.019008 -0.097899
-0.079403 0.067783 0.073625
0.203297 0.064065 -0.076539
0.420876 0.094607 -0.032102
-0.070802 -0.093149 -0.035502
-0.227741 -0.080203 -0.059165
-0.277840 0.087353 -0.048441
-0.465866 0.050482 -0.086025
0.386406 -0.024545 -0.096609
0.138282 -0.099462 0.007646
-0.026138 0.096125 -0.027214
-0.447591 -0.048811 0.087237
-0.458503 -0.028392 0.095866
0.355825 0.085051 -0.052335
0.327353 0.033798 -0.093805
-0.304934 0.010652 0.099470
0.216184 0.097505 0.022169
0.318517 -0.049036 -0.086742
0.020176 0.099689 -0.007346
-0.244490 -0.063571 -0.076770
0.384037 0.092739 -0.037173
-0.374162 -0.037927 0.092505
-0.264298 0.088176 0.047269
0.146900 -0.090381 0.042444
0.402052 0.040279 -0.091225
0.013831 -0.094543 0.031993
-0.341988 -0.099040 0.012110
0.005268 -0.067542 -0.073269
0.304374 -0.036619 -0.092705
0.394430 -0.091856 0.039035
-0.112749 -0.038497 0.092258
0.283376 -0.098625 0.014968
0.169368 0.074277 -0.066672
0.402510 0.070665 0.070828
0.038538 0.011707 -0.099007
-0.066571 -0.088741 0.045702
0.446549 -0.053732 -0.083936
-0.252299 0.049967 0.086692
-0.067635 0.032392 0.094674
-0.429201 0.093764 -0.034442
-0.287643 -0.099590 -0.005595
0.148024 0.006680 0.099845
0.222204 0.088988 0.045676
0.095283 0.084850 -0.052674
0.443083 0.004777 -0.099561
-0.326014 -0.015642 -0.098406
0.325952 -0.095991 0.027236
-0.199294 -0.085482 0.051573
0.386316 -0.099704 -0.001991
0.327501 -0.061606 0.078659
-0.196626 0.074012 -0.066972
-0.102759 0.025561 0.096757
-0.234725 -0.081941 0.057061
0.316293 0.095952 0.028171
0.455333 -0.076668 -0.063695
-0.257360 -0.080753 0.058808
0.097373 0.076931 0.064025
-0.041017 0.090096 0.043503
0.227371 -0.081013 0.058427
0.240074 0.099136 -0.012851
0.138700 -0.094943 0.030842
0.334767 -0.060164 0.079777
0.392076 0.007424 0.099775
0.220960 -0.025280 -0.096408
-0.193031 0.003375 -0.099605
-0.416558 0.080481 0.059470
-0.395037 0.091896 0.039482
-0.158415 -0.088933 -0.044964
-0.465583 0.095720 -0.028609
0.159685 0.051342 0.085879
-0.433377 -0.018011 0.098394
-0.392044 -0.028714 0.095773
0.144016 0.086175 0.050796
-0.435123 -0.097518 0.021065
-0.170368 0.025803 -0.096323
-0.213735 -0.026989 -0.095911
0.046200 0.093467 -0.035267
-0.425725 0.060123 -0.079627
-0.076418 0.099506 0.009648
-0.081445 0.098898 -0.014354
-0.445081 -0.079732 0.060135
-0.206825 -0.073265 -0.067555
-0.140128 -0.071426 -0.069470
0.092314 -0.095819 -0.027464
-0.167991 -0.031703 -0.094475
-0.093131 -0.040678 0.091314
0.056491 0.099746 0.007106
-0.400527 0.098057 0.019700
-0.225517 -0.096602 0.025131
-0.222018 0.079463 -0.060421
-0.217515 0.096524 -0.025842
0.343986 -0.044680 -0.089046
0.215442 -0.087910 0.047335
0.179677 0.053855 -0.084011
-0.035523 0.084007 -0.054002
0.038247 -0.044301 -0.089239
-0.183913 0.016376 -0.098327
0.363627 0.087982 0.047652
-0.403391 -0.063897 0.076845
0.268616 0.098025 -0.019479
-0.012303 0.012467 0.099298
0.133262 -0.093022 0.036217
0.367703 0.059849 0.080202
-0.270941 0.094469 -0.032483
0.249088 -0.070631 -0.070265
-0.322264 -0.026986 -0.095912
-0.003512 -0.018426 0.098328
0.115950 0.099426 0.010500
0.090949 0.081786 -0.057269
-0.299556 -0.052538 0.085033
-0.367402 -0.046747 -0.087993
-0.113231 0.099966 0.001425
-0.189437 -0.071334 -0.069562
-0.068183 -0.088606 -0.045606
0.383572 0.073117 0.068351
0.262538 0.096527 0.026193
-0.381059 -0.047907 0.087764
0.390160 -0.019730 0.098048
0.442322 0.042421 -0.090298
-0.147348 -0.027378 -0.095798
0.311311 0.099750 0.007069
-0.404621 -0.098509 -0.015337
-0.202337 0.043617 0.090069
0.321604 0.093023 0.036863
0.089877 -0.083338 -0.054642
0.064797 0.066287 0.074943
0.095002 -0.013001 -0.098825
0.118074 -0.096561 0.025272
0.155482 -0.099532 -0.006541
-0.127126 0.045023 0.089353
0.414529 -0.019105 0.098188
0.295987 -0.098537 -0.015162
-0.088894 0.087439 -0.048296
0.000849 -0.000481 0.100051
0.328780 -0.039264 -0.091564
-0.288867 0.023696 0.097214
0.249227 -0.082069 -0.056509
0.049131 -0.093176 -0.035427
0.319885 -0.096893 0.023863
0.336832 -0.099587 0.006057
0.170581 0.095026 0.031299
0.318246 -0.099770 0.000255
-0.464358 0.035393 -0.093231
0.124085 0.099687 0.007733
-0.252088 0.093159 0.036486
0.065941 -0.034629 0.093785
-0.131119 0.064894 0.076171
-0.376463 -0.022907 -0.096975
0.256160 -0.061569 0.078687
0.198623 0.029304 0.095669
0.155228 -0.034206 -0.093574
0.396394 -0.022131 -0.097149
0.129832 -0.062012 0.078344
-0.326917 -0.030153 0.095355
0.426639 -0.060265 -0.079336
0.070492 0.025851 -0.096310
-0.366698 -0.013466 -0.098751
0.037238 0.021755 0.097648
0.015228 -0.048039 -0.087332
-0.045083 -0.056270 0.082574
0.336608 -0.095588 0.028623
-0.198048 -0.096479 -0.025193
-0.464542 0.098361 -0.017746
-0.353148 0.042106 0.090797
-0.348614 -0.043001 -0.089901
-0.039804 -0.062738 -0.077418
-0.022363 -0.004322 0.099931
0.038947 0.074901 -0.065965
0.255117 0.009648 -0.099202
-0.228965 -0.072554 0.068705
-0.337232 0.067822 -0.073228
0.463418 0.090953 0.041662
0.008422 -0.020732 -0.097462
0.170892 0.099004 0.014050
-0.064596 -0.096347 0.026008
-0.052268 0.082972 -0.055524
0.131399 -0.038838 0.092111
-0.029133 0.032771 -0.094175
-0.347736 -0.056734 0.082259
-0.033355 -0.033941 0.094033
-0.103923 -0.040134 -0.091187
0.071367 -0.080656 0.058944
-0.061228 -0.019105 -0.097825
-0.010279 -0.077015 -0.063276
-0.220556 -0.089804 0.043616
-0.312367 0.099597 0.008691
-0.077523 0.017303 -0.098180
0.054779 -0.097483 0.021222
0.111282 -0.096069 0.026968
-0.171998 -0.098030 0.018726
-0.332615 0.044516 0.089611
0.448254 -0.089468 0.044276
-0.062296 0.014342 -0.098649
-0.219013 0.067932 0.073494
0.220817 0.099968 -0.000996
-0.250567 0.002554 -0.099631
-0.347993 -0.015176 0.098843
-0.212909 -0.058075 -0.080984
0.229750 -0.099592 -0.005547
-0.043192 -0.035342 0.093528
0.002411 -0.069422 0.071837
0.082158 0.046835 0.088430
-0.325925 -0.063865 -0.076511
0.091904 0.095342 -0.029909
0.091952 0.017464 -0.098155
0.421511 -0.057620 -0.081294
-0.364865 0.093383 0.035864
0.013868 0.045511 0.089104
-0.155774 -0.073971 0.067116
-0.440680 -0.024393 -0.096643
0.053567 -0.096626 -0.024685
-0.010003 -0.098977 0.012750
0.453714 -0.087497 0.048145
-0.231270 -0.029848 -0.095081
-0.129713 0.076455 -0.064202
-0.254531 -0.017965 -0.098039
-0.433168 -0.037900 0.092517
-0.086918 -0.077843 0.062571
0.001500 -0.075491 0.065393
-0.275096 0.072870 -0.068259
-0.449667 -0.098949 -0.012562
-0.235325 0.082816 -0.055754
0.246102 0.032057 -0.094432
0.346193 -0.099008 0.012448
0.338596 -0.063611 0.077097
0.022301 0.081483 -0.057716
0.019153 -0.007462 0.099749
-0.212542 0.011892 0.099353
-0.279017 0.094077 0.033935
-0.320102 0.015774 -0.098423
0.418016 -0.077297 0.063274
-0.042651 -0.095836 0.027768
-0.343852 0.097447 -0.022065
0.457775 -0.021370 0.097682
0.214131 0.086092 -0.050574
-0.434410 -0.099639 -0.004040
-0.151386 0.056786 -0.082019
-0.234255 -0.096482 0.025544
0.119504 -0.005703 0.099887
0.311268 -0.041506 -0.090593
0.002347 -0.053594 -0.084030
0.064650 -0.098508 -0.015342
-0.219525 -0.099657 0.003832
0.150464 0.097638 0.021575
-0.378497 -0.052630 -0.084616
0.006618 0.044875 0.089428
-0.101741 0.056746 0.082409
-0.272158 0.098923 -0.014197
0.114589 -0.034890 0.093691
0.160990 0.020982 0.097821
-0.003613 -0.096082 -0.026560
0.315980 0.094009 0.034124
0.002651 -0.094489 -0.031779
0.393128 0.097099 0.023985
0.407176 -0.062194 0.078203
-0.175567 0.093309 0.036070
-0.283977 -0.073023 -0.067830
-0.298297 0.092785 0.037429
0.345580 0.099868 0.004538
0.248546 0.038938 -0.091806
-0.189548 0.081639 -0.057486
0.078772 0.081684 -0.057419
0.037658 0.032383 -0.094315
0.366012 0.096702 -0.025227
-0.342097 0.091246 0.040985
-0.232206 -0.099418 -0.007746
-0.056859 -0.003946 0.099942
0.348218 0.039641 -0.091501
-0.037338 0.021818 -0.097271
-0.311198 0.068770 0.072722
0.183621 -0.094166 0.033041
0.131828 -0.073438 0.067721
-0.027927 0.020385 0.097954
0.177679 0.024188 0.097104
-0.155357 0.084121 0.054196
-0.248930 -0.068126 -0.072754
0.027866 0.098490 0.017296
-0.196271 -0.015338 -0.098455
0.151090 0.012546 -0.098928
0.395124 0.030065 -0.095085
-0.214194 -0.087731 0.047685
-0.087923 0.075552 0.065589
0.181707 0.048296 0.087680
-0.052936 0.092474 -0.037785
0.267818 0.063637 0.077264
0.248478 0.051115 0.086013
0.314225 0.059736 -0.079927
0.362540 -0.084817 -0.052336
0.138821 0.094024 0.034084
-0.042051 0.099299 -0.011475
0.367739 0.071038 -0.070092
-0.268187 0.012550 -0.098928
0.177951 0.035605 0.093517
0.386803 -0.043457 -0.089669
-0.036311 0.096607 0.025917
0.409775 -0.099551 -0.006347
-0.259949 0.097309 -0.022685
-0.218342 -0.067881 0.073332
-0.437116 -0.094827 -0.030843
0.032863 0.095158 0.030905
0.438888 0.026931 -0.095996
0.336504 0.015037 0.098902
-0.251415 0.071430 0.070062
-0.012274 -0.097865 -0.019151
0.124761 -0.089588 -0.043677
-0.048586 0.024493 -0.096673
0.352519 -0.030117 0.095365
-0.246424 0.025026 -0.096549
0.174830 -0.092125 -0.038050
0.352485 0.085994 0.051102
0.414986 -0.081082 -0.057962
0.012013 0.074332 0.066972
-0.245751 0.096365 0.026750
0.145125 0.073528 0.067884
0.252261 -0.047547 0.087948
-0.128606 -0.030510 -0.094888
0.152606 0.024675 0.096995
-0.171537 0.072874 -0.068256
0.205403 -0.020992 0.097766
0.101924 0.098904 0.014679
-0.156015 0.071178 0.070314
0.298002 -0.044393 -0.089192
0.023028 -0.092159 0.038336
0.056804 -0.078840 -0.060923
0.126641 -0.012844 0.099212
0.414557 -0.099003 -0.012136
0.150525 -0.037746 -0.092220
-0.175631 -0.096707 -0.024330
0.125302 0.014764 0.098945
-0.188831 0.067652 0.073740
-0.147715 0.046657 0.088520
0.065804 -0.084806 0.052718
-0.424449 0.021307 -0.097385
-0.136356 -0.080432 0.059234
-0.063754 -0.098037 0.018681
0.346212 -0.077210 -0.063024
-0.372480 0.096555 -0.025734
0.236388 -0.094680 -0.031250
-0.176211 0.028792 -0.095455
0.350568 0.059117 0.080770
-0.130620 0.097454 -0.022033
0.345906 0.035237 0.093650
0.367299 -0.076485 -0.063903
0.418388 0.062892 -0.077479
-0.231992 0.093194 0.036389
-0.279191 -0.011193 -0.099034
0.331584 0.089032 -0.045227
0.456235 0.099607 -0.008220
0.109093 -0.086713 0.049493
-0.154420 0.098321 -0.018000
0.230948 0.037812 -0.092293
-0.105588 0.054596 -0.083507
0.020218 -0.097203 0.022474
0.435319 0.099836 0.005573
-0.332252 0.073831 0.067541
-0.375966 0.047788 -0.087581
0.381584 0.064398 0.076610
0.177165 0.096651 0.025766
0.440404 0.093227 -0.035935
0.434796 0.077038 0.063903
0.332352 0.063363 -0.077114
0.279773 0.097178 -0.023267
0.412519 -0.038327 0.092332
-0.304340 0.084754 0.053199
-0.401366 0.065673 -0.075122
0.071723 -0.070988 0.070271
0.193286 -0.098624 0.014976
0.199597 -0.095906 0.027527
0.403895 0.026686 0.096430
0.408530 0.047929 0.087872
-0.124107 -0.095680 0.028306
0.086387 -0.092494 -0.037199
-0.288219 0.009850 -0.099183
-0.296560 0.099141 -0.012822
-0.097868 -0.089729 0.043764
0.439046 -0.069260 0.071999
0.255693 -0.054413 0.083836
0.040952 0.018343 -0.098016
-0.393420 0.088843 -0.045599
0.073114 -0.052548 0.085027
0.329047 -0.014175 0.099002
-0.240293 0.086188 -0.050413
-0.432599 -0.066717 -0.073996
0.265978 0.051320 -0.085529
-0.372587 -0.098397 0.016408
-0.080420 0.006274 0.099876
0.308205 0.086707 -0.049534
0.033573 -0.023748 0.097150
0.185484 -0.067395 0.073761
0.164400 0.003233 0.099972
-0.154004 0.043091 -0.089975
-0.306663 0.040024 -0.091336
0.288496 0.099358 -0.010854
0.462959 -0.023220 -0.096905
0.344959 -0.093398 -0.034812
-0.250052 -0.075834 0.065004
-0.356859 0.057814 -0.081321
0.099618 0.038167 -0.092139
0.092913 0.038139 -0.092151
-0.045234 0.058722 -0.080704
-0.220171 -0.095351 -0.029075
-0.133745 0.042342 0.090695
-0.361527 -0.047081 0.088185
-0.257590 0.086454 -0.049962
-0.423290 0.029119 -0.095360
-0.257246 0.061782 -0.078340
0.369809 -0.097236 -0.021964
0.093571 -0.071099 0.070160
0.307059 -0.062748 -0.077410
0.402126 0.064709 -0.075972
0.240808 -0.087520 -0.047737
-0.388588 -0.033807 0.094081
-0.441338 0.069550 -0.071580
0.332586 -0.077849 -0.062200
0.421859 -0.050655 0.086147
-0.047776 0.007504 -0.099405
0.059915 -0.003566 -0.099591
0.002543 0.001928 -0.099650
0.333638 0.099066 -0.013297
0.411980 0.097359 -0.022458
0.306142 0.052187 -0.085016
-0.316593 0.059528 -0.080089
0.358219 -0.031020 -0.094721
-0.336009 0.014277 -0.098660
0.147320 -0.095205 0.029939
-0.115013 0.077303 -0.063206
-0.404989 -0.042829 0.090352
-0.184569 0.093888 0.034460
0.181488 0.076621 -0.064013
-0.447600 -0.067419 0.073740
-0.345325 -0.027506 -0.095761
-0.365160 0.030056 0.095451
0.404170 0.042481 0.090635
0.416662 -0.026593 0.096389
-0.456832 -0.099566 0.006552
0.128854 0.023508 -0.096893
-0.006108 -0.082133 0.056778
-0.372018 -0.097914 -0.018934
0.452137 0.014567 -0.098614
-0.323043 -0.001527 -0.099656
-0.087423 -0.097098 0.022944
-0.465371 0.047751 0.087963
0.086912 0.051508 -0.085418
0.151426 0.073238 0.068213
0.359365 -0.051916 0.085401
0.443022 0.071129 0.070363
0.214557 0.009328 0.099595
-0.431872 -0.096181 0.026580
0.329233 -0.056285 0.082564
-0.243643 -0.093473 -0.034601
-0.103510 -0.050682 0.086131
-0.227867 -0.038464 0.092272
-0.324162 0.032699 -0.094201
-0.021724 0.070128 0.071364
0.140744 0.073311 -0.067768
0.350406 -0.048675 -0.086955
-0.233749 -0.048479 0.087434
0.023784 0.099867 0.004576
0.041308 0.053060 0.084863
0.330423 0.055774 0.083070
0.087021 -0.091287 0.040351
-0.376931 0.092107 0.038995
0.356790 -0.074003 -0.066718
-0.098414 -0.072985 0.068235
-0.230970 0.021942 -0.097243
-0.329931 -0.083012 0.055485
-0.031665 0.043905 -0.089560
-0.114667 -0.092819 0.036780
0.227104 0.098771 -0.015155
-0.011963 0.042217 -0.090387
0.247043 -0.071694 0.069565
0.194700 0.063674 -0.076872
-0.221499 0.066201 -0.074656
0.186110 0.072776 -0.068354
-0.414712 0.053112 -0.084469
-0.014276 0.095486 -0.029415
0.112517 0.085175 -0.052124
-0.383222 -0.038557 -0.091870
0.375320 -0.070154 -0.070742
0.100824 -0.095385 0.029320
0.374467 0.099819 -0.005744
0.280301 0.055091 -0.083171
-0.159596 0.097910 0.020356
0.232576 -0.069201 -0.071695
-0.328780 -0.088973 0.045247
-0.007098 0.051445 0.085818
-0.174873 -0.094459 0.032226
-0.048814 0.090654 -0.041990
0.367773 0.098126 -0.019029
-0.442700 0.090970 -0.041259
-0.031595 -0.092079 0.038521
-0.294240 -0.099254 -0.009479
-0.149753 -0.060140 0.079795
0.226329 -0.028303 -0.095529
-0.094551 0.036328 -0.092894
-0.434026 0.062866 0.077862
-0.379593 -0.097786 -0.019506
-0.298029 0.089885 0.043917
0.151683 -0.067208 -0.073563
0.336515 -0.090991 0.041035
0.224338 -0.041398 -0.090640
0.248719 0.095415 -0.029659
-0.048487 -0.098707 0.014449
-0.206212 0.004025 -0.099584
0.340906 0.094184 0.033638
-0.339464 0.047816 -0.087567
-0.140525 -0.019623 -0.097709
0.259741 -0.086577 0.049723
-0.069737 -0.062918 -0.077278
-0.197008 0.027757 -0.095756
0.062791 -0.059426 -0.079987
0.338319 -0.055244 0.083271
0.106668 0.048781 0.087393
0.045590 -0.005120 0.099905
0.218765 -0.000672 -0.099682
-0.197632 0.047452 -0.087753
0.079823 0.009924 0.099539
-0.150070 -0.085515 0.051518
-0.459828 0.053454 -0.084267
0.244923 -0.095123 0.030224
-0.402934 -0.088733 0.045719
-0.095565 0.027699 0.096135
0.238043 -0.081204 0.058145
0.114645 -0.049357 0.086915
0.447889 0.038812 0.092223
0.027202 0.099884 -0.003681
-0.390511 -0.059846 0.080024
0.343491 -0.050080 -0.086124
0.116989 0.065223 0.075882
0.213683 -0.098313 -0.016578
-0.233419 0.064420 0.076589
0.453141 -0.097520 -0.020694
-0.264722 -0.099252 -0.009507
0.215436 0.060625 -0.079238
-0.287270 0.094320 0.033262
-0.298177 0.001188 0.100036
-0.310999 -0.086605 0.049675
-0.340545 -0.085009 0.052374
-0.124781 -0.099524 -0.006626
0.247869 0.067341 -0.073652
0.161558 0.090626 -0.042055
-0.003109 -0.037055 0.092882
-0.093123 0.058989 -0.080507
0.021150 0.024653 -0.096637
0.029242 -0.050125 -0.086098
-0.459013 -0.098132 0.018081
-0.151705 -0.095523 0.028845
0.345716 0.098265 0.018713
-0.168567 -0.039018 -0.091670
-0.038072 0.031002 -0.094812
0.383080 -0.052572 -0.084650
-0.018222 -0.089601 0.044015
-0.252180 -0.071944 -0.068952
0.027838 0.097980 -0.019683
-0.236956 0.099166 0.013024
-0.346081 0.079098 0.061254
0.063497 -0.092094 0.038487
0.371412 -0.082779 0.055827
-0.162027 -0.097414 0.021530
0.188768 0.068794 -0.072335
0.000641 -0.019411 -0.097757
-0.279140 0.099736 0.007221
-0.437418 -0.092145 -0.038005
-0.425820 0.094625 0.032413
0.092617 -0.097008 0.023349
-0.081042 0.093147 0.036518
-0.385115 0.059594 0.080400
0.433039 0.002072 0.100009
0.150780 -0.004163 0.099936
-0.289441 -0.069068 -0.071828
0.259763 -0.099701 0.002449
0.419675 0.095870 0.028456
-0.386126 -0.083963 0.054086
-0.150845 -0.014882 -0.098527
0.455117 0.039073 0.092110
0.160252 0.067114 0.074214
0.106041 -0.089227 -0.044386
0.435584 0.042238 0.090741
-0.236944 -0.038188 0.092392
-0.446109 0.059512 -0.080101
0.437255 0.091088 0.041349
0.106287 0.007536 -0.099402
0.341356 0.042742 -0.090152
0.343578 0.090111 0.043473
0.388698 -0.086871 0.049225
-0.245067 0.098064 -0.019304
0.014685 0.035496 -0.093194
0.059063 -0.094439 0.032281
-0.150533 0.099918 0.002973
-0.203788 -0.053609 -0.084020
0.093711 0.023475 -0.096900
0.433411 -0.084097 0.053889
-0.117338 0.071132 0.070360
0.307131 0.079535 0.060690
-0.162511 -0.037776 0.092570
-0.192531 -0.019781 -0.097674
0.304245 -0.098484 -0.015497
0.021541 0.097261 -0.022896
-0.252450 0.095319 0.030352
0.254369 -0.065314 -0.075233
-0.118548 0.005712 0.099894
-0.365784 -0.084216 0.053714
-0.026603 0.088050 0.047518
0.464713 0.013793 -0.098736
0.315958 0.099129 0.013257
0.068783 0.098473 0.017401
-0.179245 0.095141 0.030964
0.297656 0.074678 0.066580
-0.219073 -0.075003 -0.065584
-0.429088 0.009095 -0.099254
0.198261 -0.072974 0.068248
-0.033467 -0.061160 -0.078642
0.312410 -0.050072 0.086492
-0.176306 -0.063646 -0.076704
-0.289808 0.076747 0.064233
0.329448 -0.098572 0.015302
-0.372572 -0.074512 -0.066141
-0.284177 -0.027782 -0.095681
-0.444494 0.037702 0.092703
-0.300264 0.037675 -0.092352
-0.092314 -0.059789 0.080068
0.006902 0.049378 -0.086678
-0.006740 -0.084776 -0.052406
-0.031593 -0.089670 -0.043517
0.151134 -0.099425 0.008043
-0.383043 -0.099744 0.001062
-0.261942 0.095945 0.028198
-0.224529 0.099875 0.004329
-0.118622 -0.077249 -0.062974
0.031193 -0.091717 0.039356
0.398226 0.045500 0.089110
0.464964 0.068027 -0.073047
-0.408100 -0.085201 -0.051687
-0.191009 0.099877 0.004247
0.167482 0.060585 -0.079268
0.403715 -0.060311 -0.079300
0.079121 0.004812 -0.099560
-0.307153 -0.058993 -0.080323
-0.324065 0.021851 -0.097264
0.245727 0.096211 0.027281
0.373142 0.095837 -0.028204
-0.226379 -0.098982 -0.012354
-0.236441 0.099771 0.006846
-0.076157 -0.001060 -0.099670
-0.265851 0.099969 -0.000967
-0.056932 0.058031 0.081536
-0.395262 0.078540 -0.061611
-0.295381 0.057202 0.082099
0.369169 0.034028 0.094085
0.259310 0.054722 -0.083422
0.147951 0.093823 -0.034277
0.447299 0.092844 -0.036930
-0.356283 0.094101 0.033870
-0.099220 0.099918 -0.002607
0.384928 0.061705 -0.078400
-0.074879 -0.065776 -0.074826
-0.424338 0.038698 0.092272
0.197727 -0.048896 0.087187
-0.161942 -0.092522 -0.037135
0.148400 0.016188 0.098720
-0.297695 -0.090721 0.041658
0.369977 0.041025 -0.090902
0.451350 0.099904 0.003391
0.125948 0.088848 -0.045588
-0.460950 -0.021320 0.097693
0.308226 0.033782 -0.093811
-0.372903 0.083859 -0.054219
-0.125124 -0.012459 0.099273
-0.207965 0.094474 -0.032470
0.142370 0.009977 0.099534
0.312418 -0.071479 -0.069417
-0.164126 -0.015558 0.098783
-0.228224 0.046718 -0.088126
0.351704 -0.061336 0.078868
0.208856 -0.099616 0.005137
-0.018142 0.074212 0.067108
-0.338747 -0.022892 0.097341
0.438940 -0.040991 -0.090816
-0.103528 -0.070471 0.070788
-0.435918 -0.062493 -0.077607
-0.462825 0.018796 0.098307
0.367878 0.091719 -0.039529
-0.074858 0.045390 0.089166
0.037895 0.027942 0.096065
0.445924 -0.092413 0.037748
-0.373289 0.003046 0.099978
-0.018234 -0.065464 -0.075100
-0.343084 -0.056574 -0.082005
0.420749 -0.099045 -0.011696
0.200131 0.000640 0.100054
0.416004 0.089023 0.045608
-0.381685 0.009440 0.099584
0.300529 0.095562 -0.029151
0.374432 0.085853 -0.050978
0.225861 -0.034737 -0.093383
0.068049 0.094857 0.031769
0.178987 0.098757 -0.015246
0.042744 0.099794 -0.006238
-0.300864 0.063594 0.077297
-0.159967 -0.096071 0.026958
0.401940 0.088398 -0.046472
-0.147860 0.093405 0.035803
0.071304 -0.061986 -0.078001
-0.253107 0.010368 -0.099134
-0.046081 0.054037 0.084250
-0.010457 -0.033041 -0.093994
0.016696 0.089622 0.044433
0.221667 -0.077953 0.062429
-0.403540 0.099343 -0.011009
0.330216 0.071615 0.069878
-0.319763 -0.097184 -0.022196
0.151404 0.061440 0.078968
0.046937 -0.010879 -0.099064
-0.270110 0.050529 0.086360
-0.014712 0.022422 -0.097136
0.106544 0.008403 0.099682
0.067242 0.029690 0.095557
0.327972 0.039653 0.091859
-0.466901 0.093886 -0.034104
-0.226722 0.074810 -0.066068
0.113709 -0.099250 0.009889
0.054813 -0.067998 0.073230
0.187972 -0.092724 0.037030
0.048340 -0.095337 0.029487
-0.465277 0.061442 -0.078604
0.053269 0.077914 -0.062418
0.346202 -0.085319 -0.051487
0.443808 -0.095695 -0.027891
-0.155283 -0.078202 0.062108
-0.157825 0.095218 0.030698
-0.466646 -0.068978 0.072281
