-0.466955 0.093237 0.021835
-0.466955 -0.031880 0.070239
-0.466955 0.021021 0.059288
-0.466955 -0.021042 -0.045693
-0.466955 -0.020291 0.058276
-0.466955 -0.016159 0.057581
-0.466955 -0.018466 0.054883
-0.466955 -0.033497 -0.091909
-0.466955 0.086546 0.016387
-0.466955 -0.052617 0.080986
-0.466955 0.078846 -0.024243
-0.466955 -0.018973 -0.052858
-0.466955 0.039288 -0.089384
-0.466955 0.099106 -0.006199
-0.466955 -0.051225 0.013189
-0.466955 0.069560 0.054367
-0.466955 0.023471 0.049645
-0.466955 0.027932 -0.082972
-0.466955 0.056129 0.039494
-0.466955 -0.020905 -0.094619
-0.466955 0.083634 0.015310
-0.466955 0.001262 -0.064317
-0.466955 -0.011387 0.072084
-0.466955 -0.046733 -0.052333
-0.466955 -0.051928 -0.081328
-0.466955 -0.031307 0.035670
-0.466955 0.013815 -0.084726
-0.466955 0.011079 0.065493
-0.466955 0.062819 -0.045239
-0.466955 0.064694 -0.051462
-0.466955 -0.086049 0.012121
-0.466955 0.011363 -0.080305
-0.466955 0.024620 0.074052
-0.466955 0.011687 -0.037315
-0.466955 -0.009398 -0.009250
-0.466955 -0.054404 0.036180
-0.466955 -0.087098 0.024649
-0.466955 0.053656 -0.066742
-0.466955 -0.015313 -0.020516
-0.466955 0.037393 -0.071947
-0.466955 -0.044883 0.021556
-0.466955 0.023137 -0.080438
-0.466955 -0.038977 0.070069
-0.466955 0.012419 -0.092659
-0.466955 -0.051180 -0.077295
-0.466955 0.069377 0.011038
-0.466955 -0.041977 0.016689
-0.466955 -0.020916 0.044467
-0.466955 -0.001270 -0.079741
-0.466955 0.036158 0.000884
-0.466955 0.012856 0.003791
-0.466955 -0.094286 -0.016000
-0.466955 0.078785 -0.055031
-0.466955 0.013780 -0.097207
-0.466955 -0.075368 -0.048582
-0.466955 0.016682 0.070048
-0.466955 0.036482 -0.016390
-0.466955 -0.088136 0.043508
-0.466955 -0.007948 -0.084302
-0.466955 -0.000685 0.079765
-0.466955 0.062270 0.074262
-0.466955 0.090963 0.019471
-0.466955 0.045780 0.014618
-0.466955 0.042191 -0.000296
-0.466955 0.045278 -0.048312
-0.466955 0.074923 0.066001
-0.466955 -0.017237 -0.074275
-0.466955 0.032040 0.017973
-0.466955 -0.000479 0.081852
-0.466955 -0.010804 0.070734
-0.466955 0.035350 -0.021874
-0.466955 0.015576 -0.033055
-0.466955 0.076974 0.051560
-0.466955 -0.044313 -0.079287
-0.466955 -0.027759 -0.074572
-0.466955 -0.090868 -0.009227
-0.466955 -0.086407 -0.019786
-0.466955 -0.036728 0.001422
-0.466955 0.020008 0.077702
-0.466955 0.000349 0.067260
-0.466955 0.027722 0.020090
-0.466955 0.033479 -0.057469
-0.466955 0.019802 0.032255
-0.466955 -0.035831 -0.072341
-0.466955 -0.009461 -0.062304
-0.466955 0.004210 -0.004720
-0.466955 -0.023288 -0.021198
-0.466955 -0.054214 -0.047478
-0.466955 -0.004417 0.006762
-0.466955 0.080718 0.032332
-0.466955 0.001352 0.046574
-0.466955 0.050122 -0.040599
-0.466955 0.061631 -0.059674
-0.466955 -0.044929 -0.010604
-0.466955 0.058495 0.044983
-0.466955 -0.000651 -0.072254
-0.466955 -0.002851 0.039871
-0.466955 -0.013086 0.007702
-0.466955 0.039193 0.003836
-0.466955 -0.054967 -0.080305
-0.466955 0.017436 0.040456
-0.466955 0.024974 0.072553
-0.466955 -0.003088 -0.018504
-0.466955 -0.061043 -0.053694
-0.466955 0.062503 -0.052694
-0.466955 -0.000474 -0.074297
-0.466955 -0.075112 0.018769
-0.466955 -0.092477 0.010254
-0.466955 -0.050101 0.072871
-0.466955 -0.080909 0.016461
-0.466955 -0.024801 0.013973
-0.466955 0.053774 0.036406
-0.466955 -0.059401 -0.036201
-0.466955 -0.050659 0.061827
-0.466955 0.086191 -0.027363
-0.466955 -0.060114 0.078229
-0.466955 -0.061787 -0.030852
-0.466955 -0.080758 -0.056113
-0.466955 0.038682 0.039200
-0.466955 -0.037040 -0.013385
-0.466955 -0.012658 0.006054
-0.466955 0.028388 0.009188
-0.466955 -0.046980 0.028757
-0.466955 -0.023580 -0.058106
-0.466955 -0.013875 -0.087617
-0.466955 -0.034731 0.027265
-0.466955 0.056308 0.007649
-0.466955 0.092034 -0.001205
-0.466955 0.043619 0.081545
-0.466955 0.030682 -0.043992
-0.466955 -0.092519 -0.035040
-0.466955 -0.075506 -0.009669
-0.466955 0.002764 -0.006436
-0.466955 0.057104 0.021446
-0.466955 0.087379 0.023432
-0.466955 0.026572 -0.071627
-0.466955 -0.016590 -0.068311
-0.466955 0.041414 -0.056955
-0.466955 -0.014602 0.034904
-0.466955 -0.023823 0.062618
-0.466955 -0.044466 0.043437
-0.466955 0.015626 0.053778
-0.466955 0.048924 0.059748
-0.466955 0.076748 -0.018299
-0.466955 -0.088186 -0.001531
-0.466955 0.008675 -0.099229
-0.466955 -0.074020 0.003026
-0.466955 0.049506 0.025525
-0.466955 -0.071184 -0.040086
-0.466955 -0.029606 0.013782
-0.466955 -0.010683 -0.068024
-0.466955 -0.017280 0.070577
-0.466955 -0.061083 -0.012711
-0.466955 -0.031859 -0.088329
-0.466955 0.036149 0.054270
-0.466955 -0.060404 -0.007356
-0.466955 0.037840 0.002803
-0.466955 -0.028979 0.031076
-0.466955 0.035171 -0.019354
-0.466955 0.063492 0.048851
-0.466955 0.047740 -0.062562
-0.466955 0.011465 0.067171
-0.466955 -0.081711 0.039901
-0.466955 0.030106 -0.073092
-0.466955 0.048366 0.031092
-0.466955 0.010505 -0.004514
-0.466955 0.003517 0.084384
-0.466955 -0.046530 0.087923
-0.466955 -0.059251 -0.034579
-0.466955 -0.088761 0.024050
-0.466955 -0.001049 -0.094507
-0.466955 0.006033 0.078741
-0.466955 -0.050377 -0.020689
-0.466955 0.013009 0.030368
-0.466955 -0.025367 0.036452
-0.466955 0.041061 -0.031585
-0.466955 0.000145 0.094480
-0.466955 -0.047739 0.067185
-0.466955 -0.026593 0.040914
-0.466955 0.073821 0.063155
-0.466955 0.094286 0.015864
-0.466955 -0.061560 0.025624
-0.466955 -0.051995 -0.024116
-0.466955 -0.083087 0.024782
-0.466955 -0.092664 -0.015065
-0.466955 -0.022632 0.018059
-0.466955 -0.053283 -0.042737
-0.466955 -0.020853 -0.002039
-0.466955 0.029265 -0.036667
-0.466955 -0.025021 0.069794
-0.466955 -0.002344 0.037443
-0.466955 -0.056930 0.076549
-0.466955 0.059953 -0.000103
-0.466955 0.061166 0.045053
-0.466955 -0.024110 0.018268
-0.466955 -0.075619 0.021024
-0.466955 -0.037485 0.020702
-0.466955 -0.066360 0.065646
-0.466955 0.094796 -0.031254
-0.466955 0.005925 0.006328
-0.466955 -0.025313 -0.035725
-0.466955 -0.028972 0.037625
-0.466955 -0.043677 -0.053425
-0.466955 -0.008507 -0.005931
-0.466955 0.026266 -0.024673
-0.466955 0.000286 -0.093532
-0.466955 -0.085949 0.027609
-0.466955 0.076114 0.026219
-0.466955 0.082449 -0.009943
-0.466955 0.000381 -0.059537
-0.466955 -0.007310 0.073562
-0.466955 -0.009631 -0.041035
-0.466955 0.021034 0.015706
-0.466955 -0.058577 0.052440
-0.466955 -0.050546 0.034103
-0.466955 -0.050095 -0.072238
-0.466955 0.012077 0.077833
-0.466955 0.026292 -0.053774
-0.466955 0.010292 0.028292
-0.466955 -0.001610 0.080961
-0.466955 -0.046377 0.074381
-0.466955 0.007253 -0.036093
-0.466955 0.060442 0.043805
-0.466955 -0.014674 0.067746
-0.466955 0.031443 0.049890
-0.466955 0.041670 -0.041057
-0.466955 -0.026945 -0.032412
-0.466955 -0.024245 0.045889
-0.466955 -0.094321 0.019070
-0.466955 -0.034949 -0.031028
-0.466955 -0.047892 0.018270
-0.466955 -0.041176 -0.049589
-0.466955 0.016071 0.039768
-0.466955 0.022284 -0.001374
-0.466955 -0.034506 -0.010136
-0.466955 -0.054311 -0.076369
-0.466955 0.029203 -0.009224
-0.466955 0.084875 0.049685
-0.466955 -0.047441 0.032792
-0.466955 -0.079179 0.003447
-0.466955 0.068020 0.000329
-0.466955 -0.043749 0.086290
-0.466955 0.009067 0.005655
-0.466955 -0.007016 0.059149
-0.466955 -0.022991 0.019638
-0.466955 -0.013943 0.042707
-0.466955 -0.093655 -0.005856
-0.466955 0.049656 -0.029246
-0.466955 0.082690 -0.050165
-0.466955 0.042515 0.004498
-0.466955 0.041799 0.033211
-0.466955 -0.013908 -0.061697
-0.466955 -0.068193 0.050464
-0.466955 -0.000677 0.083579
-0.466955 -0.003147 -0.043446
-0.466955 0.052803 -0.018743
-0.466955 -0.024836 0.087711
-0.466955 -0.030904 -0.014706
-0.466955 -0.018478 0.088151
-0.466955 -0.052287 0.030018
-0.466955 0.079628 0.020161
-0.466955 0.057104 -0.050092
-0.466955 0.015550 0.078035
-0.466955 0.067877 0.039517
-0.466955 -0.066872 -0.062733
-0.466955 0.004050 0.000312
-0.466955 -0.034082 0.090531
-0.466955 0.079821 0.034955
-0.466955 -0.038982 0.036823
-0.466955 -0.006387 0.063311
-0.466955 0.020573 0.010783
-0.466955 -0.010181 0.048420
-0.466955 0.095639 -0.001701
-0.466955 -0.075228 -0.021779
-0.466955 -0.069375 -0.000191
-0.466955 0.045272 0.029768
-0.466955 -0.009380 0.022760
-0.466955 0.021038 -0.028084
-0.466955 -0.047907 -0.014912
-0.466955 -0.053846 -0.003244
-0.466955 0.015500 -0.016307
-0.466955 0.027343 -0.033102
-0.466955 0.008521 -0.058332
-0.466955 -0.013281 0.065976
-0.466955 0.006218 -0.091637
-0.466955 0.054775 -0.053874
-0.466955 0.041108 0.004941
-0.466955 -0.009917 -0.011932
-0.466955 0.070577 -0.011134
-0.466955 -0.044669 0.081155
-0.466955 -0.029814 0.072943
-0.466955 -0.088503 -0.024788
-0.466955 0.061094 -0.043980
-0.466955 -0.042786 0.088911
-0.466955 0.001863 -0.090370
-0.466955 0.059602 -0.068467
-0.466955 0.082957 -0.021631
-0.466955 -0.054475 0.070882
-0.466955 0.038684 0.044917
-0.466955 0.050128 0.028511
-0.466955 -0.060003 0.010651
-0.466955 -0.082681 0.018793
-0.466955 0.062471 0.018470
-0.466955 0.008555 -0.088225
-0.466955 0.088333 -0.002906
-0.466955 -0.090967 -0.012489
-0.466955 -0.057559 -0.002994
-0.466955 0.080950 -0.008197
-0.466955 -0.011941 0.034879
-0.466955 -0.057761 -0.060293
-0.466955 -0.059955 0.017681
-0.466955 0.007805 -0.084019
-0.466955 -0.055349 -0.065197
-0.466955 0.048760 0.002559
-0.466955 -0.034644 0.084204
-0.466955 0.015735 -0.069993
-0.466955 0.059258 -0.001506
-0.466955 -0.052418 0.016913
-0.466955 -0.041321 -0.040287
-0.466955 0.047108 0.027036
-0.466955 -0.026150 0.020933
-0.466955 0.015120 -0.093560
-0.466955 0.069401 0.018120
-0.466955 0.013809 0.072908
-0.466955 -0.009468 -0.071118
-0.466955 0.021226 0.003096
-0.466955 0.040785 0.072939
-0.466955 0.054172 0.032212
-0.466955 -0.046074 -0.060771
-0.466955 0.091866 -0.005722
-0.466955 0.034157 -0.054023
-0.466955 -0.090112 0.003075
-0.466955 0.043437 0.022752
-0.466955 0.036637 0.005458
-0.466955 0.016554 0.026048
-0.466955 -0.044897 0.079754
-0.466955 0.072203 0.001029
-0.466955 0.096799 -0.024686
-0.466955 0.012602 -0.009010
-0.466955 0.063178 0.047047
-0.466955 -0.038638 0.035247
-0.466955 0.030660 -0.056956
-0.466955 0.047225 -0.040287
-0.466955 0.060419 -0.036108
-0.466955 0.064971 -0.067237
-0.466955 0.014984 -0.013969
-0.466955 -0.060861 0.061746
-0.466955 -0.034965 0.055925
-0.466955 0.029113 0.064214
-0.466955 0.000209 0.077406
-0.466955 0.021208 0.054084
-0.466955 0.051057 -0.058840
-0.466955 0.007435 0.014386
-0.466955 0.035227 -0.081512
-0.466955 -0.012650 -0.017511
-0.466955 0.063895 -0.048246
-0.466955 0.016462 -0.094708
-0.466955 -0.059311 -0.042480
-0.466955 0.084173 0.021298
-0.466955 0.046177 -0.015682
-0.466955 0.008061 -0.074445
-0.466955 0.064721 0.053520
-0.466955 -0.043275 -0.081665
-0.466955 0.024978 0.096754
-0.466955 -0.086555 0.009058
-0.466955 -0.007602 -0.042012
-0.466955 0.027314 -0.018347
-0.466955 0.021236 0.073963
-0.466955 -0.037532 0.023829
-0.466955 -0.011917 -0.022382
-0.466955 0.090454 0.035174
-0.466955 -0.000661 0.060076
-0.466955 -0.070318 0.026821
-0.466955 -0.007841 0.097249
-0.466955 -0.082269 0.010761
-0.466955 0.001305 -0.056459
-0.466955 -0.028880 0.092718
-0.466955 -0.070187 0.008413
-0.466955 -0.015757 0.050755
-0.466955 0.076329 -0.032643
-0.466955 -0.019516 0.028562
-0.466955 -0.020845 0.063324
-0.466955 0.074513 -0.064204
-0.466955 -0.009495 -0.003340
-0.466955 -0.006684 -0.023062
-0.466955 -0.004500 -0.034156
-0.466955 -0.086944 0.020675
-0.466955 0.086934 -0.034600
-0.466955 0.005454 -0.019406
-0.466955 0.044089 0.000348
-0.466955 0.026843 -0.000923
-0.466955 0.073738 0.051111
-0.466955 0.078898 -0.038808
-0.466955 -0.014182 -0.072254
-0.466955 0.036471 -0.043053
-0.466955 -0.062380 -0.020875
-0.466955 0.063450 0.075213
-0.466955 -0.074681 -0.026988
-0.466955 0.076835 -0.049615
-0.466955 0.064526 -0.033566
-0.466955 0.092692 0.013197
-0.466955 -0.079354 -0.014597
-0.466955 0.014884 0.016171
-0.466955 -0.050604 -0.042488
-0.466955 -0.014541 -0.010559
-0.466955 0.021634 0.084933
-0.466955 0.017532 -0.055219
-0.466955 0.072713 0.052516
-0.466955 0.047123 0.056633
-0.466955 -0.053344 0.008707
-0.466955 0.033577 0.014533
-0.466955 0.051735 0.001888
-0.466955 0.051947 0.053305
-0.466955 -0.036040 -0.009218
-0.466955 0.011819 0.007748
-0.466955 -0.007759 0.092041
-0.466955 -0.043245 0.042547
-0.466955 0.017746 0.083270
-0.466955 -0.055920 -0.032611
-0.466955 -0.042333 -0.064653
-0.466955 0.036041 0.030481
-0.466955 0.022055 0.006125
-0.466955 0.015422 -0.027571
-0.466955 -0.004761 -0.071610
-0.466955 0.029105 -0.030682
-0.466955 -0.011335 -0.091320
-0.466955 0.040835 -0.007113
-0.466955 -0.047432 0.052538
-0.466955 -0.004941 -0.076027
-0.466955 -0.078494 -0.006944
-0.466955 0.011327 0.056813
-0.466955 -0.065927 -0.070723
-0.466955 -0.031280 -0.000657
-0.466955 0.040558 -0.061680
-0.466955 0.025113 -0.094804
-0.466955 0.064114 -0.030923
-0.466955 -0.004902 -0.064095
-0.466955 -0.081840 0.002717
-0.466955 -0.009794 -0.024436
-0.466955 -0.040632 0.086182
-0.466955 0.038787 -0.065750
-0.466955 0.066733 0.012945
-0.466955 0.061059 -0.005875
-0.466955 -0.065685 -0.042952
-0.466955 -0.023682 0.088785
-0.466955 -0.031270 -0.094330
-0.466955 -0.018130 -0.071058
-0.466955 0.041981 0.037989
-0.466955 -0.065754 -0.051588
-0.466955 0.015781 -0.055631
-0.466955 0.019504 0.074247
-0.466955 0.050179 0.002966
-0.466955 0.050328 0.054190
-0.466955 -0.046692 -0.000589
-0.466955 -0.084704 0.013055
-0.466955 0.024544 -0.072779
-0.466955 0.060615 0.064037
-0.466955 -0.021109 -0.064105
-0.466955 -0.068361 0.008348
-0.466955 0.081835 0.007922
-0.466955 -0.007953 0.081528
-0.466955 -0.036012 -0.063181
-0.466955 -0.055943 0.038249
-0.466955 0.072935 -0.017152
-0.466955 0.007086 0.037171
-0.466955 0.076380 0.005452
-0.466955 -0.031994 -0.083106
-0.466955 0.045386 -0.078354
-0.466955 0.030695 0.025871
-0.466955 0.013291 0.081149
-0.466955 0.000918 -0.000090
-0.466955 0.057994 -0.035633
-0.466955 -0.016661 -0.043641
-0.466955 0.005787 0.042427
-0.466955 -0.038837 0.020944
-0.466955 0.004870 -0.021997
-0.466955 -0.038676 -0.042701
-0.466955 -0.039130 -0.006290
-0.466955 -0.075999 0.044310
-0.466955 0.008826 -0.049484
-0.466955 0.028374 -0.064550
-0.466955 0.082715 0.014176
-0.466955 -0.062516 -0.014336
-0.466955 -0.058390 0.027898
-0.466955 -0.056606 0.074912
-0.466955 0.095178 -0.003419
-0.466955 0.018738 -0.011027
-0.466955 0.061092 -0.054313
-0.466955 -0.074260 0.022053
-0.466955 0.080951 0.014229
-0.466955 -0.025197 -0.079313
-0.466955 0.068053 -0.023155
-0.466955 0.025517 0.018162
-0.466955 0.059817 -0.009104
-0.466955 -0.011588 -0.056233
-0.466955 0.011529 -0.019117
-0.466955 -0.013835 -0.080185
-0.466955 -0.029077 -0.037936
-0.466955 -0.070564 0.035105
-0.466955 0.049400 -0.010479
-0.466955 0.038360 -0.068557
-0.466955 -0.028324 -0.089489
-0.466955 0.001102 -0.047889
-0.466955 -0.042832 -0.077397
-0.466955 -0.051959 -0.051532
-0.466955 0.009213 -0.018778
-0.466955 -0.055894 -0.072677
-0.466955 0.003360 -0.063014
-0.466955 0.009976 0.077581
-0.466955 0.012735 0.059535
-0.466955 -0.051823 -0.057756
-0.466955 -0.008350 0.060254
-0.466955 0.046440 0.065809
-0.466955 0.053343 0.005857
-0.466955 0.002966 -0.039482
-0.466955 -0.006670 -0.000937
-0.466955 0.071057 -0.069116
-0.466955 0.069241 -0.040595
-0.466955 0.012862 0.050289
-0.466955 0.033438 -0.043963
-0.466955 -0.007877 0.025834
-0.466955 -0.014840 0.026529
-0.466955 0.032452 -0.025899
-0.466955 -0.036979 0.042661
-0.466955 -0.042658 -0.007426
-0.466955 -0.038151 0.007955
-0.466955 0.076780 0.054746
-0.466955 -0.037040 -0.081420
-0.466955 0.031449 -0.024193
-0.466955 0.087031 -0.011465
-0.466955 0.035096 -0.088908
-0.466955 -0.061653 0.013394
-0.466955 -0.025252 0.040081
-0.466955 -0.036508 0.057580
-0.466955 -0.066985 0.034772
-0.466955 -0.014471 0.003120
-0.466955 -0.039469 0.017370
-0.466955 -0.042523 -0.015470
-0.466955 0.019459 0.028419
-0.466955 -0.098236 0.004357
-0.466955 -0.074270 -0.017624
-0.466955 -0.086438 -0.042626
-0.466955 -0.087692 0.012924
-0.466955 -0.081508 -0.001684
-0.466955 0.028355 0.010908
-0.466955 -0.063819 0.023672
-0.466955 0.059867 -0.040403
-0.466955 0.056978 -0.081493
-0.466955 -0.069997 -0.028121
-0.466955 -0.082387 -0.007571
-0.466955 0.014009 0.025295
-0.466955 0.023090 0.048187
-0.466955 0.068534 -0.070089
-0.466955 -0.082350 -0.021094
-0.466955 0.009043 -0.026892
-0.466955 0.002867 -0.026663
-0.466955 -0.049957 0.067377
-0.466955 -0.000277 0.090175
-0.466955 -0.046249 0.027414
-0.466955 0.048791 -0.066318
-0.466955 -0.050116 0.085364
-0.466955 0.069441 0.000351
-0.466955 -0.044630 -0.074540
-0.466955 -0.035031 0.022274
-0.466955 0.018793 -0.027282
-0.466955 -0.022168 -0.070261
-0.466955 0.002457 0.007180
-0.466955 0.048444 -0.080904
-0.466955 -0.051763 0.071229
-0.466955 -0.046873 -0.025776
-0.466955 0.046667 0.037302
-0.466955 -0.060726 0.041620
-0.466955 -0.024925 0.073851
-0.466955 -0.052329 -0.001033
-0.466955 0.088757 -0.025355
-0.466955 0.023611 -0.036439
-0.466955 0.009162 -0.043120
-0.466955 -0.081142 -0.029063
-0.466955 0.023329 0.018224
-0.466955 0.028780 -0.033738
-0.466955 -0.059223 0.001335
-0.466955 -0.076853 -0.024091
-0.466955 -0.045511 0.016255
-0.466955 0.017825 -0.014022
-0.466955 0.016281 0.063739
-0.466955 -0.000172 -0.027076
-0.466955 -0.059964 -0.079055
-0.466955 -0.032322 0.031478
-0.466955 -0.048547 0.063815
-0.466955 0.036443 -0.007450
-0.466955 0.066912 -0.036391
-0.466955 0.064877 -0.047086
-0.466955 0.048813 -0.070367
-0.466955 -0.084808 -0.044091
-0.466955 -0.069013 0.062516
-0.466955 -0.000301 -0.084025
-0.466955 -0.053935 -0.011876
-0.466955 -0.034304 0.093720
-0.466955 0.039741 -0.015051
-0.466955 0.023159 0.087777
-0.466955 -0.084084 -0.053530
-0.466955 0.096277 -0.005909
-0.466955 -0.032110 -0.030678
-0.466955 -0.088384 0.044917
-0.466955 0.056487 0.027856
-0.466955 0.094422 0.006086
-0.466955 -0.082674 0.031240
-0.466955 0.024132 0.001873
-0.466955 -0.046480 0.020926
-0.466955 0.025647 -0.014034
-0.466955 0.049010 -0.077644
-0.466955 0.007324 0.079854
-0.466955 0.062531 0.023101
-0.466955 0.016154 -0.051905
-0.466955 -0.043660 0.062269
-0.466955 -0.054418 -0.009038
-0.466955 0.045786 0.027553
-0.466955 -0.011903 0.093795
-0.466955 -0.076208 -0.061440
-0.466955 0.010969 -0.043800
-0.466955 -0.061690 0.040135
-0.466955 0.081418 -0.040705
-0.466955 0.063666 0.011804
-0.466955 -0.018894 0.011506
-0.466955 -0.012328 -0.096746
-0.466955 0.061275 -0.078515
-0.466955 0.030438 -0.041619
-0.466955 -0.081937 0.036283
-0.466955 -0.006064 0.057677
-0.466955 -0.024720 -0.039362
-0.466955 -0.025191 -0.012886
-0.466955 0.032387 0.032690
-0.466955 -0.029870 -0.006856
-0.466955 -0.077397 -0.048493
-0.466955 0.019240 -0.065743
-0.466955 0.066651 -0.032070
-0.466955 -0.056397 0.007582
-0.466955 0.006061 -0.025897
-0.466955 0.019156 0.076113
-0.466955 0.059567 -0.025884
-0.466955 0.008275 -0.023966
-0.466955 0.039134 0.081553
-0.466955 0.059668 -0.075401
-0.466955 -0.065100 0.062860
-0.466955 -0.023233 0.068241
-0.466955 0.012449 -0.061779
-0.466955 0.022850 0.011023
-0.466955 0.044256 -0.039800
-0.466955 0.014428 -0.072922
-0.466955 -0.020590 -0.067567
-0.466955 0.012120 0.062457
-0.466955 -0.041778 -0.081979
-0.466955 -0.084365 0.045967
-0.466955 -0.047983 0.051152
-0.466955 0.082006 0.055951
-0.466955 0.087945 0.026707
-0.466955 0.062214 0.057532
-0.466955 0.014050 0.074393
-0.466955 0.081977 -0.053788
-0.466955 -0.036389 -0.088339
-0.466955 -0.063645 -0.057390
-0.466955 0.021662 -0.033741
-0.466955 0.051823 0.010324
-0.466955 -0.075704 0.026131
-0.466955 0.011591 0.033597
-0.466955 -0.042388 0.067580
-0.466955 -0.035694 0.011422
-0.466955 0.040811 -0.076562
-0.466955 -0.041372 -0.017391
-0.466955 -0.035151 0.043093
-0.466955 0.043727 -0.041049
-0.466955 -0.080893 -0.032483
-0.466955 -0.087667 -0.014293
-0.466955 -0.021807 0.048204
-0.466955 0.077888 0.042338
-0.466955 -0.060994 -0.074306
-0.466955 -0.075055 -0.047096
-0.466955 -0.012137 -0.070712
-0.466955 0.034645 0.035914
-0.466955 0.053110 0.059575
-0.466955 -0.031430 0.056070
-0.466955 -0.042423 0.085901
-0.466955 0.039992 0.060395
-0.466955 0.059781 0.027543
-0.466955 -0.068286 -0.039332
-0.466955 -0.050327 0.053300
-0.466955 0.085843 -0.010291
-0.466955 0.023343 -0.062838
-0.466955 -0.033900 -0.047178
-0.466955 0.049932 -0.044465
-0.466955 0.083190 0.048591
-0.466955 -0.024966 0.084884
-0.466955 -0.067017 0.063958
-0.466955 -0.041663 -0.036527
-0.466955 0.051776 -0.067866
-0.466955 -0.090597 0.041030
-0.466955 0.070578 0.038759
-0.466955 -0.075844 0.022415
-0.466955 0.023713 0.003468
-0.466955 -0.040357 0.091270
-0.466955 -0.069419 0.018878
-0.466955 -0.056850 0.040987
-0.466955 0.054518 -0.019720
-0.466955 0.010255 0.039668
-0.466955 -0.042984 0.049521
-0.466955 0.039618 0.080092
-0.466955 0.060300 0.016346
-0.466955 0.011632 -0.029910
-0.466955 0.044994 -0.064100
-0.466955 -0.016349 -0.011052
-0.466955 0.009150 0.019629
-0.466955 0.066717 0.030773
-0.466955 -0.040880 -0.077140
-0.466955 -0.056872 0.019416
-0.466955 -0.071230 0.044605
-0.466955 0.046989 -0.068901
-0.466955 -0.017075 0.041802
-0.466955 -0.093256 0.020343
-0.466955 -0.012631 -0.054992
-0.466955 -0.036573 0.029182
-0.466955 -0.023389 0.030378
-0.466955 0.010194 0.093159
-0.466955 -0.006311 0.017676
-0.466955 0.058935 0.005062
-0.466955 0.001642 0.091844
-0.466955 -0.072874 -0.056206
-0.466955 -0.091068 -0.005724
-0.466955 0.057777 0.059018
-0.466955 0.046091 -0.063131
-0.466955 0.033387 -0.040004
-0.466955 -0.003005 0.002559
-0.466955 0.041287 -0.075138
-0.466955 0.033304 0.036391
-0.466955 0.079143 0.041736
-0.466955 0.037575 0.077464
-0.466955 0.040627 0.090406
-0.466955 0.019132 0.095528
-0.466955 -0.041191 -0.004372
-0.466955 0.092313 0.033645
-0.466955 -0.048197 -0.009734
-0.466955 -0.035243 0.085803
-0.466955 0.072236 -0.032569
-0.466955 -0.060917 -0.035023
-0.466955 -0.025190 0.020001
-0.466955 0.041565 0.014011
-0.466955 0.014475 -0.047331
-0.466955 -0.088171 -0.022699
-0.466955 0.006994 -0.098302
-0.466955 0.067807 -0.043342
-0.466955 -0.070712 -0.014283
-0.466955 0.062820 -0.075681
-0.466955 0.039244 -0.017214
-0.466955 -0.073643 -0.066795
-0.466955 -0.027362 -0.090891
-0.466955 -0.022845 -0.000650
-0.466955 -0.059626 -0.019358
-0.466955 -0.018617 0.071761
-0.466955 0.054114 -0.028729
-0.466955 0.028432 0.071673
-0.466955 -0.018791 0.043939
-0.466955 -0.098628 0.008835
-0.466955 -0.090929 0.027949
-0.466955 0.001457 0.069709
-0.466955 0.053117 0.077592
-0.466955 -0.082840 -0.009292
-0.466955 -0.059915 -0.064052
-0.466955 0.088114 -0.004680
-0.466955 -0.088034 0.005737
-0.466955 -0.030384 -0.068432
-0.466955 -0.050555 0.008208
-0.466955 0.020303 0.085361
-0.466955 -0.056890 0.081346
-0.466955 0.001442 0.043040
-0.466955 0.008439 0.028891
-0.466955 0.004858 -0.003215
-0.466955 -0.079357 0.022087
-0.466955 0.066877 0.058370
-0.466955 0.052926 -0.061902
-0.466955 -0.037387 -0.055529
-0.466955 -0.055281 0.048759
-0.466955 -0.085414 -0.036040
-0.466955 -0.010683 0.092148
-0.466955 -0.058736 0.030977
-0.466955 0.009926 0.000031
-0.466955 -0.001525 0.011059
-0.466955 -0.087739 -0.020214
-0.466955 0.012917 -0.013129
-0.466955 -0.088765 0.004201
-0.466955 0.001914 -0.067054
-0.466955 0.050880 -0.051757
-0.466955 0.045605 -0.025344
-0.466955 -0.016761 -0.063622
-0.466955 -0.014216 -0.077030
-0.466955 0.033123 0.070554
-0.466955 0.001927 -0.061320
-0.466955 0.009634 0.029717
-0.466955 0.001798 0.065900
-0.466955 0.080640 -0.006639
-0.466955 0.022528 -0.021519
-0.466955 -0.020619 -0.080319
-0.466955 -0.019302 -0.074353
-0.466955 -0.013177 0.021596
-0.466955 0.065850 0.037040
-0.466955 0.000171 -0.060959
-0.466955 -0.057660 0.051036
-0.466955 0.024850 0.022037
-0.466955 -0.010009 0.021465
-0.466955 0.083570 -0.020176
-0.466955 -0.015275 -0.044582
-0.466955 -0.075956 0.015323
-0.466955 -0.001498 0.054696
-0.466955 -0.029716 0.008833
-0.466955 0.005775 -0.023453
-0.466955 0.068534 -0.007629
-0.466955 0.013827 -0.010047
-0.466955 -0.003575 0.021046
-0.466955 0.074409 0.009870
-0.466955 -0.061608 -0.060087
-0.466955 0.034214 0.054242
-0.466955 0.064487 0.000897
-0.466955 0.063173 -0.028041
-0.466955 -0.079318 -0.056869
-0.466955 -0.021668 0.035771
-0.466955 0.058482 0.019968
-0.466955 -0.012019 -0.031934
-0.466955 0.042584 -0.007867
-0.466955 0.020908 0.089518
-0.466955 -0.027859 0.021532
-0.466955 0.063016 -0.035821
-0.466955 0.067723 -0.012423
-0.466955 0.014580 -0.052060
-0.466955 0.058594 0.026300
-0.466955 -0.038399 -0.081073
-0.466955 0.013344 0.052252
-0.466955 0.076881 -0.014278
-0.466955 0.016697 -0.044613
-0.466955 -0.061140 -0.028909
-0.466955 0.018284 0.055445
-0.466955 0.075791 0.032144
-0.466955 0.011584 0.024973
-0.466955 0.016499 -0.034272
-0.466955 -0.007093 -0.037152
-0.466955 -0.060294 0.057719
-0.466955 0.065583 -0.014665
-0.466955 -0.022469 0.049736
-0.466955 0.023054 0.008786
-0.466955 -0.025058 -0.070644
-0.466955 -0.020939 0.016948
-0.466955 -0.095876 -0.021478
-0.466955 0.029577 0.028836
-0.466955 -0.001392 0.030861
-0.466955 -0.066389 -0.064182
-0.466955 -0.053028 -0.062949
-0.466955 0.064402 0.059380
-0.466955 0.047980 -0.033410
-0.466955 0.011248 0.086127
-0.466955 0.040676 0.039428
-0.466955 -0.057774 -0.080777
-0.466955 -0.009486 -0.098687
-0.466955 0.013420 -0.075494
-0.466955 -0.046725 -0.059006
-0.466955 -0.016640 0.006795
-0.466955 0.025434 -0.045321
-0.466955 0.049043 0.009150
-0.466955 0.036864 -0.013671
-0.466955 -0.040621 -0.090666
-0.466955 0.029877 0.056584
-0.466955 0.047396 0.064294
-0.466955 0.076351 0.029585
-0.466955 0.007172 -0.055524
-0.466955 -0.059649 -0.075316
-0.466955 0.050442 0.084610
-0.466955 0.032001 -0.089462
-0.466955 0.068863 -0.021751
-0.466955 -0.036653 0.061231
-0.466955 -0.036207 -0.039824
-0.466955 -0.039690 -0.029434
-0.466955 0.072876 -0.025686
-0.466955 0.016660 -0.056979
-0.466955 0.080228 -0.017044
-0.466955 -0.005673 0.004156
-0.466955 -0.078847 0.006809
-0.466955 -0.086010 -0.049363
-0.466955 -0.035111 0.048717
-0.466955 -0.003503 -0.000950
-0.466955 -0.084671 0.018421
-0.466955 0.045183 0.041100
-0.466955 0.005227 -0.052167
-0.466955 -0.057059 0.058612
-0.466955 0.080099 -0.004476
-0.466955 0.008907 -0.089580
-0.466955 0.043920 0.043536
-0.466955 0.077435 -0.012593
-0.466955 0.032727 0.059082
-0.466955 0.039178 0.019022
-0.466955 0.026625 0.054978
-0.466955 -0.030025 0.084706
-0.466955 0.023813 0.026729
-0.466955 -0.095514 0.012286
-0.466955 0.018560 0.004396
-0.466955 -0.018958 0.085635
-0.466955 -0.044442 0.007576
-0.466955 0.009860 -0.082094
-0.466955 -0.037919 -0.076178
-0.466955 -0.048220 -0.024888
-0.466955 0.085452 0.037891
-0.466955 -0.028112 0.036097
-0.466955 -0.010178 0.074244
-0.466955 0.001882 -0.059892
-0.466955 0.076242 -0.053883
-0.466955 0.012468 0.057996
-0.466955 -0.020071 -0.004488
-0.466955 0.054826 0.046188
-0.466955 0.018053 -0.078183
-0.466955 0.004741 0.074379
-0.466955 0.008389 0.050984
-0.466955 0.044954 -0.071462
-0.466955 -0.006110 0.081687
-0.466955 -0.089662 -0.006463
-0.466955 -0.073649 -0.000705
-0.466955 0.030165 -0.013010
-0.466955 -0.029045 0.054024
-0.466955 0.043920 -0.043591
-0.466955 -0.053556 -0.030349
-0.466955 0.078064 -0.053742
-0.466955 0.096776 0.015449
-0.466955 0.068209 -0.066950
-0.466955 0.067362 0.045939
-0.466955 -0.090716 0.015656
-0.466955 0.043290 -0.011742
-0.466955 0.057533 0.049761
-0.466955 0.049388 -0.003779
-0.466955 -0.090696 0.014082
-0.466955 0.000352 0.010600
-0.466955 -0.006183 0.006932
-0.466955 0.064900 -0.039364
-0.466955 -0.034272 -0.081584
-0.466955 0.021137 0.060937
-0.466955 0.056481 0.043947
-0.466955 0.030657 0.007222
-0.466955 -0.087894 -0.026615
-0.466955 0.085920 -0.029090
-0.466955 -0.023759 0.065618
-0.466955 0.091392 -0.010647
-0.466955 -0.020964 0.065137
-0.466955 0.024624 -0.058531
-0.466955 -0.059884 -0.002844
-0.466955 0.079833 0.058209
-0.466955 0.002394 -0.002317
-0.466955 0.013643 -0.011809
-0.466955 -0.080463 -0.038244
-0.466955 0.010653 0.041664
-0.466955 0.032654 -0.090749
-0.466955 0.003707 0.086255
-0.466955 -0.092645 0.027533
-0.466955 -0.012060 0.048516
-0.466955 0.008669 -0.094035
-0.466955 0.087300 0.003634
-0.466955 0.033304 0.005028
-0.466955 -0.014421 -0.013530
-0.466955 -0.058866 -0.026453
-0.466955 -0.019989 -0.029439
-0.466955 0.098962 0.006710
-0.466955 -0.009824 0.000831
-0.466955 -0.052586 0.083172
-0.466955 0.038813 -0.070116
-0.466955 0.016285 0.020707
-0.466955 0.068022 0.019097
-0.466955 0.081147 -0.015795
-0.466955 -0.026059 0.055856
-0.466955 0.056377 0.004125
-0.466955 0.071603 0.048703
-0.466955 0.021363 0.013720
-0.466955 -0.064976 0.017828
-0.466955 -0.029102 0.041452
-0.466955 -0.059409 -0.040175
-0.466955 -0.009977 0.060903
-0.466955 -0.002845 -0.079067
-0.466955 -0.070387 0.066678
-0.466955 -0.026839 -0.007031
-0.466955 0.017149 -0.070330
-0.466955 0.044683 -0.012354
-0.466955 -0.051526 -0.033838
-0.466955 0.033305 -0.052456
-0.466955 -0.055786 -0.010937
-0.466955 -0.026222 0.063181
-0.466955 -0.061721 0.018721
-0.466955 -0.063142 0.077365
-0.466955 0.016522 0.030684
-0.466955 -0.020047 0.067363
-0.466955 0.001075 0.093085
-0.466955 -0.076147 0.053420
-0.466955 -0.048826 -0.063654
-0.466955 -0.076699 -0.041540
-0.466955 0.034511 -0.045081
-0.466955 0.048301 -0.001547
-0.466955 -0.061454 -0.027367
-0.466955 -0.023471 -0.043415
-0.466955 0.004157 0.082724
-0.466955 -0.046858 0.060520
-0.466955 -0.027010 0.015592
-0.466955 -0.010822 0.066319
-0.466955 -0.059047 -0.010200
-0.466955 -0.054948 0.016911
-0.466955 -0.017062 0.012952
-0.466955 -0.034462 0.068879
-0.466955 -0.054798 0.056596
-0.466955 -0.097742 0.019463
-0.466955 -0.021199 0.095996
-0.466955 0.043246 0.027726
-0.466955 -0.073139 -0.007847
-0.466955 0.004307 0.025592
-0.466955 0.001368 0.028926
-0.466955 0.049948 -0.033696
-0.466955 -0.066191 0.000575
-0.466955 -0.073174 0.039735
-0.466955 0.057971 -0.006344
-0.466955 -0.083159 -0.047990
-0.466955 -0.029073 0.061269
-0.466955 0.013661 -0.000033
-0.466955 -0.031951 -0.091109
-0.466955 0.040690 0.022887
-0.466955 0.040019 -0.009873
-0.466955 -0.001990 -0.006433
-0.466955 0.053028 -0.076989
-0.466955 -0.044049 0.035831
-0.466955 -0.002246 -0.071714
-0.466955 0.033565 -0.074958
-0.466955 0.041315 -0.051377
-0.466955 0.017984 -0.009576
-0.466955 -0.068777 -0.060505
-0.466955 0.034679 0.015841
-0.466955 0.092536 -0.030925
-0.466955 0.016267 0.081078
-0.466955 -0.021504 -0.081740
-0.466955 0.059591 -0.048630
-0.466955 0.003661 0.091625
-0.466955 0.077839 -0.043839
-0.466955 0.000688 0.039977
-0.466955 0.066519 -0.067941
-0.466955 -0.023651 0.039606
-0.466955 -0.082462 0.015209
-0.466955 -0.060778 0.064242
-0.466955 0.019216 -0.008030
-0.466955 -0.002104 0.092549
-0.466955 0.040036 -0.087611
-0.466955 -0.053792 0.021369
-0.466955 -0.025876 -0.040540
-0.466955 -0.049792 0.068842
-0.466955 -0.079106 0.024154
-0.466955 0.024281 -0.010898
-0.466955 0.020001 -0.005973
-0.466955 -0.065851 0.067450
-0.466955 0.052796 -0.027770
-0.466955 0.029981 0.034191
-0.466955 0.070870 0.001633
-0.466955 0.032828 -0.002210
-0.466955 0.042137 -0.035201
-0.466955 -0.044663 -0.048453
-0.466955 -0.039536 -0.012070
-0.466955 -0.039467 -0.035689
-0.466955 0.040679 -0.033200
-0.466955 -0.054057 0.022891
-0.466955 0.043490 0.011167
-0.466955 0.018991 -0.054498
-0.466955 0.026302 0.001652
-0.466955 -0.048399 0.028786
-0.466955 0.003037 0.090287
-0.466955 0.043848 -0.072543
-0.466955 0.010465 0.088125
-0.466955 0.048065 -0.006867
-0.466955 0.051304 -0.041891
-0.466955 -0.013333 0.071740
-0.466955 -0.047291 0.044910
-0.466955 -0.052504 0.043922
-0.466955 0.049617 -0.079317
-0.466955 -0.072004 0.011297
-0.466955 0.040923 -0.002033
-0.466955 0.062098 0.029380
-0.466955 0.021288 0.040463
-0.466955 0.020937 -0.001817
-0.466955 0.071102 0.022221
-0.466955 0.041252 -0.080258
-0.466955 -0.099180 -0.008160
-0.466955 0.046365 -0.000533
-0.466955 0.048698 -0.011760
-0.466955 -0.045158 0.086312
-0.466955 0.033483 0.002263
-0.466955 -0.072005 0.061169
-0.466955 -0.067350 -0.034608
-0.466955 0.038299 -0.014618
-0.466955 -0.033247 0.022151
-0.466955 0.041980 0.018627
-0.466955 0.084957 0.030475
-0.466955 -0.094894 -0.004791
-0.466955 -0.001375 0.094540
-0.466955 -0.038410 -0.020668
-0.466955 -0.048868 0.049225
-0.466955 0.048726 0.005924
-0.466955 0.081183 -0.050160
-0.466955 0.052101 0.057389
-0.466955 0.051150 -0.070097
-0.466955 0.064630 -0.028569
-0.466955 0.073633 -0.004187
-0.466955 0.062208 -0.018488
-0.466955 -0.083403 -0.052224
-0.466955 0.023615 0.072948
-0.466955 0.034122 -0.087375
-0.466955 -0.049009 0.081886
-0.466955 -0.023705 0.071296
-0.466955 0.064164 0.052031
-0.466955 -0.006568 0.064873
-0.466955 0.032764 -0.072121
-0.466955 -0.023702 -0.031674
-0.466955 -0.020831 0.085005
-0.466955 0.036174 0.031995
-0.466955 0.055889 0.016617
-0.466955 0.081245 0.054669
-0.466955 0.044676 0.083508
-0.466955 0.069000 0.012427
-0.466955 -0.071880 0.026825
-0.466955 -0.060227 0.029974
-0.466955 0.003537 -0.023048
-0.466955 -0.007092 -0.032259
-0.466955 -0.054561 0.001266
-0.466955 0.056816 -0.058209
-0.466955 0.080372 -0.053506
-0.466955 -0.082461 0.055597
-0.466955 -0.006448 0.084494
-0.466955 -0.060967 0.021803
-0.466955 0.036712 0.009480
-0.466955 -0.044837 -0.083426
-0.466955 0.052627 -0.031432
-0.466955 0.000220 -0.069415
-0.466955 0.067577 -0.003104
-0.466955 0.059237 0.058187
-0.466955 -0.096782 0.004794
-0.466955 0.035189 -0.013408
-0.466955 0.032752 0.074064
-0.466955 0.029273 0.044570
-0.466955 -0.013994 -0.016869
-0.466955 -0.056722 -0.047370
-0.466955 -0.005662 -0.035768
-0.466955 0.036134 0.022695
-0.466955 -0.070663 -0.003408
-0.466955 0.075971 0.041788
-0.466955 -0.072563 0.041648
-0.466955 0.018257 0.089076
-0.466955 -0.080231 0.005248
-0.466955 -0.035338 0.034365
-0.466955 -0.091062 0.019255
-0.466955 0.005798 -0.004613
-0.466955 -0.038561 -0.015490
-0.466955 -0.069162 -0.066984
-0.466955 -0.025974 -0.064955
-0.466955 -0.021207 0.057249
-0.466955 0.091478 -0.018406
-0.466955 0.019226 0.072072
-0.466955 0.020565 -0.060230
-0.466955 0.061854 0.011264
-0.466955 0.009746 0.016846
-0.466955 -0.021299 0.038710
-0.466955 0.094366 0.017448
-0.466955 -0.013083 0.094827
-0.466955 -0.008730 -0.067773
-0.466955 -0.038498 0.055346
-0.466955 -0.039976 0.061664
-0.466955 -0.030855 -0.049175
-0.466955 0.073535 0.016812
-0.466955 -0.095018 0.026006
-0.466955 0.042653 -0.004113
-0.466955 -0.040671 -0.009685
-0.466955 -0.091931 -0.007105
-0.466955 0.007067 0.019903
-0.466955 0.012078 -0.007087
-0.466955 0.016190 0.051062
-0.466955 -0.056680 -0.062995
-0.466955 -0.017339 0.059040
-0.466955 -0.046416 0.019112
-0.466955 0.034243 -0.067867
-0.466955 -0.053269 0.057615
-0.466955 -0.040350 0.000125
-0.466955 -0.029719 -0.002707
-0.466955 0.017082 0.092950
-0.466955 0.051954 -0.001956
-0.466955 -0.035540 -0.051600
-0.466955 -0.091621 0.035075
-0.466955 0.084748 0.033171
-0.466955 0.017585 0.019334
-0.466955 -0.060710 -0.016011
-0.466955 -0.074317 0.016318
-0.466955 -0.009079 -0.079906
-0.466955 -0.096769 0.014811
-0.466955 -0.088768 0.018759
-0.466955 -0.076850 -0.039435
-0.466955 -0.050701 0.020326
-0.466955 0.015635 0.076088
-0.466955 -0.002819 0.000602
-0.466955 -0.055705 -0.009584
-0.466955 -0.059498 0.076967
-0.466955 0.006537 0.058052
-0.466955 0.097233 -0.020917
-0.466955 -0.053173 -0.073268
-0.466955 0.023059 -0.044832
-0.466955 -0.065511 -0.010334
-0.466955 -0.035263 0.020652
-0.466955 -0.011576 -0.024145
-0.466955 -0.001834 0.003289
-0.466955 0.025535 0.091088
-0.466955 -0.006606 -0.087833
-0.466955 -0.029142 -0.064163
-0.466955 -0.055071 -0.082886
-0.466955 0.026882 0.066116
-0.466955 0.040400 -0.046957
-0.466955 -0.027981 -0.067466
-0.466955 -0.014568 0.096050
-0.466955 -0.024957 0.048628
-0.466955 -0.007405 0.012000
-0.466955 0.039531 0.089285
-0.466955 -0.003601 0.014919
-0.466955 0.035671 0.010913
-0.466955 0.066211 0.073598
-0.466955 -0.050077 0.079955
-0.466955 0.060448 -0.052902
-0.466955 0.075492 0.040283
-0.466955 0.035168 -0.055177
-0.466955 0.011980 0.037258
-0.466955 0.092271 -0.012062
-0.466955 0.063256 0.038580
-0.466955 -0.067113 -0.049949
-0.466955 0.031732 0.004467
-0.466955 0.011320 0.043043
-0.466955 0.060410 0.075103
-0.466955 -0.016466 -0.084438
-0.466955 0.057658 -0.070715
-0.466955 0.067046 0.034293
-0.466955 0.071590 -0.051151
-0.466955 -0.081106 0.022683
-0.466955 -0.042367 0.032449
-0.466955 0.034539 -0.031540
-0.466955 -0.041591 -0.065903
-0.466955 0.061687 0.009450
-0.466955 0.087572 0.034602
-0.466955 0.030392 -0.016151
-0.466955 -0.087470 0.037183
-0.466955 -0.004393 0.026818
-0.466955 -0.043090 -0.058826
-0.466955 0.037504 0.070070
-0.466955 0.031067 0.074531
-0.466955 0.027826 -0.023371
-0.466955 -0.055677 0.006319
-0.466955 -0.053714 -0.064641
-0.466955 -0.088732 -0.034410
-0.466955 -0.078140 -0.013769
-0.466955 -0.086505 -0.004351
-0.466955 -0.030100 -0.066812
-0.466955 0.068204 -0.015471
-0.466955 -0.031531 0.012157
-0.466955 -0.019484 -0.015659
-0.466955 0.082729 -0.024269
-0.466955 -0.012655 0.054324
-0.466955 -0.093782 0.010951
-0.466955 -0.025239 -0.032669
-0.466955 0.061788 0.025478
-0.466955 -0.004525 0.075538
-0.466955 0.068314 0.009782
-0.466955 -0.012808 -0.062966
-0.466955 0.065491 0.055346
-0.466955 0.041197 -0.042568
-0.466955 0.028653 -0.027399
-0.466955 -0.076937 -0.010283
-0.466955 0.069764 -0.033831
-0.466955 0.017172 -0.049251
-0.466955 0.022944 0.040264
-0.466955 0.025271 -0.017610
-0.466955 0.034751 0.018813
-0.466955 0.052497 -0.080616
-0.466955 -0.035310 -0.038165
-0.466955 0.019503 -0.024544
-0.466955 0.049603 -0.082679
-0.466955 0.018581 0.002505
-0.466955 0.004841 -0.042395
-0.466955 -0.054162 0.065176
-0.466955 0.026210 0.041568
-0.466955 -0.072287 0.056361
-0.466955 0.082518 0.029070
-0.466955 -0.019329 0.025094
-0.466955 0.063443 -0.021621
-0.466955 -0.074608 -0.002262
-0.466955 -0.019979 0.092669
-0.466955 0.059184 -0.036965
-0.466955 0.046878 0.004905
-0.466955 -0.020852 -0.054810
-0.466955 0.005784 -0.027389
-0.466955 -0.040040 0.078028
-0.466955 0.060173 -0.066448
-0.466955 0.021465 -0.026130
-0.466955 0.092676 0.016329
-0.466955 -0.069635 -0.011740
-0.466955 -0.001916 -0.074792
-0.466955 0.062102 -0.062323
-0.466955 0.004192 0.011780
-0.466955 0.030151 -0.090270
-0.466955 0.018548 0.067004
-0.466955 -0.067072 0.070181
-0.466955 0.067329 0.027953
-0.466955 -0.070476 0.040568
-0.466955 0.035228 0.006034
-0.466955 0.024731 0.043594
-0.466955 0.089560 -0.022670
-0.466955 0.056041 -0.012987
-0.466955 0.037329 0.055307
-0.466955 -0.046551 -0.070790
-0.466955 0.029649 0.002971
-0.466955 0.003659 -0.089847
-0.466955 -0.093776 -0.012428
-0.466955 -0.027042 -0.039571
-0.466955 0.003901 0.031528
-0.466955 -0.069029 0.001254
-0.466955 -0.036420 0.055815
-0.466955 0.059006 -0.014125
-0.466955 0.006449 0.023143
-0.466955 -0.035085 -0.082914
-0.466955 -0.027308 0.000439
-0.466955 -0.005643 0.083076
-0.466955 -0.064536 -0.005548
-0.466955 -0.059381 0.016394
-0.466955 -0.046648 0.062565
-0.466955 0.046837 0.062088
-0.466955 0.031325 -0.059341
-0.466955 -0.091154 -0.021750
-0.466955 -0.060904 0.076503
-0.466955 0.060521 0.028999
-0.466955 -0.041304 -0.071370
-0.466955 0.018286 -0.064786
-0.466955 -0.043126 0.057400
-0.466955 0.039578 0.083270
-0.466955 -0.005292 -0.048740
-0.466955 -0.075933 -0.058440
-0.466955 -0.071267 0.050556
-0.466955 -0.008627 -0.032212
-0.466955 0.065196 0.030331
-0.466955 0.030430 -0.006262
-0.466955 -0.094169 0.021601
-0.466955 0.030174 0.062270
-0.466955 -0.003077 0.026092
-0.466955 0.006824 -0.024504
-0.466955 -0.084191 0.053179
-0.466955 0.028530 0.061220
-0.466955 0.066168 0.056737
-0.466955 -0.035615 0.092886
-0.466955 0.057071 0.040512
-0.466955 0.065422 0.027239
-0.466955 -0.044578 -0.066550
-0.466955 -0.041993 -0.046387
-0.466955 0.021653 0.032558
-0.466955 -0.012291 -0.079540
-0.466955 0.064235 -0.022953
-0.466955 0.047442 -0.079350
-0.466955 0.004979 -0.080985
-0.466955 -0.059474 0.059156
-0.466955 -0.033960 -0.050689
-0.466955 -0.083295 -0.029785
-0.466955 -0.053632 0.062975
-0.466955 0.044928 0.061812
-0.466955 0.066072 0.049703
-0.466955 0.021477 0.035542
-0.466955 -0.014315 0.040797
-0.466955 -0.006761 0.034409
-0.466955 -0.008921 0.078034
-0.466955 -0.015890 -0.025866
-0.466955 0.097871 0.003880
-0.466955 -0.071865 -0.005061
-0.466955 -0.058627 -0.049190
-0.466955 0.060066 -0.076936
-0.466955 -0.033739 -0.052338
-0.466955 0.022689 0.036980
-0.466955 0.047027 -0.035092
-0.466955 0.083388 0.035599
-0.466955 0.024507 -0.028599
-0.466955 -0.070562 0.020104
-0.466955 0.070445 0.032398
-0.466955 -0.054018 0.061465
-0.466955 -0.086180 0.042532
-0.466955 -0.002836 0.008019
-0.466955 -0.009242 0.009137
-0.466955 0.024630 -0.003553
-0.466955 -0.018063 0.069374
-0.466955 -0.003200 -0.065224
-0.466955 0.024840 0.055272
-0.466955 -0.036361 0.088247
-0.466955 0.049895 0.058526
-0.466955 -0.007892 0.089294
-0.466955 -0.014540 0.082095
-0.466955 -0.044045 -0.018483
-0.466955 -0.043465 -0.001350
-0.466955 0.020203 0.097298
-0.466955 0.006226 0.011747
-0.466955 -0.003508 -0.052145
-0.466955 -0.031211 0.022870
-0.466955 0.053543 0.047536
-0.466955 0.071005 -0.018600
-0.466955 -0.032730 0.044974
-0.466955 0.058329 -0.062644
-0.466955 -0.031500 0.016068
-0.466955 0.017161 -0.059819
-0.466955 0.080529 0.030741
-0.466955 0.073756 0.023759
-0.466955 0.001144 0.062281
-0.466955 0.076610 -0.030007
-0.466955 0.049308 0.051933
-0.466955 0.047887 0.014016
-0.466955 -0.095133 0.009303
-0.466955 -0.015587 -0.016489
-0.466955 0.072115 0.018584
-0.466955 -0.025144 0.077345
-0.466955 -0.071721 -0.038592
-0.466955 0.084781 -0.049081
-0.466955 0.046482 0.011233
-0.466955 -0.034709 -0.088328
-0.466955 0.095780 0.027750
-0.466955 0.072998 -0.052328
-0.466955 0.027237 -0.059242
-0.466955 0.074866 -0.015631
-0.466955 -0.009842 -0.027827
-0.466955 0.063309 0.042924
-0.466955 0.039441 0.030691
-0.466955 -0.073842 -0.005835
-0.466955 0.004744 0.037441
-0.466955 0.065373 0.019738
-0.466955 -0.073291 -0.016253
-0.466955 0.010833 -0.061585
-0.466955 -0.069718 0.007023
-0.466955 -0.019131 -0.076772
-0.466955 0.068905 0.060835
-0.466955 -0.065467 -0.032309
-0.466955 -0.089611 0.043832
-0.466955 0.098229 0.001824
-0.466955 -0.086677 0.015672
-0.466955 -0.047965 -0.067180
-0.466955 0.070053 0.049095
-0.466955 0.055369 0.075426
-0.466955 0.037196 -0.038795
-0.466955 0.027299 -0.019773
-0.466955 -0.001284 -0.047164
-0.466955 -0.089104 0.014090
-0.466955 0.092306 0.006554
-0.466955 -0.029905 -0.054011
-0.466955 0.028325 0.075519
-0.466955 -0.075715 -0.025031
-0.466955 -0.043666 0.058717
-0.466955 -0.085800 0.014202
-0.466955 0.043986 -0.025080
-0.466955 0.057736 0.068923
-0.466955 -0.039013 -0.069855
-0.466955 -0.042859 -0.086234
-0.466955 0.017250 -0.020586
-0.466955 0.052983 -0.005648
-0.466955 -0.033625 0.070597
-0.466955 -0.066475 -0.066181
-0.466955 -0.037680 -0.029492
-0.466955 0.015719 0.008020
-0.466955 -0.053802 0.053793
-0.466955 -0.005499 -0.065478
-0.466955 -0.030220 -0.057379
-0.466955 -0.061397 -0.075733
-0.466955 0.043823 0.035521
-0.466955 0.012270 0.009295
-0.466955 0.070366 0.024457
-0.466955 0.019332 0.090062
-0.466955 0.040510 0.077326
-0.466955 0.038579 -0.038396
-0.466955 0.029399 0.048213
-0.466955 0.030223 -0.086576
-0.466955 0.099536 -0.002050
-0.466955 -0.064796 -0.021566
-0.466955 0.071483 0.060774
-0.466955 -0.028809 0.079620
-0.466955 -0.008200 -0.076068
-0.466955 0.053405 -0.059831
-0.466955 -0.020350 0.097863
-0.466955 0.004333 -0.020536
-0.466955 -0.061518 -0.042928
-0.466955 0.006184 0.054249
-0.466955 0.070466 -0.039994
-0.466955 0.071490 -0.052569
-0.466955 0.001180 0.027246
-0.466955 0.041187 0.021297
-0.466955 -0.036236 0.079332
-0.466955 -0.057793 -0.014000
-0.466955 -0.040901 0.006823
-0.466955 -0.082343 0.027375
-0.466955 0.006785 0.028159
-0.466955 -0.061558 -0.036711
-0.466955 0.052034 0.000447
-0.466955 -0.014529 -0.096848
-0.466955 0.070173 -0.007961
-0.466955 0.011087 -0.065025
-0.466955 0.019408 -0.077216
-0.466955 -0.029104 0.027222
-0.466955 -0.057388 -0.011121
-0.466955 0.042588 0.036636
-0.466955 -0.072580 -0.054122
-0.466955 0.017595 0.094656
-0.466955 -0.052690 -0.066322
-0.466955 0.063118 0.015250
-0.466955 0.042474 0.090473
-0.466955 0.039983 0.055406
-0.466955 -0.048489 -0.072699
-0.466955 0.003457 0.024193
-0.466955 0.020751 -0.070553
-0.466955 -0.038895 -0.091044
-0.466955 0.009826 -0.007097
-0.466955 0.023870 -0.056734
-0.466955 0.036611 -0.058819
-0.466955 0.014337 -0.049360
-0.466955 0.031416 0.043665
-0.466955 -0.049589 -0.015984
-0.466955 -0.075265 -0.011693
-0.466955 -0.003602 0.032567
-0.466955 -0.073645 -0.048045
-0.466955 -0.004497 0.002592
-0.466955 0.042515 0.031874
-0.466955 0.027296 -0.044445
-0.466955 -0.090084 0.005235
-0.466955 0.074012 0.003884
-0.466955 -0.012792 -0.092672
-0.466955 -0.025100 -0.023353
-0.466955 0.075680 0.011766
-0.466955 -0.093912 -0.010546
-0.466955 -0.037058 -0.059965
-0.466955 -0.058373 0.029514
-0.466955 -0.037453 0.059712
-0.466955 -0.080633 0.051561
-0.466955 -0.025435 0.004490
-0.466955 -0.032176 -0.092677
-0.466955 0.078942 -0.015333
-0.466955 -0.040717 -0.072893
-0.466955 -0.007909 -0.058624
-0.466955 0.002486 0.012888
-0.466955 -0.078215 -0.017775
-0.466955 -0.005995 0.068095
-0.466955 -0.059795 0.034615
-0.466955 0.047520 0.049739
-0.466955 0.027452 0.018611
-0.466955 0.015966 0.074576
-0.466955 -0.016015 0.021936
-0.466955 0.049813 0.086338
-0.466955 -0.063754 0.042200
-0.466955 0.053527 0.061920
-0.466955 0.012842 0.043667
-0.466955 -0.045030 0.054228
-0.466955 0.002750 0.071120
-0.466955 -0.001484 0.039292
-0.466955 -0.021356 0.068608
-0.466955 -0.031911 0.027533
-0.466955 0.075793 0.014733
-0.466955 0.064290 -0.042254
-0.466955 -0.066638 -0.026978
-0.466955 0.037914 -0.015998
-0.466955 0.001246 -0.081288
-0.466955 -0.015512 0.068958
-0.466955 0.039414 0.013530
-0.466955 -0.028839 -0.036621
-0.466955 0.077952 0.022846
-0.466955 0.079299 0.001333
-0.466955 0.002533 0.096689
-0.466955 -0.009743 -0.043783
-0.466955 -0.025356 0.015460
-0.466955 0.000537 -0.032286
-0.466955 -0.022860 -0.040357
-0.466955 0.039347 0.005325
-0.466955 -0.037252 -0.035181
-0.466955 0.011550 0.014765
-0.466955 0.035011 0.050456
-0.466955 0.052643 -0.047695
-0.466955 -0.034262 0.071787
-0.466955 -0.050709 -0.083470
-0.466955 -0.041807 -0.038813
-0.466955 0.041425 -0.023141
-0.466955 0.069278 -0.036344
-0.466955 -0.023797 0.072911
-0.466955 0.073393 -0.035689
-0.466955 -0.083476 -0.028454
-0.466955 -0.084674 0.020158
-0.466955 -0.052206 0.007614
-0.466955 -0.009172 0.036336
-0.466955 0.065280 0.058115
-0.466955 0.081955 -0.035459
-0.466955 0.039182 -0.061975
-0.466955 -0.032957 0.007190
-0.466955 -0.080404 -0.057815
-0.466955 -0.072322 -0.034761
-0.466955 0.078963 0.038482
-0.466955 0.066391 0.039428
-0.466955 0.056929 0.071095
-0.466955 0.037827 -0.075290
-0.466955 0.037251 0.080186
-0.466955 -0.091833 0.024600
-0.466955 0.027197 0.096234
-0.466955 0.058147 0.042322
-0.466955 -0.092369 0.030857
-0.466955 0.067437 -0.072757
-0.466955 -0.075132 0.006347
-0.466955 -0.034397 -0.008611
-0.466955 0.068163 0.053628
-0.466955 0.074129 -0.047187
-0.466955 -0.061223 0.033234
-0.466955 -0.070874 -0.037293
-0.466955 -0.033916 -0.028670
-0.466955 0.016773 0.098110
-0.466955 -0.014961 -0.024187
-0.466955 -0.011070 -0.015771
-0.466955 0.061383 0.038628
-0.466955 0.044903 -0.009547
-0.466955 0.032919 0.053328
-0.466955 -0.065870 0.002018
-0.466955 -0.058874 -0.020588
-0.466955 -0.008313 0.056347
-0.466955 -0.053807 0.027807
-0.466955 0.046198 -0.059205
-0.466955 -0.012620 -0.076955
-0.466955 0.050971 0.070858
-0.466955 -0.018576 -0.047483
-0.466955 0.084833 0.036279
-0.466955 -0.030874 0.068232
-0.466955 -0.097228 0.021417
-0.466955 -0.063325 0.004145
-0.466955 -0.038265 -0.068133
-0.466955 0.046982 -0.060552
-0.466955 -0.028206 0.063972
-0.466955 -0.069958 0.069488
-0.466955 -0.047267 0.013747
-0.466955 0.025431 0.026647
-0.466955 -0.031091 -0.089700
-0.466955 -0.007742 0.087139
-0.466955 -0.041311 -0.042744
-0.466955 -0.026347 0.051671
-0.466955 0.012170 0.041326
-0.466955 -0.068863 -0.020316
-0.466955 -0.042596 -0.073067
-0.466955 0.032133 0.026879
-0.466955 0.003610 -0.068774
-0.466955 -0.060066 0.007891
-0.466955 -0.017296 0.089557
-0.466955 -0.050468 -0.066576
-0.466955 0.058384 -0.079761
-0.466955 -0.025586 0.078787
-0.466955 -0.073715 -0.051488
-0.466955 0.062694 0.068333
-0.466955 -0.079810 -0.040350
-0.466955 -0.052960 0.023936
-0.466955 0.082493 -0.014759
-0.466955 -0.021080 0.050224
-0.466955 0.023530 -0.040455
-0.466955 -0.081106 -0.014850
