-0.466955 0.027811 -0.083488
-0.466955 0.019734 -0.065594
-0.466955 -0.072550 0.042766
-0.466955 0.084748 -0.046424
-0.466955 -0.006375 0.050564
-0.466955 0.021313 0.023684
-0.466955 0.095028 -0.017150
-0.466955 0.028336 0.009084
-0.466955 -0.048387 -0.041755
-0.466955 -0.028630 -0.023004
-0.466955 -0.073344 0.067244
-0.466955 0.092265 0.001201
-0.466955 0.009933 0.023084
-0.466955 0.057041 -0.022721
-0.466955 -0.028018 -0.088893
-0.466955 0.017582 -0.010425
-0.466955 -0.096288 -0.003544
-0.466955 -0.026742 0.076430
-0.466955 -0.085969 0.025420
-0.466955 0.085425 0.013925
-0.466955 -0.026769 0.083551
-0.466955 -0.001918 -0.045652
-0.466955 0.043959 -0.023330
-0.466955 0.073508 0.056751
-0.466955 -0.024859 -0.078333
-0.466955 0.014228 0.023091
-0.466955 0.060114 0.043197
-0.466955 0.087973 0.025798
-0.466955 -0.093297 -0.008594
-0.466955 0.065429 -0.057947
-0.466955 -0.073076 0.004029
-0.466955 0.069852 -0.059439
-0.466955 0.021770 0.090139
-0.466955 -0.066293 -0.044224
-0.466955 0.054297 0.057497
-0.466955 -0.085741 -0.034179
-0.466955 -0.085211 0.023349
-0.466955 -0.019557 -0.081459
-0.466955 -0.043187 -0.019882
-0.466955 0.000874 0.078343
-0.466955 -0.060691 -0.066510
-0.466955 0.011313 -0.047288
-0.466955 0.065367 0.015863
-0.466955 -0.081728 0.002769
-0.466955 -0.053628 -0.023783
-0.466955 0.037812 -0.089084
-0.466955 0.034387 -0.043261
-0.466955 0.082758 -0.035821
-0.466955 0.074510 -0.066058
-0.466955 -0.048630 0.051157
-0.466955 -0.028453 -0.034755
-0.466955 0.080515 -0.005146
-0.466955 0.074601 0.050261
-0.466955 -0.044245 0.030889
-0.466955 -0.000213 -0.093929
-0.466955 -0.008071 0.076975
-0.466955 -0.017081 -0.048044
-0.466955 0.014972 -0.056808
-0.466955 -0.073312 -0.032187
-0.466955 -0.006394 0.094327
-0.466955 -0.019816 -0.044715
-0.466955 0.008828 -0.001591
-0.466955 0.092347 -0.022292
-0.466955 0.010065 -0.061207
-0.466955 0.014383 -0.046523
-0.466955 -0.035322 0.029202
-0.466955 -0.080269 -0.042623
-0.466955 0.049074 -0.041246
-0.466955 0.015368 0.020199
-0.466955 0.076037 -0.058941
-0.466955 0.046661 0.011275
-0.466955 0.002195 -0.006586
-0.466955 -0.027500 0.039720
-0.466955 0.020966 0.081024
-0.466955 0.073944 0.048987
-0.466955 -0.034079 0.063264
-0.466955 0.035191 0.026697
-0.466955 -0.072709 0.007135
-0.466955 -0.012919 0.042289
-0.466955 -0.015988 -0.010025
-0.466955 -0.019223 0.044369
-0.466955 -0.023763 0.010488
-0.466955 0.081310 0.029327
-0.466955 -0.039463 0.087448
-0.466955 0.012172 -0.038830
-0.466955 -0.010121 0.047940
-0.466955 -0.029590 0.034593
-0.466955 0.031783 -0.086596
-0.466955 0.084387 0.030172
-0.466955 -0.023324 0.062535
-0.466955 0.022558 -0.018596
-0.466955 -0.071808 -0.042968
-0.466955 0.045049 0.011698
-0.466955 -0.064610 -0.007305
-0.466955 0.055829 0.068125
-0.466955 0.098800 0.012784
-0.466955 -0.002565 0.051226
-0.466955 0.076919 0.040242
-0.466955 -0.092611 -0.025154
-0.466955 -0.007342 -0.038321
-0.466955 0.024222 -0.053703
-0.466955 0.027264 0.078918
-0.466955 -0.041478 -0.055551
-0.466955 0.008379 0.020148
-0.466955 0.035986 -0.017028
-0.466955 -0.015266 0.019045
-0.466955 0.023352 0.047913
-0.466955 0.004031 -0.043155
-0.466955 0.065746 0.004035
-0.466955 -0.053437 -0.079802
-0.466955 -0.042266 0.012457
-0.466955 0.007483 0.013534
-0.466955 0.067734 0.073601
-0.466955 -0.062033 0.047418
-0.466955 0.013254 -0.037676
-0.466955 0.025151 0.081278
-0.466955 -0.037172 -0.052815
-0.466955 0.037971 -0.037595
-0.466955 -0.053864 0.017116
-0.466955 0.084518 -0.025886
-0.466955 0.060942 0.013801
-0.466955 -0.037775 -0.015732
-0.466955 -0.036219 -0.039791
-0.466955 -0.002874 0.084374
-0.466955 -0.032186 0.028319
-0.466955 0.055562 -0.006970
-0.466955 0.029679 -0.043898
-0.466955 -0.044742 -0.055377
-0.466955 -0.033044 0.012106
-0.466955 0.086826 0.035036
-0.466955 -0.013078 0.049551
-0.466955 0.036033 0.079234
-0.466955 -0.027583 -0.031476
-0.466955 -0.025828 0.010767
-0.466955 0.075427 0.026088
-0.466955 0.097907 -0.018642
-0.466955 -0.031693 0.015335
-0.466955 0.000982 -0.037942
-0.466955 0.029728 0.082589
-0.466955 -0.052234 -0.061708
-0.466955 -0.018576 -0.089933
-0.466955 0.051794 -0.063942
-0.466955 -0.008368 0.088823
-0.466955 -0.051517 -0.028049
-0.466955 0.048889 0.075343
-0.466955 -0.008808 -0.084289
-0.466955 0.069716 -0.038383
-0.466955 -0.024264 0.037608
-0.466955 0.066163 -0.008466
-0.466955 -0.020604 0.041892
-0.466955 0.065060 -0.049287
-0.466955 0.054860 -0.043063
-0.466955 0.023097 0.043002
-0.466955 -0.045957 -0.044450
-0.466955 0.008135 0.083718
-0.466955 0.074414 0.001571
-0.466955 0.032742 -0.019116
-0.466955 -0.016074 0.073633
-0.466955 0.081286 0.017898
-0.466955 0.060561 -0.034092
-0.466955 -0.033327 0.094151
-0.466955 -0.022212 0.005844
-0.466955 -0.014505 -0.017028
-0.466955 -0.037855 -0.062183
-0.466955 -0.009248 -0.067209
-0.466955 -0.055898 0.056361
-0.466955 0.056880 -0.059640
-0.466955 -0.004459 0.070723
-0.466955 -0.070042 -0.017132
-0.466955 0.031865 -0.080976
-0.466955 -0.031089 0.018727
-0.466955 0.005853 0.085812
-0.466955 0.068514 -0.011363
-0.466955 -0.052280 0.066451
-0.466955 -0.048180 0.002055
-0.466955 -0.006149 -0.094093
-0.466955 -0.085892 -0.009931
-0.466955 -0.075277 0.013762
-0.466955 -0.035208 0.016353
-0.466955 -0.018849 -0.076735
-0.466955 0.093328 0.014083
-0.466955 0.024867 -0.012166
-0.466955 0.006805 -0.088205
-0.466955 0.088003 0.017907
-0.466955 0.063188 -0.076920
-0.466955 -0.016804 -0.004229
-0.466955 -0.036823 0.077517
-0.466955 -0.016630 0.088043
-0.466955 -0.041762 0.016721
-0.466955 0.036950 -0.073034
-0.466955 -0.018222 -0.070932
-0.466955 -0.077440 -0.009332
-0.466955 0.064631 0.061509
-0.466955 -0.006464 -0.052087
-0.466955 0.063216 -0.039779
-0.466955 -0.058621 0.014135
-0.466955 -0.069041 -0.051357
-0.466955 -0.063238 -0.063457
-0.466955 -0.018196 -0.030616
-0.466955 0.087941 0.036251
-0.466955 0.057122 0.029293
-0.466955 -0.087253 0.044380
-0.466955 0.094905 -0.009225
-0.466955 -0.051096 -0.032169
-0.466955 -0.027440 -0.090794
-0.466955 -0.042877 -0.053573
-0.466955 0.033001 -0.079843
-0.466955 0.082209 0.056973
-0.466955 -0.068508 -0.040439
-0.466955 -0.054156 0.021674
-0.466955 0.012851 0.074601
-0.466955 -0.006817 0.075677
-0.466955 -0.047844 -0.013917
-0.466955 -0.071754 -0.044982
-0.466955 0.067205 0.015752
-0.466955 0.060689 -0.039080
-0.466955 -0.031537 -0.054639
-0.466955 0.054730 -0.035701
-0.466955 -0.051927 -0.017188
-0.466955 0.019835 -0.021192
-0.466955 0.032053 0.014317
-0.466955 -0.056298 0.078659
-0.466955 0.060218 -0.032206
-0.466955 0.008089 -0.022061
-0.466955 0.028500 0.024876
-0.466955 -0.052060 -0.046739
-0.466955 0.007627 0.064753
-0.466955 0.058618 0.028475
-0.466955 0.098669 -0.002271
-0.466955 -0.030111 0.035931
-0.466955 0.042692 -0.017811
-0.466955 -0.002719 0.001739
-0.466955 0.030227 -0.045421
-0.466955 0.058541 -0.075809
-0.466955 -0.009101 -0.000368
-0.466955 0.076113 0.055651
-0.466955 0.095888 -0.014933
-0.466955 0.017804 -0.033650
-0.466955 -0.020350 -0.025520
-0.466955 -0.092308 0.037621
-0.466955 -0.054280 -0.064568
-0.466955 0.053802 0.074548
-0.466955 0.026644 0.064071
-0.466955 0.077212 -0.014077
-0.466955 0.052393 -0.032335
-0.466955 -0.012376 -0.073754
-0.466955 -0.081383 -0.034419
-0.466955 0.078424 -0.020252
-0.466955 0.021531 0.031150
-0.466955 0.009447 -0.064608
-0.466955 -0.039582 0.031879
-0.466955 0.006723 0.008020
-0.466955 -0.058844 -0.066447
-0.466955 -0.091507 0.001809
-0.466955 0.078489 0.061950
-0.466955 -0.023518 0.024815
-0.466955 0.028257 0.039686
-0.466955 0.012558 0.080828
-0.466955 0.005211 0.071856
-0.466955 0.050336 -0.046644
-0.466955 -0.048625 -0.037211
-0.466955 -0.033173 -0.022476
-0.466955 -0.048676 0.006920
-0.466955 0.036208 -0.009944
-0.466955 0.018754 -0.029711
-0.466955 0.050219 -0.015792
-0.466955 0.094431 0.004424
-0.466955 -0.036936 -0.008291
-0.466955 0.015394 -0.006412
-0.466955 0.004376 0.088366
-0.466955 -0.017260 -0.009200
-0.466955 0.028613 -0.072421
-0.466955 -0.040813 0.040058
-0.466955 -0.033370 0.026024
-0.466955 -0.045000 -0.027057
-0.466955 0.051893 -0.074183
-0.466955 -0.059934 -0.067798
-0.466955 0.045004 0.086137
-0.466955 -0.022131 -0.022947
-0.466955 0.075819 -0.024798
-0.466955 -0.053217 0.042511
-0.466955 -0.034734 -0.038640
-0.466955 -0.019812 -0.005047
-0.466955 -0.000736 0.049249
-0.466955 0.037651 0.063414
-0.466955 0.065490 0.020050
-0.466955 0.047650 -0.065066
-0.466955 0.035428 -0.089559
-0.466955 0.059012 0.023081
-0.466955 0.052168 0.027332
-0.466955 0.022675 0.026872
-0.466955 0.081817 -0.048175
-0.466955 0.057288 0.046298
-0.466955 -0.001521 -0.069694
-0.466955 0.077826 0.030343
-0.466955 0.041483 -0.071963
-0.466955 0.058736 0.048999
-0.466955 0.062930 -0.034686
-0.466955 0.049901 0.003666
-0.466955 0.085241 0.026669
-0.466955 0.077507 0.023603
-0.466955 -0.019298 -0.009372
-0.466955 -0.026910 0.007257
-0.466955 0.044545 0.038825
-0.466955 -0.039644 -0.079665
-0.466955 0.020371 -0.017412
-0.466955 0.026563 0.010414
-0.466955 0.027991 -0.025361
-0.466955 0.045261 -0.038517
-0.466955 -0.035065 0.050226
-0.466955 0.091527 0.013791
-0.466955 0.006248 -0.085064
-0.466955 0.035614 -0.054329
-0.466955 -0.055187 -0.032528
-0.466955 -0.094359 -0.006701
-0.466955 0.015814 -0.061876
-0.466955 0.020859 -0.073287
-0.466955 0.066457 -0.000723
-0.466955 0.006827 0.014790
-0.466955 -0.079355 0.039665
-0.466955 0.065227 -0.051593
-0.466955 -0.089880 0.042785
-0.466955 0.071033 0.067740
-0.466955 0.019314 -0.018357
-0.466955 0.084161 -0.015219
-0.466955 0.012261 -0.049317
-0.466955 0.097259 -0.019967
-0.466955 -0.038968 -0.017952
-0.466955 0.022900 -0.059089
-0.466955 0.048400 -0.062009
-0.466955 -0.018168 0.008972
-0.466955 -0.010220 0.063356
-0.466955 -0.028377 0.078891
-0.466955 -0.031376 0.080351
-0.466955 0.040683 0.033931
-0.466955 0.073679 0.044715
-0.466955 -0.079041 0.023424
-0.466955 -0.071993 0.028976
-0.466955 -0.098268 -0.014388
-0.466955 0.062166 -0.059195
-0.466955 -0.066890 -0.002830
-0.466955 0.087728 0.039328
-0.466955 -0.003379 0.054256
-0.466955 -0.003340 -0.083758
-0.466955 0.030825 0.045616
-0.466955 -0.047884 -0.087283
-0.466955 -0.046212 -0.050324
-0.466955 -0.016374 0.024900
-0.466955 0.030222 -0.069498
-0.466955 0.007165 -0.023387
-0.466955 0.088264 -0.026293
-0.466955 0.027204 0.055352
-0.466955 -0.071409 -0.021128
-0.466955 0.071873 -0.043216
-0.466955 -0.072992 0.048533
-0.466955 0.024421 -0.096526
-0.466955 -0.080317 -0.027338
-0.466955 0.044279 -0.049678
-0.466955 0.016783 0.077619
-0.466955 -0.024633 0.007739
-0.466955 -0.036477 -0.046857
-0.466955 -0.062516 -0.037178
-0.466955 0.040058 -0.062184
-0.466955 -0.034293 0.066042
-0.466955 0.002224 -0.099287
-0.466955 0.080033 0.010860
-0.466955 0.008338 -0.037312
-0.466955 0.020327 -0.019500
-0.466955 -0.099208 -0.006946
-0.466955 -0.021547 -0.006046
-0.466955 -0.090422 0.022664
-0.466955 0.063270 -0.033215
-0.466955 -0.092612 0.012432
-0.466955 0.042054 -0.047301
-0.466955 0.060217 0.036867
-0.466955 -0.037638 0.067282
-0.466955 -0.053402 -0.053458
-0.466955 -0.043958 0.009233
-0.466955 -0.021640 0.061054
-0.466955 0.026693 -0.095828
-0.466955 -0.014003 -0.094687
-0.466955 0.015504 0.001076
-0.466955 0.081520 0.038272
-0.466955 0.057055 -0.078229
-0.466955 -0.056684 -0.005332
-0.466955 0.091278 0.023672
-0.466955 -0.034553 0.012332
-0.466955 0.002720 0.058098
-0.466955 -0.032924 -0.037732
-0.466955 0.061882 -0.004416
-0.466955 -0.068195 -0.031816
-0.466955 0.044582 -0.010291
-0.466955 0.079262 -0.033560
-0.466955 -0.040673 -0.024558
-0.466955 -0.002643 0.039056
-0.466955 0.064163 -0.029664
-0.466955 0.066933 -0.019385
-0.466955 -0.044213 0.036984
-0.466955 0.074350 0.043380
-0.466955 0.057118 0.020093
-0.466955 0.031440 0.002220
-0.466955 -0.007801 0.095680
-0.466955 0.052104 -0.017984
-0.466955 -0.039333 -0.056850
-0.466955 -0.013456 0.099041
-0.466955 0.066275 0.051974
-0.466955 0.054445 -0.023063
-0.466955 -0.022971 0.089759
-0.466955 0.023325 0.045196
-0.466955 -0.045866 -0.078561
-0.466955 0.016611 -0.097477
-0.466955 0.012240 -0.030412
-0.466955 0.065233 0.002637
-0.466955 -0.071406 -0.011806
-0.466955 0.008171 0.017967
-0.466955 0.041453 -0.069546
-0.466955 -0.087403 -0.036595
-0.466955 0.067901 0.031519
-0.466955 -0.040317 -0.023112
-0.466955 -0.027931 -0.071516
-0.466955 0.063370 0.049321
-0.466955 -0.036521 0.045618
-0.466955 0.038959 -0.007751
-0.466955 0.052370 0.052717
-0.466955 -0.021141 0.071571
-0.466955 -0.072108 0.069106
-0.466955 -0.026374 -0.054134
-0.466955 -0.066772 -0.010897
-0.466955 0.034523 -0.030335
-0.466955 -0.075125 -0.032874
-0.466955 -0.038756 -0.025265
-0.466955 -0.065625 -0.029134
-0.466955 -0.042423 0.011052
-0.466955 0.022162 0.082212
-0.466955 0.031239 0.081886
-0.466955 -0.030113 -0.013635
-0.466955 0.075456 0.027829
-0.466955 -0.055348 0.073586
-0.466955 -0.001763 -0.021721
-0.466955 0.096207 0.004639
-0.466955 -0.035592 0.051502
-0.466955 -0.087401 -0.013559
-0.466955 -0.092247 0.018321
-0.466955 -0.018716 -0.019087
-0.466955 0.067075 0.066724
-0.466955 0.032678 0.069828
-0.466955 -0.044456 -0.022717
-0.466955 -0.000896 -0.035635
-0.466955 0.018675 -0.001495
-0.466955 -0.068336 -0.003284
-0.466955 -0.021336 -0.034071
-0.466955 -0.005629 0.034479
-0.466955 0.020872 -0.080672
-0.466955 0.027365 -0.047867
-0.466955 0.049121 -0.023864
-0.466955 0.088655 0.003978
-0.466955 -0.023092 0.002538
-0.466955 -0.088463 0.007836
-0.466955 -0.055448 -0.065333
-0.466955 -0.034736 -0.023050
-0.466955 0.047672 0.049349
-0.466955 -0.075858 -0.060717
-0.466955 -0.045304 0.026835
-0.466955 -0.053892 -0.026234
-0.466955 0.039747 0.072891
-0.466955 0.066074 0.025066
-0.466955 -0.073730 -0.016448
-0.466955 -0.096242 0.016532
-0.466955 0.019131 0.011442
-0.466955 -0.076454 0.050927
-0.466955 0.005758 0.015773
-0.466955 -0.035942 -0.062129
-0.466955 0.029407 -0.065743
-0.466955 -0.029352 0.022066
-0.466955 -0.009653 -0.016038
-0.466955 -0.024175 0.005078
-0.466955 -0.048574 -0.066451
-0.466955 0.075756 0.015819
-0.466955 0.065616 -0.031323
-0.466955 -0.091519 -0.037810
-0.466955 0.006896 0.035024
-0.466955 -0.015550 0.040675
-0.466955 0.025299 -0.037225
-0.466955 0.067401 -0.016070
-0.466955 -0.098209 -0.000608
-0.466955 0.040208 0.039198
-0.466955 -0.019220 -0.014314
-0.466955 -0.005866 -0.054783
-0.466955 -0.003601 0.045917
-0.466955 0.025707 -0.076096
-0.466955 0.063542 0.073051
-0.466955 -0.007074 -0.089276
-0.466955 0.015614 -0.018364
-0.466955 0.012866 0.094384
-0.466955 -0.008960 -0.027861
-0.466955 0.010518 0.067632
-0.466955 -0.012332 -0.027953
-0.466955 -0.090003 -0.035284
-0.466955 0.006571 0.000403
-0.466955 0.033891 -0.035735
-0.466955 -0.051238 0.067657
-0.466955 0.072126 0.024832
-0.466955 0.071308 0.005640
-0.466955 -0.034731 -0.027160
-0.466955 -0.055684 0.009991
-0.466955 0.052683 -0.019782
-0.466955 -0.025102 -0.086767
-0.466955 -0.013825 0.048061
-0.466955 0.045471 0.074655
-0.466955 0.012903 -0.055703
-0.466955 0.053895 -0.056764
-0.466955 -0.075953 -0.048142
-0.466955 -0.006118 -0.015491
-0.466955 0.078828 0.027263
-0.466955 0.074886 -0.015451
-0.466955 -0.058627 -0.062600
-0.466955 -0.008608 0.021688
-0.466955 -0.021831 0.014008
-0.466955 -0.022485 -0.054388
-0.466955 0.006581 0.068002
-0.466955 -0.021098 0.001957
-0.466955 0.033568 -0.066733
-0.466955 0.072658 -0.045346
-0.466955 0.096200 0.026877
-0.466955 0.044628 0.022287
-0.466955 -0.008357 -0.082693
-0.466955 -0.051916 0.084174
-0.466955 0.062444 0.077546
-0.466955 -0.081479 -0.032537
-0.466955 -0.052728 0.027267
-0.466955 0.039721 -0.069134
-0.466955 0.058337 -0.080680
-0.466955 0.070352 -0.036712
-0.466955 0.026565 0.008831
-0.466955 -0.002816 0.069089
-0.466955 -0.094121 -0.017897
-0.466955 -0.030494 0.047960
-0.466955 -0.011867 -0.031595
-0.466955 0.051903 -0.015992
-0.466955 -0.083528 -0.022075
-0.466955 0.005732 0.075931
-0.466955 -0.000444 -0.056196
-0.466955 -0.066014 -0.014210
-0.466955 0.042106 -0.024050
-0.466955 0.028071 0.017444
-0.466955 -0.020219 0.022177
-0.466955 0.040441 -0.056027
-0.466955 0.004400 -0.028796
-0.466955 0.055933 0.004584
-0.466955 0.063619 0.000382
-0.466955 0.016946 -0.064211
-0.466955 -0.095454 0.022184
-0.466955 -0.033975 0.003836
-0.466955 0.059458 0.066049
-0.466955 -0.061451 0.039575
-0.466955 0.059015 0.044116
-0.466955 0.019571 -0.080124
-0.466955 0.094756 0.019105
-0.466955 0.033986 0.056793
-0.466955 -0.099289 0.009413
-0.466955 0.011607 -0.006590
-0.466955 -0.063806 0.018760
-0.466955 0.075547 -0.051208
-0.466955 0.044043 0.044904
-0.466955 0.022599 0.049850
-0.466955 0.010968 0.044608
-0.466955 -0.028980 -0.093313
-0.466955 0.035448 -0.074470
-0.466955 0.034386 0.090443
-0.466955 -0.075116 -0.031465
-0.466955 -0.014676 -0.002152
-0.466955 -0.022063 -0.044465
-0.466955 0.012489 0.065484
-0.466955 -0.019221 0.031954
-0.466955 -0.039324 0.080317
-0.466955 0.083603 -0.000221
-0.466955 0.083095 0.021165
-0.466955 -0.078172 0.059383
-0.466955 0.011002 0.048651
-0.466955 -0.051910 0.051124
-0.466955 -0.059322 0.053220
-0.466955 0.022818 -0.086052
-0.466955 0.006721 -0.037846
-0.466955 -0.095676 -0.017545
-0.466955 0.016061 0.070181
-0.466955 0.082656 -0.024761
-0.466955 0.004734 0.027392
-0.466955 -0.006304 0.067278
-0.466955 -0.017260 -0.040939
-0.466955 -0.076117 -0.017496
-0.466955 0.035646 -0.063311
-0.466955 0.012971 0.006326
-0.466955 -0.013802 0.002006
-0.466955 -0.071925 -0.050303
-0.466955 -0.081741 0.024776
-0.466955 -0.086730 -0.044891
-0.466955 0.004617 -0.010674
-0.466955 -0.083160 -0.000034
-0.466955 0.021321 -0.011279
-0.466955 0.022133 -0.043415
-0.466955 -0.062349 -0.003626
-0.466955 0.073736 -0.004283
-0.466955 -0.009151 0.033267
-0.466955 0.017705 -0.000535
-0.466955 -0.005115 -0.045565
-0.466955 -0.059400 0.044735
-0.466955 0.012957 -0.047830
-0.466955 0.048030 -0.047161
-0.466955 -0.026851 0.025740
-0.466955 -0.062997 -0.039318
-0.466955 -0.083661 -0.041183
-0.466955 -0.021427 -0.083932
-0.466955 -0.071752 0.044117
-0.466955 -0.062995 0.069920
-0.466955 0.055894 0.041136
-0.466955 -0.050174 0.046246
-0.466955 0.009751 0.033409
-0.466955 -0.047559 -0.056754
-0.466955 0.030337 -0.059546
-0.466955 -0.066047 0.046562
-0.466955 -0.017678 0.043971
-0.466955 0.038674 -0.054818
-0.466955 -0.067575 0.011484
-0.466955 0.084790 0.011797
-0.466955 0.007997 -0.089292
-0.466955 0.028024 -0.017050
-0.466955 0.035312 0.054498
-0.466955 0.082470 -0.033900
-0.466955 0.004975 0.006778
-0.466955 -0.028193 0.056178
-0.466955 0.022283 0.062075
-0.466955 -0.092313 0.009797
-0.466955 0.013656 -0.092173
-0.466955 0.083952 0.025003
-0.466955 0.096093 -0.000252
-0.466955 -0.012794 -0.014123
-0.466955 0.058738 -0.004562
-0.466955 0.028580 0.071845
-0.466955 0.039133 0.068563
-0.466955 0.085144 -0.000044
-0.466955 0.028771 -0.004355
-0.466955 0.090651 -0.015951
-0.466955 0.029854 -0.079044
-0.466955 0.085451 -0.019524
-0.466955 0.053311 0.071065
-0.466955 0.097486 0.007987
-0.466955 0.026648 -0.068688
-0.466955 -0.055720 0.020355
-0.466955 -0.045191 -0.012030
-0.466955 -0.014999 -0.091340
-0.466955 0.043587 -0.008944
-0.466955 -0.076206 0.049441
-0.466955 0.037987 -0.077073
-0.466955 -0.064137 -0.040353
-0.466955 0.005033 -0.044651
-0.466955 -0.009780 0.072787
-0.466955 -0.026515 0.017705
-0.466955 -0.002994 0.095496
-0.466955 0.021435 0.019879
-0.466955 0.011552 0.034375
-0.466955 -0.048243 -0.039994
-0.466955 -0.068339 0.057442
-0.466955 0.012655 0.044861
-0.466955 0.054007 0.000079
-0.466955 0.050211 0.005704
-0.466955 -0.075492 -0.002916
-0.466955 -0.057232 0.038002
-0.466955 0.029831 0.079173
-0.466955 0.042323 0.026704
-0.466955 0.011924 0.052670
-0.466955 -0.006809 -0.024810
-0.466955 -0.055089 -0.010840
-0.466955 -0.071958 0.005825
-0.466955 0.049330 0.011221
-0.466955 0.004962 -0.005122
-0.466955 0.038688 -0.065948
-0.466955 0.069942 -0.019034
-0.466955 -0.004711 -0.072284
-0.466955 0.028376 0.073334
-0.466955 -0.057518 -0.026245
-0.466955 -0.002548 0.040622
-0.466955 -0.011909 -0.024957
-0.466955 0.052524 -0.049373
-0.466955 0.068216 -0.050138
-0.466955 -0.007249 -0.083787
-0.466955 -0.025213 0.077705
-0.466955 0.060162 0.049885
-0.466955 0.014798 -0.090480
-0.466955 -0.055631 0.068872
-0.466955 0.006425 -0.009494
-0.466955 -0.030034 -0.030363
-0.466955 0.024177 0.067513
-0.466955 0.064843 -0.039326
-0.466955 0.018726 0.065893
-0.466955 -0.096059 -0.025172
-0.466955 -0.043917 -0.079954
-0.466955 0.092658 -0.027192
-0.466955 -0.057242 -0.066359
-0.466955 -0.049880 0.078126
-0.466955 0.022847 0.088970
-0.466955 -0.041354 0.019707
-0.466955 -0.069652 0.045708
-0.466955 0.008400 -0.056441
-0.466955 -0.010085 0.043078
-0.466955 -0.084690 -0.025464
-0.466955 0.001113 0.008644
-0.466955 0.033862 0.034654
-0.466955 0.064392 0.064999
-0.466955 0.019423 0.039234
-0.466955 0.038511 -0.000987
-0.466955 0.003223 0.086905
-0.466955 -0.080534 -0.001850
-0.466955 -0.074942 0.000150
-0.466955 -0.084905 -0.028595
-0.466955 -0.016183 0.084561
-0.466955 0.039791 -0.033115
-0.466955 -0.034304 -0.052456
-0.466955 -0.025210 0.090167
-0.466955 0.065154 0.067706
-0.466955 -0.004722 -0.092308
-0.466955 0.079913 0.007970
-0.466955 -0.091324 0.033558
-0.466955 -0.009792 -0.014340
-0.466955 0.023658 0.019059
-0.466955 0.066910 -0.032441
-0.466955 -0.000289 -0.013658
-0.466955 -0.076122 -0.055693
-0.466955 -0.025822 -0.058096
-0.466955 0.071513 -0.018892
-0.466955 -0.005286 -0.030956
-0.466955 0.014065 0.041598
-0.466955 -0.025467 -0.042389
-0.466955 -0.060555 0.038538
-0.466955 -0.043700 -0.012650
-0.466955 0.037869 0.028232
-0.466955 0.058056 0.040530
-0.466955 0.016892 -0.074470
-0.466955 -0.020247 -0.083234
-0.466955 0.016670 -0.069715
-0.466955 0.010151 0.008936
-0.466955 0.051016 -0.002084
-0.466955 -0.073829 -0.030824
-0.466955 -0.026513 -0.087424
-0.466955 0.053512 0.084464
-0.466955 0.035977 0.041567
-0.466955 0.092423 0.009485
-0.466955 -0.023801 0.016579
-0.466955 -0.027745 -0.095162
-0.466955 0.007397 0.022542
-0.466955 -0.060595 -0.014831
-0.466955 -0.005715 -0.040825
-0.466955 0.040764 -0.053707
-0.466955 0.048711 0.016820
-0.466955 0.038748 0.025947
-0.466955 -0.066228 -0.055364
-0.466955 0.071050 0.051281
-0.466955 0.072986 0.014164
-0.466955 0.085953 0.024857
-0.466955 -0.063665 0.076505
-0.466955 -0.072593 -0.004309
-0.466955 -0.053981 0.005743
-0.466955 0.022854 -0.068021
-0.466955 0.020288 0.051228
-0.466955 0.000275 -0.028343
-0.466955 0.047290 -0.030341
-0.466955 0.016341 0.075956
-0.466955 0.040079 0.086516
-0.466955 -0.002964 0.010046
-0.466955 0.024228 0.031080
-0.466955 0.017721 0.080442
-0.466955 -0.083337 0.017212
-0.466955 0.025443 0.084871
-0.466955 -0.055885 0.043571
-0.466955 -0.012542 -0.081657
-0.466955 -0.038830 -0.042037
-0.466955 0.028093 0.002008
-0.466955 0.010753 -0.020678
-0.466955 -0.067564 -0.065837
-0.466955 0.098724 0.015664
-0.466955 0.069256 -0.051315
-0.466955 -0.074195 -0.026921
-0.466955 0.003944 0.066462
-0.466955 0.095372 0.001464
-0.466955 0.062375 -0.001030
-0.466955 0.004427 0.055571
-0.466955 -0.085205 -0.026896
-0.466955 0.073973 -0.042881
-0.466955 -0.013797 0.018573
-0.466955 -0.060250 -0.075206
-0.466955 0.006864 0.021215
-0.466955 -0.037299 0.055700
-0.466955 0.046346 -0.063988
-0.466955 -0.024655 -0.039465
-0.466955 0.073111 0.033926
-0.466955 -0.014786 0.031598
-0.466955 0.045535 0.071748
-0.466955 -0.075033 0.054696
-0.466955 0.090887 0.002255
-0.466955 -0.009962 0.023796
-0.466955 -0.026246 -0.068826
-0.466955 -0.056918 0.067635
-0.466955 -0.072310 -0.066466
-0.466955 -0.075520 0.048181
-0.466955 0.077752 -0.015676
-0.466955 0.043972 0.018111
-0.466955 -0.029339 -0.095216
-0.466955 0.073652 -0.014210
-0.466955 0.018244 -0.097132
-0.466955 0.070000 -0.014288
-0.466955 0.043717 0.010989
-0.466955 -0.071150 0.007585
-0.466955 0.002188 -0.092556
-0.466955 -0.067415 0.041496
-0.466955 -0.016924 -0.022903
-0.466955 -0.073095 0.040376
-0.466955 -0.009441 -0.060473
-0.466955 -0.038485 -0.010884
-0.466955 0.035671 -0.003943
-0.466955 -0.092121 0.031314
-0.466955 -0.034922 0.067338
-0.466955 0.095083 -0.013541
-0.466955 -0.077168 0.011397
-0.466955 -0.029966 -0.065865
-0.466955 -0.075504 0.011921
-0.466955 0.022983 0.033634
-0.466955 0.012530 0.047592
-0.466955 0.032622 0.035466
-0.466955 -0.027979 -0.060063
-0.466955 0.049486 -0.068470
-0.466955 0.051922 0.022409
-0.466955 -0.021254 -0.008443
-0.466955 -0.048802 0.004437
-0.466955 0.044523 -0.057483
-0.466955 -0.074436 0.023277
-0.466955 -0.051654 0.072920
-0.466955 0.005705 0.001527
-0.466955 0.029217 0.046125
-0.466955 0.056562 -0.029986
-0.466955 0.048280 -0.031988
-0.466955 0.086454 0.041302
-0.466955 -0.088377 -0.004000
-0.466955 -0.004777 0.094989
-0.466955 -0.033516 0.052818
-0.466955 -0.055635 -0.018381
-0.466955 0.026637 0.059428
-0.466955 0.059457 0.030059
-0.466955 0.086244 -0.049332
-0.466955 -0.065000 -0.022556
-0.466955 0.033502 0.047094
-0.466955 0.001637 0.040916
-0.466955 -0.038183 0.078680
-0.466955 -0.078800 0.057860
-0.466955 0.031132 -0.044349
-0.466955 -0.032186 0.058033
-0.466955 0.037142 -0.019902
-0.466955 -0.023528 -0.015186
-0.466955 -0.039083 0.067362
-0.466955 -0.076536 0.061586
-0.466955 -0.032999 0.065142
-0.466955 -0.059693 0.021032
-0.466955 0.011874 -0.075660
-0.466955 0.055949 -0.017977
-0.466955 -0.011000 -0.079513
-0.466955 -0.037766 0.060501
-0.466955 0.004640 0.086993
-0.466955 0.024499 0.057919
-0.466955 -0.008242 -0.064958
-0.466955 0.051720 -0.006966
-0.466955 0.008584 0.054948
-0.466955 0.068437 0.071959
-0.466955 0.018164 -0.050241
-0.466955 -0.012790 -0.071020
-0.466955 -0.054338 -0.036796
-0.466955 -0.086578 -0.041296
-0.466955 0.009686 -0.058221
-0.466955 -0.077780 -0.059358
-0.466955 0.052088 -0.044753
-0.466955 0.050907 -0.027036
-0.466955 -0.010700 -0.002670
-0.466955 0.015202 -0.021519
-0.466955 0.042870 0.060014
-0.466955 -0.022243 -0.029529
-0.466955 0.027794 0.065205
-0.466955 -0.053864 0.019834
-0.466955 -0.077340 0.041367
-0.466955 -0.081288 0.032814
-0.466955 -0.005753 0.063790
-0.466955 -0.021469 -0.032309
-0.466955 0.012524 0.076005
-0.466955 0.004488 -0.017079
-0.466955 -0.042694 0.060453
-0.466955 -0.040234 -0.067403
-0.466955 -0.042320 0.039266
-0.466955 0.018867 -0.095715
-0.466955 0.030496 0.073946
-0.466955 0.046768 -0.028799
-0.466955 -0.090234 0.032087
-0.466955 -0.049657 0.027708
-0.466955 -0.001550 -0.067768
-0.466955 -0.021914 0.058221
-0.466955 0.011665 -0.084568
-0.466955 -0.043907 0.004823
-0.466955 -0.020404 0.074280
-0.466955 0.076008 -0.049587
-0.466955 -0.053478 -0.045357
-0.466955 -0.078144 0.038405
-0.466955 -0.002713 -0.015475
-0.466955 -0.049723 -0.048762
-0.466955 0.035324 -0.076573
-0.466955 0.040434 -0.063740
-0.466955 -0.054626 -0.000922
-0.466955 -0.051783 0.082302
-0.466955 0.023222 -0.000825
-0.466955 0.006171 0.078950
-0.466955 0.070821 0.026496
-0.466955 -0.054802 -0.081156
-0.466955 0.019083 -0.016773
-0.466955 -0.050043 -0.000104
-0.466955 -0.059560 -0.053107
-0.466955 0.055670 0.042723
-0.466955 0.044090 0.026258
-0.466955 0.063494 -0.006435
-0.466955 -0.077870 0.055056
-0.466955 -0.023154 -0.006412
-0.466955 0.072714 0.046359
-0.466955 -0.013622 -0.054299
-0.466955 -0.086002 -0.021008
-0.466955 -0.017137 -0.074072
-0.466955 0.049841 0.080115
-0.466955 -0.074687 0.064318
-0.466955 -0.045024 -0.016870
-0.466955 0.006105 0.070611
-0.466955 0.091193 -0.034316
-0.466955 0.091958 0.033906
-0.466955 -0.081660 0.031513
-0.466955 0.026864 -0.028003
-0.466955 -0.007478 -0.012915
-0.466955 -0.057413 0.070418
-0.466955 -0.045754 0.000500
-0.466955 -0.063788 0.016453
-0.466955 -0.099234 0.007788
-0.466955 -0.069702 -0.023221
-0.466955 -0.011682 0.042827
-0.466955 0.014263 -0.040804
-0.466955 0.047262 -0.011883
-0.466955 -0.033053 -0.066551
-0.466955 -0.026846 -0.079758
-0.466955 0.046253 0.007221
-0.466955 -0.039621 0.041396
-0.466955 0.063574 -0.017784
-0.466955 -0.083819 -0.045081
-0.466955 -0.009783 -0.058698
-0.466955 0.024428 -0.091564
-0.466955 0.035173 0.038070
-0.466955 0.001248 0.042323
-0.466955 -0.010545 -0.046674
-0.466955 0.025759 0.020918
-0.466955 -0.015899 -0.082236
-0.466955 0.079183 -0.032193
-0.466955 0.083228 -0.052771
-0.466955 0.006350 -0.022208
-0.466955 0.090646 -0.013014
-0.466955 0.094742 0.020706
-0.466955 -0.013115 -0.085833
-0.466955 0.016380 0.097869
-0.466955 -0.001443 -0.071364
-0.466955 -0.015740 -0.093822
-0.466955 -0.049982 0.022828
-0.466955 0.008285 -0.040846
-0.466955 -0.002422 0.073134
-0.466955 -0.006345 -0.042195
-0.466955 0.048877 0.002540
-0.466955 0.061309 0.035771
-0.466955 -0.013353 -0.020183
-0.466955 0.053515 -0.037287
-0.466955 0.021367 -0.094390
-0.466955 0.047778 0.029351
-0.466955 -0.008427 0.010568
-0.466955 0.002957 0.025790
-0.466955 0.070881 0.033901
-0.466955 -0.044813 -0.049718
-0.466955 -0.002485 -0.053686
-0.466955 -0.004042 -0.090451
-0.466955 0.037378 -0.062328
-0.466955 -0.063595 -0.028675
-0.466955 -0.061307 -0.055998
-0.466955 -0.034564 -0.077199
-0.466955 -0.043625 0.002939
-0.466955 0.046333 0.059480
-0.466955 -0.089174 0.030800
-0.466955 0.038477 -0.042350
-0.466955 -0.056884 0.059975
-0.466955 -0.066076 -0.012629
-0.466955 0.070177 -0.062386
-0.466955 0.024981 -0.015871
-0.466955 -0.019735 -0.042698
-0.466955 -0.063741 -0.019201
-0.466955 0.069400 -0.025053
-0.466955 -0.076150 -0.024698
-0.466955 0.042370 -0.085923
-0.466955 -0.013694 0.016998
-0.466955 0.079504 -0.010488
-0.466955 0.061015 -0.030082
-0.466955 0.084223 0.020199
-0.466955 0.036829 -0.066333
-0.466955 -0.046126 -0.048950
-0.466955 -0.003832 0.074612
-0.466955 0.042393 0.033394
-0.466955 -0.038877 -0.044189
-0.466955 -0.077705 0.062419
-0.466955 0.001034 0.094751
-0.466955 0.057543 -0.076866
-0.466955 -0.089730 -0.036849
-0.466955 -0.047151 0.051656
-0.466955 -0.025191 0.012149
-0.466955 0.012412 -0.005172
-0.466955 -0.037420 -0.081679
-0.466955 -0.018218 -0.094036
-0.466955 -0.051500 -0.003578
-0.466955 -0.088028 0.013633
-0.466955 -0.014057 0.097549
-0.466955 0.008164 -0.070413
-0.466955 0.051201 0.064999
-0.466955 0.010227 -0.055307
-0.466955 0.079695 0.037423
-0.466955 -0.043097 -0.058400
-0.466955 0.049262 -0.002043
-0.466955 -0.076257 -0.045164
-0.466955 0.053858 -0.003674
-0.466955 -0.007631 0.049801
-0.466955 0.015631 0.091205
-0.466955 -0.077994 -0.013218
-0.466955 -0.055113 0.030868
-0.466955 0.058546 -0.017945
-0.466955 0.062887 -0.019013
-0.466955 -0.004818 -0.029090
-0.466955 0.083739 -0.039442
-0.466955 0.011557 0.040616
-0.466955 0.010609 0.031957
-0.466955 0.042441 0.071407
-0.466955 0.037707 0.035801
-0.466955 0.063022 0.040457
-0.466955 -0.072039 -0.008334
-0.466955 0.031795 -0.050315
-0.466955 0.050503 0.009375
-0.466955 -0.058138 -0.028557
-0.466955 -0.055989 0.002215
-0.466955 0.027695 0.083053
-0.466955 0.039569 -0.010209
-0.466955 -0.083821 -0.005429
-0.466955 0.007889 -0.045213
-0.466955 0.042562 -0.031088
-0.466955 0.077600 -0.005092
-0.466955 -0.065578 0.072981
-0.466955 0.016631 -0.079766
-0.466955 0.037658 -0.033521
-0.466955 -0.004215 0.023596
-0.466955 0.061938 0.061083
-0.466955 0.015408 0.014460
-0.466955 -0.070717 0.070215
-0.466955 -0.032496 0.075540
-0.466955 0.085515 0.029246
-0.466955 -0.042729 0.081165
-0.466955 0.018712 0.028756
-0.466955 -0.099689 -0.000260
-0.466955 -0.045344 -0.035568
-0.466955 -0.014572 -0.069689
-0.466955 -0.028698 -0.091677
-0.466955 -0.017634 -0.097888
-0.466955 -0.017819 -0.021469
-0.466955 0.024170 -0.082262
-0.466955 -0.037372 -0.043586
-0.466955 0.038235 -0.081819
-0.466955 0.062630 -0.030526
-0.466955 -0.035103 0.006792
-0.466955 0.026375 0.096101
-0.466955 0.009491 -0.093788
-0.466955 0.063283 -0.031725
-0.466955 0.034667 -0.000128
-0.466955 0.020468 0.037944
-0.466955 0.024658 0.072531
-0.466955 0.030319 -0.000571
-0.466955 0.015936 0.068568
-0.466955 0.081984 0.032021
-0.466955 0.054306 0.007865
-0.466955 0.052000 0.010279
-0.466955 -0.076161 0.002880
-0.466955 0.043776 -0.063987
-0.466955 -0.016597 0.079358
-0.466955 0.064771 0.021239
-0.466955 -0.027048 0.052822
-0.466955 0.011523 0.005860
-0.466955 -0.064541 -0.052216
-0.466955 -0.051867 0.015869
-0.466955 0.072137 0.061191
-0.466955 0.063195 -0.003203
-0.466955 0.060695 0.074297
-0.466955 0.034572 -0.069976
-0.466955 0.010234 0.038782
-0.466955 -0.027158 -0.055870
-0.466955 0.004587 0.045024
-0.466955 -0.096222 -0.021950
-0.466955 -0.009977 0.001338
-0.466955 -0.021896 0.020124
-0.466955 -0.055263 0.045571
-0.466955 -0.015417 0.072074
-0.466955 -0.060615 0.035752
-0.466955 -0.018214 -0.032193
-0.466955 -0.026802 0.058470
-0.466955 0.048344 -0.045812
-0.466955 0.059166 0.045634
-0.466955 0.004751 0.004063
-0.466955 -0.060271 -0.001924
-0.466955 -0.038168 -0.073642
-0.466955 0.062779 0.017910
-0.466955 0.079588 0.035790
-0.466955 -0.014828 0.037340
-0.466955 0.075034 0.013654
-0.466955 -0.029862 0.016306
-0.466955 -0.002853 0.071779
-0.466955 0.069302 -0.054525
-0.466955 0.045449 -0.029143
-0.466955 0.081255 -0.036671
-0.466955 0.030643 -0.066419
-0.466955 0.067141 0.065387
-0.466955 -0.054644 -0.021237
-0.466955 0.013289 -0.015967
-0.466955 -0.087114 0.037089
-0.466955 -0.018662 0.010355
-0.466955 -0.066504 -0.040061
-0.466955 0.014263 0.017785
-0.466955 -0.012909 0.030850
-0.466955 0.045006 0.067223
-0.466955 -0.002095 0.094042
-0.466955 0.014477 -0.005061
-0.466955 -0.045382 -0.009480
-0.466955 0.081605 0.004155
-0.466955 -0.032020 -0.047718
-0.466955 -0.009382 -0.017611
-0.466955 -0.046991 0.083752
-0.466955 0.016002 0.054368
-0.466955 0.075965 -0.044159
-0.466955 -0.017253 0.055831
-0.466955 0.025291 0.053852
-0.466955 0.002228 0.038871
-0.466955 0.000097 0.059608
-0.466955 0.019443 0.024939
-0.466955 0.042499 -0.080661
-0.466955 0.036100 0.084821
-0.466955 0.079245 -0.047233
-0.466955 0.001672 -0.079432
-0.466955 0.036784 -0.023815
-0.466955 0.058389 -0.021060
-0.466955 -0.051844 -0.065346
-0.466955 -0.005830 0.089017
-0.466955 -0.003713 -0.012223
-0.466955 -0.032015 -0.003211
-0.466955 0.007888 -0.035514
-0.466955 0.009466 0.040179
-0.466955 0.023291 0.068638
-0.466955 0.053686 -0.006316
-0.466955 0.017953 0.018136
-0.466955 0.037607 0.013686
-0.466955 0.075734 0.060373
-0.466955 -0.030384 0.069000
-0.466955 -0.087987 0.002327
-0.466955 -0.033821 0.051217
-0.466955 0.005392 -0.015698
-0.466955 -0.050553 0.061824
-0.466955 -0.012782 -0.015788
-0.466955 0.043327 0.041553
-0.466955 -0.084039 0.035725
-0.466955 0.052228 -0.030146
-0.466955 0.018221 -0.007684
-0.466955 -0.044462 -0.078397
-0.466955 -0.037123 -0.065131
-0.466955 0.026408 -0.061755
-0.466955 -0.035021 0.068851
-0.466955 0.000195 -0.071907
-0.466955 0.048701 0.084059
-0.466955 0.007402 0.032247
-0.466955 -0.003183 -0.018289
-0.466955 0.050791 -0.018988
-0.466955 0.047959 -0.033727
-0.466955 -0.030287 0.082390
-0.466955 0.025286 0.011646
-0.466955 -0.047835 0.054358
-0.466955 0.010093 -0.059727
-0.466955 0.014075 -0.027930
-0.466955 -0.056075 -0.050048
-0.466955 0.041653 0.012762
-0.466955 0.003747 -0.073500
-0.466955 -0.003686 0.034112
-0.466955 -0.062698 0.035993
-0.466955 -0.002703 0.044617
-0.466955 0.013166 0.088267
-0.466955 -0.026523 0.030738
-0.466955 0.073131 0.023648
-0.466955 -0.015202 -0.023436
-0.466955 -0.044385 -0.086903
-0.466955 -0.018645 0.054599
-0.466955 -0.076105 -0.001079
-0.466955 0.045634 -0.065231
-0.466955 -0.011944 -0.007850
-0.466955 0.005265 0.077375
-0.466955 -0.044360 0.028989
-0.466955 -0.045634 -0.069593
-0.466955 -0.084654 -0.006510
-0.466955 -0.046714 -0.034276
-0.466955 -0.045758 0.021029
-0.466955 0.054368 -0.038720
-0.466955 -0.018510 -0.016210
-0.466955 0.039823 0.036211
-0.466955 0.045475 -0.001535
-0.466955 0.000165 -0.080730
-0.466955 0.056171 0.053696
-0.466955 -0.055080 0.008611
-0.466955 0.091919 0.027171
-0.466955 -0.044782 -0.001529
-0.466955 0.048369 0.062733
-0.466955 0.034152 -0.040442
-0.466955 0.067173 0.025997
-0.466955 -0.049703 -0.056105
-0.466955 0.000433 -0.066629
-0.466955 -0.067029 -0.048736
-0.466955 0.028858 -0.070805
-0.466955 -0.001532 -0.014416
-0.466955 -0.033331 -0.027959
-0.466955 0.084854 0.005733
-0.466955 -0.004438 -0.077159
-0.466955 0.091308 -0.003264
-0.466955 0.057730 -0.005954
-0.466955 0.077623 0.004558
-0.466955 0.022220 0.040728
-0.466955 -0.059600 0.003562
-0.466955 0.061996 0.046649
-0.466955 0.016759 -0.004942
-0.466955 -0.015042 -0.040050
-0.466955 0.042866 0.030295
-0.466955 -0.000325 -0.033843
-0.466955 0.052541 0.064924
-0.466955 0.025572 0.036888
-0.466955 0.041602 0.073003
-0.466955 0.056815 0.082266
-0.466955 0.089039 0.024566
-0.466955 0.033790 -0.003978
-0.466955 -0.018963 0.069600
-0.466955 -0.013380 0.037719
-0.466955 0.032089 0.043953
-0.466955 0.029671 -0.063865
-0.466955 -0.009547 -0.026531
-0.466955 0.030440 -0.072514
-0.466955 0.070222 -0.049793
-0.466955 0.047201 0.083305
-0.466955 -0.011300 0.032318
-0.466955 -0.058302 0.029445
-0.466955 0.004102 -0.006582
-0.466955 0.010584 0.010574
-0.466955 -0.020318 0.095036
-0.466955 -0.013334 -0.064050
-0.466955 -0.032277 -0.079178
-0.466955 0.000818 -0.087649
-0.466955 -0.012428 0.056461
-0.466955 0.020985 0.011415
-0.466955 -0.003819 0.038291
-0.466955 -0.089039 0.003405
-0.466955 -0.025084 0.036282
-0.466955 -0.003620 0.031759
-0.466955 0.076390 -0.031849
-0.466955 -0.013653 0.083448
-0.466955 -0.031319 -0.031594
-0.466955 -0.028986 -0.056608
-0.466955 -0.043650 0.046140
-0.466955 0.003053 -0.067598
-0.466955 -0.031028 0.007112
-0.466955 -0.001671 -0.097970
-0.466955 -0.051462 0.080885
-0.466955 0.020669 -0.069902
-0.466955 0.011428 -0.011036
-0.466955 -0.038339 -0.080518
-0.466955 -0.051253 0.042447
-0.466955 -0.081883 -0.000779
-0.466955 -0.062436 0.005351
-0.466955 0.054897 -0.037324
-0.466955 0.074524 -0.025720
-0.466955 -0.099495 0.004122
-0.466955 -0.009190 0.036613
-0.466955 0.001927 -0.004364
-0.466955 0.035512 -0.002097
-0.466955 0.057535 -0.060977
-0.466955 0.017519 0.069889
-0.466955 -0.042754 -0.074598
-0.466955 0.024527 -0.042084
-0.466955 -0.014847 -0.047348
-0.466955 -0.064042 -0.021027
-0.466955 0.026060 0.069776
-0.466955 -0.003789 -0.002078
-0.466955 0.026163 -0.022955
-0.466955 -0.062149 -0.018914
-0.466955 -0.057725 -0.050942
-0.466955 -0.018866 -0.053469
-0.466955 0.055302 -0.010010
-0.466955 0.028732 -0.055881
-0.466955 -0.021555 0.040435
-0.466955 0.031946 -0.023455
-0.466955 -0.093938 0.012553
-0.466955 -0.015962 0.014324
-0.466955 -0.077106 0.030719
-0.466955 -0.065633 -0.047686
-0.466955 -0.040925 0.001612
-0.466955 0.051301 -0.053134
-0.466955 0.047727 0.015013
-0.466955 0.049382 -0.030811
-0.466955 -0.049972 -0.011605
-0.466955 -0.016536 0.008103
-0.466955 -0.005181 0.073775
-0.466955 -0.091816 -0.029499
-0.466955 0.028765 -0.023346
-0.466955 -0.071362 -0.036446
-0.466955 0.080612 0.000047
-0.466955 0.014136 0.061943
-0.466955 -0.057476 -0.002683
-0.466955 0.017746 -0.059188
-0.466955 -0.006099 0.040787
-0.466955 -0.016236 -0.062875
-0.466955 -0.000588 -0.061618
-0.466955 0.024531 0.088311
-0.466955 -0.002967 -0.093686
-0.466955 -0.071968 0.041334
-0.466955 0.037566 -0.031025
-0.466955 -0.031531 -0.061714
-0.466955 0.044530 0.087848
-0.466955 -0.003724 0.098391
-0.466955 -0.055542 0.016928
-0.466955 0.020786 -0.001372
-0.466955 -0.048008 -0.052628
-0.466955 -0.081927 0.015695
-0.466955 0.022330 -0.047417
-0.466955 -0.035488 -0.005329
-0.466955 0.018798 0.033072
-0.466955 0.007484 0.010893
-0.466955 -0.079281 -0.028247
-0.466955 -0.007672 -0.026588
-0.466955 0.055365 0.059801
-0.466955 0.061066 -0.042559
-0.466955 0.036154 0.035350
-0.466955 -0.022611 0.091691
-0.466955 -0.061835 -0.041604
-0.466955 -0.067888 0.049556
-0.466955 0.076584 0.043133
-0.466955 0.017921 0.010844
-0.466955 -0.002625 0.028752
-0.466955 -0.012239 0.094150
-0.466955 0.033983 0.054960
-0.466955 0.053836 -0.018406
-0.466955 -0.002179 0.099246
-0.466955 -0.076094 -0.038197
-0.466955 0.041142 0.080722
-0.466955 -0.007125 -0.077438
-0.466955 -0.067026 -0.041622
-0.466955 -0.035876 -0.066158
-0.466955 0.027959 0.000423
-0.466955 0.062811 0.071861
-0.466955 -0.040722 0.008277
-0.466955 0.000048 0.007605
-0.466955 0.047982 -0.015348
-0.466955 -0.081838 -0.026108
-0.466955 0.071219 0.046437
-0.466955 -0.078909 0.041233
-0.466955 0.047280 -0.026551
-0.466955 0.074835 -0.061708
-0.466955 -0.020761 0.080863
-0.466955 0.032697 0.025555
-0.466955 -0.040246 -0.050152
-0.466955 0.078298 -0.059174
-0.466955 -0.062791 0.062897
-0.466955 -0.001171 0.056901
-0.466955 -0.042252 0.063558
-0.466955 0.065834 -0.013274
-0.466955 0.073668 0.016716
-0.466955 -0.096620 -0.000261
-0.466955 0.060626 -0.051667
-0.466955 0.026196 -0.002493
-0.466955 0.006619 0.039359
-0.466955 -0.033733 0.071928
-0.466955 0.049737 -0.062592
-0.466955 0.042118 0.087509
-0.466955 -0.002346 0.081065
-0.466955 -0.005942 0.072555
-0.466955 -0.076678 0.060031
-0.466955 -0.059181 -0.003443
-0.466955 0.007860 0.061634
-0.466955 -0.076315 0.063364
-0.466955 0.023341 -0.024068
-0.466955 0.092126 -0.004800
-0.466955 -0.083024 -0.032801
-0.466955 -0.031437 -0.087849
-0.466955 0.053347 -0.014251
-0.466955 -0.062126 0.001497
-0.466955 0.030580 -0.042052
-0.466955 -0.020033 -0.097319
-0.466955 0.039208 -0.021798
-0.466955 0.035086 0.042669
-0.466955 0.038406 -0.069889
-0.466955 0.016006 -0.029748
-0.466955 0.044621 0.069098
-0.466955 0.017779 -0.018361
-0.466955 -0.053168 0.015351
-0.466955 -0.007681 -0.067410
-0.466955 -0.024219 -0.090124
-0.466955 0.038001 0.054071
-0.466955 0.039503 -0.043914
-0.466955 0.039580 0.000813
-0.466955 -0.034309 -0.021210
-0.466955 0.068532 0.006626
-0.466955 0.026446 -0.046512
-0.466955 0.034657 -0.065607
-0.466955 -0.048564 -0.080280
-0.466955 0.000636 -0.001980
-0.466955 0.011866 -0.021541
-0.466955 0.070337 -0.044816
-0.466955 0.072176 -0.013659
-0.466955 0.067580 -0.053649
-0.466955 -0.077923 0.026286
-0.466955 -0.014340 0.077719
-0.466955 0.054429 -0.070111
-0.466955 -0.051012 -0.050322
-0.466955 -0.067359 -0.063887
-0.466955 0.055495 -0.003160
-0.466955 0.028741 -0.013009
-0.466955 0.058488 -0.002658
-0.466955 -0.079890 0.008241
-0.466955 0.053738 0.061743
-0.466955 -0.029240 -0.042420
-0.466955 0.048173 -0.054447
-0.466955 -0.040561 -0.014085
-0.466955 0.065509 0.039118
-0.466955 0.051349 0.031631
-0.466955 -0.014458 -0.057118
-0.466955 0.025787 -0.041484
-0.466955 -0.061329 0.049529
-0.466955 -0.011766 0.039025
-0.466955 0.013722 0.097187
-0.466955 0.045040 0.041365
-0.466955 -0.087742 -0.035019
-0.466955 0.026060 0.013376
-0.466955 -0.037121 -0.020916
-0.466955 -0.057492 0.019604
-0.466955 -0.062675 -0.022147
-0.466955 0.060028 0.001319
-0.466955 -0.043480 0.044226
-0.466955 -0.072468 -0.009856
-0.466955 0.025790 -0.039190
-0.466955 -0.026897 0.062998
-0.466955 -0.027672 0.059970
-0.466955 -0.008641 -0.025105
-0.466955 -0.006170 -0.027409
-0.466955 0.026404 -0.059109
-0.466955 -0.006967 -0.053684
-0.466955 0.033290 -0.085284
-0.466955 -0.050313 -0.021987
-0.466955 -0.029208 0.048904
-0.466955 0.069073 -0.005719
-0.466955 -0.008331 -0.054209
-0.466955 0.003301 -0.095768
-0.466955 -0.042518 0.018380
-0.466955 -0.064810 -0.037042
-0.466955 0.032330 -0.036803
-0.466955 -0.081622 0.028018
-0.466955 -0.005412 -0.047342
-0.466955 -0.001822 -0.006282
-0.466955 0.010821 0.085262
-0.466955 -0.080790 -0.030148
-0.466955 0.092311 -0.031693
-0.466955 -0.019157 -0.047830
-0.466955 -0.010793 0.083207
-0.466955 -0.048176 0.025289
-0.466955 0.067158 -0.057208
-0.466955 0.015843 0.066369
-0.466955 0.080597 -0.040062
-0.466955 -0.059951 0.013133
-0.466955 0.026124 -0.014191
-0.466955 0.000281 -0.058603
-0.466955 0.012949 0.059133
-0.466955 0.061944 -0.038493
-0.466955 0.029744 0.011851
-0.466955 -0.009690 -0.086027
-0.466955 -0.045349 -0.021486
-0.466955 0.032623 0.081298
-0.466955 0.083082 0.013362
-0.466955 0.035376 0.077513
-0.466955 -0.019198 -0.067223
-0.466955 0.030069 -0.080533
-0.466955 0.043287 -0.082310
-0.466955 -0.049761 -0.051946
-0.466955 0.064639 -0.043421
-0.466955 -0.028857 0.072891
-0.466955 -0.029007 -0.054515
-0.466955 -0.015029 -0.034935
-0.466955 -0.095383 -0.005386
-0.466955 0.054984 0.083413
-0.466955 0.004496 -0.054528
-0.466955 0.080065 -0.057097
-0.466955 0.081559 0.020924
-0.466955 -0.002431 0.057405
-0.466955 -0.003821 -0.081134
-0.466955 0.018199 -0.066129
-0.466955 0.060144 -0.066933
-0.466955 0.042381 -0.076964
-0.466955 0.053175 0.048398
-0.466955 0.075540 0.065428
-0.466955 -0.088490 0.032790
-0.466955 -0.092211 -0.023786
-0.466955 0.077039 0.009661
-0.466955 -0.014646 0.035990
-0.466955 0.014356 -0.049572
-0.466955 0.021143 0.049423
-0.466955 -0.079483 -0.009979
-0.466955 0.010017 -0.024670
-0.466955 -0.007460 -0.001039
-0.466955 -0.049543 0.070932
-0.466955 0.026154 0.034253
-0.466955 -0.050236 -0.044883
-0.466955 -0.051487 0.028619
-0.466955 0.028835 0.088836
-0.466955 -0.031684 0.032163
-0.466955 -0.033772 -0.013555
-0.466955 -0.060030 -0.031679
-0.466955 -0.047714 -0.068422
-0.466955 -0.091409 0.003288
-0.466955 -0.050194 0.051942
-0.466955 -0.012353 -0.026352
-0.466955 0.003980 0.095818
-0.466955 0.070780 -0.010837
-0.466955 -0.045325 -0.037544
-0.466955 0.012352 0.056440
-0.466955 0.032052 -0.008744
-0.466955 -0.077492 0.020511
-0.466955 -0.026285 -0.059931
-0.466955 -0.034508 -0.078978
-0.466955 -0.030756 0.064193
-0.466955 -0.071520 0.015102
-0.466955 -0.062448 0.053966
-0.466955 0.050111 -0.008740
-0.466955 -0.063411 0.047959
-0.466955 0.003650 -0.056125
-0.466955 0.068828 0.053527
-0.466955 0.032132 -0.021891
-0.466955 -0.072441 -0.062573
-0.466955 0.054012 0.024740
-0.466955 -0.004717 0.044944
-0.466955 -0.093880 -0.002743
-0.466955 0.094354 0.029816
-0.466955 0.059637 0.009151
-0.466955 0.060277 -0.047964
-0.466955 0.016506 -0.045827
-0.466955 -0.009578 -0.076794
-0.466955 -0.034880 0.038316
-0.466955 0.014027 -0.087017
-0.466955 -0.058397 0.026005
-0.466955 -0.020036 0.066243
-0.466955 -0.012698 -0.066667
-0.466955 -0.014814 -0.045252
-0.466955 0.019254 -0.073261
-0.466955 -0.091843 -0.022289
-0.466955 -0.076526 -0.004587
-0.466955 -0.027283 0.014542
-0.466955 -0.032551 -0.049560
-0.466955 -0.000455 0.088275
-0.466955 -0.013418 0.022956
-0.466955 -0.081929 -0.005854
-0.466955 -0.012480 -0.087209
-0.466955 0.020398 -0.063542
-0.466955 -0.062625 -0.076882
-0.466955 0.081950 -0.042720
-0.466955 0.037934 -0.058433
-0.466955 0.070620 0.063498
-0.466955 -0.036317 0.037501
-0.466955 0.081041 0.047246
-0.466955 -0.043523 -0.085737
-0.466955 0.025634 0.060645
-0.466955 -0.044029 0.082101
-0.466955 0.001320 -0.008114
-0.466955 0.013408 -0.022389
-0.466955 -0.003952 0.076103
-0.466955 0.006946 0.081144
-0.466955 -0.006658 -0.058012
-0.466955 -0.039873 0.033594
-0.466955 0.005509 -0.046234
-0.466955 -0.074724 0.001954
-0.466955 -0.032456 0.078044
-0.466955 -0.082684 0.009581
-0.466955 -0.008722 -0.046355
-0.466955 -0.005777 0.029882
-0.466955 -0.048326 0.072065
-0.466955 -0.081042 0.022052
-0.466955 0.004666 0.053378
-0.466955 0.003944 0.038746
-0.466955 0.073789 -0.041513
-0.466955 0.010436 -0.079546
-0.466955 0.069603 -0.007759
-0.466955 -0.010536 -0.028611
-0.466955 0.032036 -0.005193
-0.466955 -0.004379 0.084004
-0.466955 -0.028745 0.010554
-0.466955 0.027362 -0.045324
-0.466955 -0.040195 -0.008700
-0.466955 0.011063 0.012333
-0.466955 0.082143 0.042350
-0.466955 0.067405 -0.041297
-0.466955 -0.086753 0.008866
-0.466955 0.076004 -0.003964
-0.466955 -0.099072 0.005570
-0.466955 -0.067402 0.047743
-0.466955 0.025017 0.075242
-0.466955 -0.057356 -0.001187
-0.466955 -0.094949 0.009579
-0.466955 0.026231 0.062519
-0.466955 -0.014362 -0.072326
-0.466955 0.015379 0.040579
-0.466955 -0.050334 0.025949
-0.466955 -0.033808 -0.036085
-0.466955 -0.002232 -0.078550
-0.466955 0.060097 0.031347
-0.466955 0.066460 -0.060745
-0.466955 0.061511 0.031259
-0.466955 -0.007382 0.068155
-0.466955 0.040617 0.058970
-0.466955 -0.037236 0.080683
-0.466955 0.005278 -0.072598
-0.466955 0.040918 0.009372
-0.466955 0.089413 -0.040009
-0.466955 0.005259 -0.050639
-0.466955 0.079793 -0.052539
-0.466955 0.008661 -0.015646
-0.466955 0.024475 0.020521
-0.466955 0.008789 0.031670
-0.466955 -0.094963 -0.001350
-0.466955 0.015332 -0.044252
-0.466955 -0.048713 0.061707
-0.466955 0.004489 -0.039848
-0.466955 0.009143 0.048007
-0.466955 0.032700 0.018874
-0.466955 0.012435 0.063697
-0.466955 -0.042153 0.070114
-0.466955 -0.072810 -0.029170
-0.466955 -0.052336 -0.015349
-0.466955 0.034312 0.071333
-0.466955 -0.025262 0.072033
-0.466955 -0.016917 0.058947
-0.466955 0.032636 0.042488
-0.466955 -0.059842 -0.060062
-0.466955 -0.091448 -0.001277
-0.466955 -0.006095 0.096081
