-0.466955 0.019193 -0.031338
-0.466955 -0.054209 0.026590
-0.466955 0.057297 0.075906
-0.466955 -0.058144 -0.025941
-0.466955 -0.028990 -0.082039
-0.466955 0.048182 0.014920
-0.466955 0.042350 -0.031489
-0.466955 -0.045694 -0.036234
-0.466955 0.019010 -0.024069
-0.466955 0.020499 -0.056890
-0.466955 -0.019266 0.030242
-0.466955 -0.030072 0.050027
-0.466955 0.043861 -0.020781
-0.466955 -0.028731 0.088602
-0.466955 -0.034625 0.093522
-0.466955 0.001855 0.024318
-0.466955 0.052488 0.039403
-0.466955 0.096924 -0.023951
-0.466955 0.053183 0.021314
-0.466955 -0.017813 -0.025370
-0.466955 -0.045976 -0.056258
-0.466955 0.075653 0.003760
-0.466955 -0.030158 -0.024417
-0.466955 0.042670 -0.065766
-0.466955 -0.075689 -0.003513
-0.466955 0.066997 0.023379
-0.466955 -0.005926 -0.029060
-0.466955 0.040460 -0.076122
-0.466955 -0.067610 -0.069432
-0.466955 -0.016746 0.007854
-0.466955 0.007845 -0.035234
-0.466955 0.006603 -0.096359
-0.466955 -0.049219 -0.078720
-0.466955 -0.015997 -0.026913
-0.466955 0.042882 0.080458
-0.466955 -0.024941 -0.046907
-0.466955 -0.015146 0.020207
-0.466955 0.046503 -0.050608
-0.466955 -0.041793 -0.081274
-0.466955 0.010589 -0.041979
-0.466955 -0.050926 -0.025487
-0.466955 -0.030422 0.036983
-0.466955 -0.014627 -0.004648
-0.466955 -0.055286 0.043389
-0.466955 0.070814 -0.042304
-0.466955 0.079382 0.003078
-0.466955 0.096010 0.010750
-0.466955 -0.009416 0.093935
-0.466955 -0.060732 -0.058645
-0.466955 -0.018245 -0.037509
-0.466955 0.012083 0.060066
-0.466955 -0.043000 0.070528
-0.466955 -0.093767 -0.021151
-0.466955 0.076555 0.064348
-0.466955 0.001300 0.041397
-0.466955 -0.082023 0.043603
-0.466955 0.007200 -0.018657
-0.466955 -0.028533 0.074760
-0.466955 -0.064829 0.041147
-0.466955 0.037894 0.029921
-0.466955 0.015447 -0.090533
-0.466955 0.004607 0.073287
-0.466955 -0.067261 -0.020847
-0.466955 -0.057890 -0.027648
-0.466955 0.028414 -0.092878
-0.466955 -0.034317 0.002429
-0.466955 0.078909 -0.050493
-0.466955 -0.084301 0.017021
-0.466955 0.033881 0.049418
-0.466955 -0.076200 -0.006133
-0.466955 0.041583 0.068757
-0.466955 -0.081205 0.033959
-0.466955 -0.004697 0.019717
-0.466955 -0.063216 -0.027002
-0.466955 -0.051629 -0.064063
-0.466955 -0.086827 -0.003087
-0.466955 -0.073766 0.056202
-0.466955 0.005769 0.015176
-0.466955 -0.007617 0.070061
-0.466955 0.000961 0.083236
-0.466955 0.056051 0.025859
-0.466955 0.031889 -0.088220
-0.466955 0.049905 0.005218
-0.466955 0.026261 -0.021199
-0.466955 0.091819 0.018824
-0.466955 0.061691 -0.075197
-0.466955 0.036812 0.079205
-0.466955 0.051899 0.065492
-0.466955 -0.059440 -0.023085
-0.466955 0.011140 0.042722
-0.466955 -0.046312 0.088285
-0.466955 0.084966 0.020082
-0.466955 0.071805 0.018841
-0.466955 -0.088726 -0.023654
-0.466955 -0.022661 -0.079809
-0.466955 0.001463 0.074000
-0.466955 -0.080969 -0.004101
-0.466955 0.039967 0.005077
-0.466955 0.081805 0.048098
-0.466955 -0.023422 -0.059817
-0.466955 -0.012728 -0.087188
-0.466955 -0.009198 0.018791
-0.466955 0.068663 -0.030225
-0.466955 0.020010 0.097226
-0.466955 0.065522 -0.040995
-0.466955 0.049749 0.039214
-0.466955 0.017649 -0.030905
-0.466955 0.055417 -0.043419
-0.466955 0.010301 0.018232
-0.466955 0.025797 0.015322
-0.466955 0.041605 0.019351
-0.466955 0.011051 0.068658
-0.466955 -0.069393 -0.033899
-0.466955 -0.068403 -0.028606
-0.466955 0.010849 0.007322
-0.466955 0.059326 -0.059621
-0.466955 0.094457 0.023498
-0.466955 -0.008675 -0.032347
-0.466955 0.066000 0.021225
-0.466955 -0.051089 -0.050178
-0.466955 0.009642 0.047363
-0.466955 -0.020324 -0.078920
-0.466955 -0.019946 0.046747
-0.466955 -0.034370 0.091745
-0.466955 -0.032458 0.037118
-0.466955 -0.089212 0.026706
-0.466955 -0.041348 -0.003446
-0.466955 0.079612 -0.043691
-0.466955 -0.077327 0.050682
-0.466955 0.047248 0.021092
-0.466955 0.084523 -0.008783
-0.466955 0.018770 -0.003487
-0.466955 0.049528 0.047226
-0.466955 -0.016030 -0.079238
-0.466955 0.080307 0.025319
-0.466955 -0.025132 -0.057522
-0.466955 0.076129 0.002286
-0.466955 -0.082617 -0.047025
-0.466955 -0.022682 0.077768
-0.466955 0.055655 -0.000481
-0.466955 0.069673 0.011452
-0.466955 -0.021481 -0.027503
-0.466955 0.088362 -0.017552
-0.466955 0.018979 0.034915
-0.466955 0.002684 0.027478
-0.466955 0.038552 0.061709
-0.466955 -0.021424 0.057394
-0.466955 -0.089884 -0.010741
-0.466955 0.029168 -0.049422
-0.466955 -0.027465 0.026021
-0.466955 -0.079954 0.039193
-0.466955 0.059467 0.060311
-0.466955 -0.099627 -0.003460
-0.466955 -0.076906 0.046860
-0.466955 0.064759 -0.014839
-0.466955 -0.017420 0.048656
-0.466955 0.062528 -0.013160
-0.466955 -0.084607 0.052046
-0.466955 -0.043784 0.060445
-0.466955 0.021750 0.097236
-0.466955 0.080204 0.046155
-0.466955 -0.032759 0.094022
-0.466955 -0.024887 0.056308
-0.466955 -0.020049 -0.024606
-0.466955 -0.060621 0.061440
-0.466955 -0.022963 0.004527
-0.466955 0.079821 -0.022214
-0.466955 -0.055573 -0.061651
-0.466955 0.033650 0.036678
-0.466955 0.058583 -0.065163
-0.466955 -0.024937 -0.040010
-0.466955 -0.032157 -0.004202
-0.466955 0.072088 -0.044572
-0.466955 -0.026277 -0.075037
-0.466955 -0.070999 0.009765
-0.466955 0.026218 -0.060244
-0.466955 0.017403 0.095976
-0.466955 -0.026146 0.084625
-0.466955 0.020046 -0.005257
-0.466955 -0.042238 -0.042588
-0.466955 0.011372 -0.096420
-0.466955 0.018690 0.096657
-0.466955 -0.003334 -0.007645
-0.466955 -0.061592 0.062976
-0.466955 0.018050 -0.038839
-0.466955 -0.018266 -0.015081
-0.466955 0.042281 0.035755
-0.466955 0.070595 0.042019
-0.466955 0.013208 0.034456
-0.466955 0.061458 -0.077305
-0.466955 -0.011667 0.028709
-0.466955 0.046343 0.015201
-0.466955 -0.026609 -0.022945
-0.466955 0.028007 -0.007028
-0.466955 0.028433 -0.010617
-0.466955 -0.090892 0.018515
-0.466955 -0.065882 -0.035452
-0.466955 -0.005398 -0.007621
-0.466955 0.011900 0.000723
-0.466955 0.087987 -0.014393
-0.466955 -0.008234 -0.046498
-0.466955 0.025839 -0.058830
-0.466955 -0.053621 0.056900
-0.466955 -0.046761 -0.063276
-0.466955 0.038194 0.026970
-0.466955 -0.069292 -0.032053
-0.466955 0.011673 0.049612
-0.466955 -0.053196 0.077861
-0.466955 -0.000373 0.038273
-0.466955 -0.003093 0.071234
-0.466955 -0.099108 -0.005527
-0.466955 0.019006 0.040363
-0.466955 0.049914 0.065137
-0.466955 -0.065519 -0.022860
-0.466955 0.097386 0.011394
-0.466955 -0.022608 0.042447
-0.466955 -0.019252 0.036194
-0.466955 0.069312 0.016393
-0.466955 0.001337 0.025742
-0.466955 -0.072718 0.009800
-0.466955 -0.074534 -0.010918
-0.466955 0.024963 0.021245
-0.466955 -0.054881 0.077225
-0.466955 0.082451 0.022791
-0.466955 0.092467 -0.030406
-0.466955 0.083253 0.051363
-0.466955 0.091555 -0.004979
-0.466955 -0.015547 -0.089705
-0.466955 -0.079641 0.020125
-0.466955 -0.034641 0.023749
-0.466955 0.024440 -0.059551
-0.466955 -0.084801 -0.004674
-0.466955 -0.007586 0.072198
-0.466955 0.018058 0.066689
-0.466955 -0.027376 -0.057678
-0.466955 0.022053 0.089798
-0.466955 0.054598 0.037208
-0.466955 -0.021925 -0.011063
-0.466955 0.009493 -0.057170
-0.466955 0.068019 -0.003598
-0.466955 0.003129 0.001369
-0.466955 0.017642 0.098324
-0.466955 -0.044737 0.037781
-0.466955 0.074784 -0.052194
-0.466955 -0.054171 -0.007777
-0.466955 -0.013559 -0.051266
-0.466955 -0.087992 0.002606
-0.466955 -0.087445 -0.022875
-0.466955 -0.059392 0.028372
-0.466955 0.027938 -0.045580
-0.466955 -0.037424 -0.064043
-0.466955 -0.023622 0.079241
-0.466955 -0.030174 -0.085769
-0.466955 0.061216 0.052134
-0.466955 0.068008 0.018957
-0.466955 -0.020169 -0.000469
-0.466955 -0.070658 0.004654
-0.466955 0.013401 -0.003109
-0.466955 -0.016555 0.065138
-0.466955 -0.026456 0.007244
-0.466955 0.020487 0.011381
-0.466955 0.020003 0.039274
-0.466955 0.016408 0.063349
-0.466955 0.020636 0.002821
-0.466955 0.010031 -0.087853
-0.466955 0.036742 -0.070569
-0.466955 0.081260 -0.034925
-0.466955 0.005306 -0.076763
-0.466955 -0.065206 0.069242
-0.466955 -0.010375 0.088489
-0.466955 -0.078441 0.025749
-0.466955 0.064941 0.034376
-0.466955 -0.059190 -0.028496
-0.466955 0.009090 -0.093134
-0.466955 -0.055575 -0.019131
-0.466955 0.010626 0.014677
-0.466955 -0.017672 -0.027967
-0.466955 0.070791 -0.046843
-0.466955 -0.014527 0.096820
-0.466955 -0.067629 0.038344
-0.466955 -0.091115 -0.029890
-0.466955 -0.092798 -0.010928
-0.466955 0.047809 -0.001265
-0.466955 0.018482 -0.071932
-0.466955 0.049772 -0.001099
-0.466955 -0.070973 0.006673
-0.466955 0.071082 0.060525
-0.466955 -0.010792 0.022676
-0.466955 -0.058412 -0.010734
-0.466955 -0.036058 -0.045839
-0.466955 -0.067014 0.025520
-0.466955 0.049591 0.016678
-0.466955 -0.007322 0.032714
-0.466955 0.052106 0.048476
-0.466955 -0.041901 0.022132
-0.466955 0.018588 0.088182
-0.466955 -0.090054 0.031883
-0.466955 -0.033750 -0.040162
-0.466955 -0.036556 -0.049277
-0.466955 0.014138 0.046767
-0.466955 -0.003174 0.099141
-0.466955 0.042916 0.084943
-0.466955 -0.009906 -0.058574
-0.466955 0.081907 0.038295
-0.466955 -0.064556 -0.054660
-0.466955 0.025180 -0.001501
-0.466955 -0.032913 0.043347
-0.466955 0.080085 -0.054423
-0.466955 -0.029022 0.006158
-0.466955 -0.023780 -0.074058
-0.466955 -0.019666 -0.084795
-0.466955 0.019590 0.072743
-0.466955 0.007102 0.006159
-0.466955 0.084625 -0.023488
-0.466955 -0.006330 0.018037
-0.466955 -0.005808 -0.068738
-0.466955 0.056037 0.015617
-0.466955 -0.051282 0.054547
-0.466955 -0.035002 -0.024535
-0.466955 -0.069674 -0.000177
-0.466955 0.041686 -0.009757
-0.466955 0.014800 -0.077241
-0.466955 0.066055 0.055700
-0.466955 -0.028184 0.072872
-0.466955 0.078364 0.035581
-0.466955 0.055546 0.027237
-0.466955 -0.013676 0.016323
-0.466955 0.042608 0.054396
-0.466955 -0.048387 0.067067
-0.466955 0.041954 -0.042120
-0.466955 -0.091683 0.031395
-0.466955 -0.022444 -0.085970
-0.466955 0.051083 -0.006758
-0.466955 0.047798 0.075446
-0.466955 0.037454 -0.038256
-0.466955 -0.031960 -0.067373
-0.466955 -0.082804 -0.012211
-0.466955 0.022009 -0.057790
-0.466955 -0.034052 0.008517
-0.466955 -0.010633 -0.034148
-0.466955 -0.045563 -0.005579
-0.466955 0.007330 0.056441
-0.466955 -0.025572 0.096209
-0.466955 -0.079059 0.010326
-0.466955 0.030611 -0.073917
-0.466955 0.063277 -0.019891
-0.466955 0.033388 0.004286
-0.466955 -0.035765 -0.072480
-0.466955 0.037063 -0.006586
-0.466955 0.028571 -0.071155
-0.466955 -0.068154 -0.045356
-0.466955 -0.019003 -0.096866
-0.466955 0.007218 0.014428
-0.466955 0.005422 -0.042781
-0.466955 0.063935 0.026567
-0.466955 -0.098057 0.016235
-0.466955 -0.044770 -0.066502
-0.466955 0.009483 -0.002382
-0.466955 -0.012037 -0.023929
-0.466955 0.042203 0.070183
-0.466955 -0.012254 -0.091766
-0.466955 -0.032345 -0.012410
-0.466955 0.035201 0.043999
-0.466955 0.013868 0.094364
-0.466955 0.019553 -0.037345
-0.466955 -0.045185 0.043445
-0.466955 0.014559 0.005790
-0.466955 0.023510 0.056020
-0.466955 0.062189 0.061176
-0.466955 0.062459 -0.015520
-0.466955 -0.011539 -0.044644
-0.466955 0.042478 0.046465
-0.466955 -0.022750 0.000601
-0.466955 0.028913 -0.084101
-0.466955 -0.048811 0.021205
-0.466955 -0.005834 -0.075625
-0.466955 0.003735 -0.091856
-0.466955 -0.060925 0.036906
-0.466955 0.043002 0.071462
-0.466955 -0.007436 -0.095933
-0.466955 0.014476 0.069128
-0.466955 0.019334 -0.008924
-0.466955 0.002716 0.065889
-0.466955 -0.034180 -0.051568
-0.466955 0.028352 0.059835
-0.466955 0.056711 0.060780
-0.466955 -0.007907 -0.092336
-0.466955 0.039232 0.066250
-0.466955 -0.056662 -0.070561
-0.466955 0.034155 0.023542
-0.466955 0.033489 0.009268
-0.466955 -0.035241 0.082427
-0.466955 0.072171 0.058875
-0.466955 -0.017482 -0.077991
-0.466955 0.052809 0.036613
-0.466955 -0.051671 -0.002933
-0.466955 -0.025286 -0.088719
-0.466955 -0.064742 -0.000683
-0.466955 0.006273 -0.082013
-0.466955 0.002677 0.052888
-0.466955 0.049946 0.030904
-0.466955 -0.029696 0.018624
-0.466955 0.094385 -0.032463
-0.466955 -0.087586 0.017421
-0.466955 0.073843 -0.049404
-0.466955 -0.058169 0.023916
-0.466955 -0.011123 0.066656
-0.466955 0.070149 -0.045031
-0.466955 0.038704 -0.062904
-0.466955 0.025692 0.031682
-0.466955 0.012405 -0.085222
-0.466955 -0.076626 0.038283
-0.466955 -0.004169 0.004606
-0.466955 0.025041 0.070718
-0.466955 -0.012824 -0.079258
-0.466955 -0.053850 -0.071385
-0.466955 0.092743 -0.016060
-0.466955 -0.070439 0.052154
-0.466955 0.079428 -0.058617
-0.466955 -0.058744 0.043789
-0.466955 -0.054888 0.027896
-0.466955 -0.074024 0.053301
-0.466955 0.010879 -0.084201
-0.466955 0.004175 0.082649
-0.466955 0.018927 -0.068323
-0.466955 0.079040 0.017777
-0.466955 -0.093717 -0.009478
-0.466955 -0.090847 0.000331
-0.466955 0.029637 0.028706
-0.466955 0.078457 0.052150
-0.466955 -0.018587 0.020877
-0.466955 -0.022301 0.010339
-0.466955 -0.067970 0.003833
-0.466955 0.065114 0.044409
-0.466955 0.013056 -0.091484
-0.466955 -0.034410 0.086181
-0.466955 -0.018541 -0.044210
-0.466955 0.052578 -0.007662
-0.466955 0.080951 0.054050
-0.466955 -0.022951 0.060350
-0.466955 0.054948 0.047840
-0.466955 -0.079580 -0.025834
-0.466955 0.045340 -0.063134
-0.466955 -0.056936 0.005993
-0.466955 -0.048235 0.069130
-0.466955 0.025830 -0.029363
-0.466955 -0.006269 -0.050231
-0.466955 0.085148 0.039756
-0.466955 0.020599 0.084500
-0.466955 0.009420 0.004279
-0.466955 0.064178 -0.053175
-0.466955 -0.094248 0.031019
-0.466955 0.002223 -0.006607
-0.466955 0.072523 0.017183
-0.466955 0.027938 -0.042343
-0.466955 -0.031429 -0.015160
-0.466955 0.028531 0.090888
-0.466955 -0.041289 0.038648
-0.466955 -0.067852 -0.012344
-0.466955 0.021198 0.074721
-0.466955 -0.049982 0.078453
-0.466955 0.041086 -0.059760
-0.466955 0.050194 -0.086029
-0.466955 0.084239 0.011761
-0.466955 0.002845 0.082842
-0.466955 -0.074135 -0.027024
-0.466955 -0.044168 0.067459
-0.466955 -0.048883 0.087189
-0.466955 -0.025416 0.034864
-0.466955 0.096598 -0.001773
-0.466955 0.005714 0.047660
-0.466955 0.064123 0.062879
-0.466955 0.051524 0.022008
-0.466955 -0.091289 0.008507
-0.466955 -0.038741 0.074675
-0.466955 -0.036448 0.066391
-0.466955 -0.006061 -0.047517
-0.466955 -0.052337 0.033384
-0.466955 -0.070936 0.034781
-0.466955 0.078861 0.040995
-0.466955 0.014787 0.037730
-0.466955 -0.026878 -0.095723
-0.466955 -0.017115 -0.047462
-0.466955 0.040245 0.053752
-0.466955 0.074097 0.006811
-0.466955 0.008587 0.042710
-0.466955 0.079804 0.029474
-0.466955 0.044555 0.009089
-0.466955 -0.056675 -0.036314
-0.466955 0.078317 -0.008949
-0.466955 0.036822 0.016792
-0.466955 0.023304 0.066289
-0.466955 -0.050789 -0.067710
-0.466955 -0.067197 0.013918
-0.466955 0.001017 0.049217
-0.466955 -0.086231 0.045329
-0.466955 0.074792 -0.022639
-0.466955 -0.038712 -0.077703
-0.466955 0.038102 -0.073429
-0.466955 -0.022930 0.065214
-0.466955 -0.038178 -0.036815
-0.466955 -0.024264 0.080632
-0.466955 0.048678 0.037802
-0.466955 0.016637 -0.000626
-0.466955 0.042218 -0.053275
-0.466955 0.006342 0.055176
-0.466955 0.020770 0.089041
-0.466955 -0.038150 0.030333
-0.466955 -0.098197 0.009138
-0.466955 -0.068653 0.046102
-0.466955 0.032047 0.001495
-0.466955 -0.038331 -0.028000
-0.466955 -0.050010 -0.082910
-0.466955 0.013092 0.049874
-0.466955 0.046453 -0.026999
-0.466955 0.011533 -0.047933
-0.466955 -0.008121 -0.037705
-0.466955 -0.017036 -0.041501
-0.466955 -0.095005 -0.006019
-0.466955 -0.058118 -0.042449
-0.466955 -0.027830 -0.069171
-0.466955 -0.021890 -0.044636
-0.466955 -0.039764 -0.000873
-0.466955 0.088662 -0.030976
-0.466955 0.076542 0.000587
-0.466955 -0.051455 0.083957
-0.466955 0.072027 -0.048403
-0.466955 -0.067498 0.023443
-0.466955 0.080008 -0.027947
-0.466955 -0.078858 -0.041754
-0.466955 0.009508 0.027043
-0.466955 -0.056673 0.000836
-0.466955 0.041327 -0.044559
-0.466955 0.074722 -0.004617
-0.466955 -0.043444 -0.085454
-0.466955 0.009126 0.041362
-0.466955 0.064173 -0.051353
-0.466955 0.060936 -0.011992
-0.466955 0.052549 -0.061744
-0.466955 -0.037366 0.014449
-0.466955 -0.008584 -0.005714
-0.466955 0.039064 -0.061064
-0.466955 -0.014700 -0.079322
-0.466955 0.066946 -0.073978
-0.466955 0.006550 0.068274
-0.466955 -0.051931 -0.040250
-0.466955 0.051716 -0.021333
-0.466955 -0.001608 -0.004957
-0.466955 -0.058448 0.001099
-0.466955 0.020085 0.065364
-0.466955 -0.015167 -0.035785
-0.466955 -0.034442 -0.076298
-0.466955 0.082545 0.019921
-0.466955 -0.055488 0.049990
-0.466955 0.014277 -0.052409
-0.466955 -0.012042 -0.066611
-0.466955 0.012559 0.004837
-0.466955 -0.066197 0.038317
-0.466955 0.032340 -0.023700
-0.466955 0.082958 0.014545
-0.466955 0.059737 0.008180
-0.466955 0.031033 0.056720
-0.466955 -0.042592 -0.012728
-0.466955 0.016740 -0.072850
-0.466955 0.030903 0.046576
-0.466955 -0.021205 -0.018302
-0.466955 0.094663 -0.021162
-0.466955 0.049623 -0.025361
-0.466955 0.047219 0.028278
-0.466955 -0.016156 -0.095583
-0.466955 -0.068344 0.012335
-0.466955 -0.041755 0.020815
-0.466955 0.057853 -0.015239
-0.466955 -0.021693 -0.020421
-0.466955 -0.003458 -0.064166
-0.466955 0.043542 0.037396
-0.466955 -0.050688 0.023416
-0.466955 -0.019680 -0.034096
-0.466955 0.066538 -0.047525
-0.466955 0.004313 0.061897
-0.466955 -0.034359 0.010069
-0.466955 -0.045087 -0.033920
-0.466955 -0.055918 -0.048924
-0.466955 0.056192 -0.019822
-0.466955 0.033727 -0.056046
-0.466955 -0.039669 0.088566
-0.466955 -0.020489 -0.051816
-0.466955 -0.018782 -0.074867
-0.466955 -0.038627 -0.050577
-0.466955 0.074657 -0.050787
-0.466955 0.081720 0.057570
-0.466955 -0.081918 0.056940
-0.466955 -0.022758 -0.035229
-0.466955 -0.034160 -0.022291
-0.466955 -0.064196 0.056943
-0.466955 0.073131 0.034595
-0.466955 -0.022297 0.026691
-0.466955 0.018387 -0.047638
-0.466955 -0.071484 -0.046900
-0.466955 0.067144 0.045417
-0.466955 -0.048283 0.071028
-0.466955 -0.016768 0.063050
-0.466955 -0.027509 0.064711
-0.466955 -0.036409 0.013072
-0.466955 0.015730 0.072304
-0.466955 -0.059143 0.061725
-0.466955 -0.055405 -0.004853
-0.466955 -0.033841 -0.056347
-0.466955 -0.024717 -0.080738
-0.466955 0.088602 0.033634
-0.466955 0.052064 0.017011
-0.466955 0.055048 -0.046051
-0.466955 0.095221 0.025317
-0.466955 0.020432 0.012926
-0.466955 -0.002606 0.028868
-0.466955 0.029992 0.038690
-0.466955 0.074113 0.024281
-0.466955 -0.007055 0.078345
-0.466955 -0.050510 -0.030452
-0.466955 0.035420 -0.088286
-0.466955 0.056941 0.009318
-0.466955 -0.042451 -0.019526
-0.466955 -0.088446 -0.012316
-0.466955 -0.034143 -0.086877
-0.466955 -0.059859 -0.010166
-0.466955 -0.031811 -0.058063
-0.466955 0.046677 0.024964
-0.466955 -0.035615 0.017998
-0.466955 0.019193 0.085511
-0.466955 -0.011628 0.085763
-0.466955 -0.084395 0.024231
-0.466955 -0.070648 -0.052169
-0.466955 -0.071781 -0.032129
-0.466955 0.035242 0.052014
-0.466955 -0.046835 0.084811
-0.466955 -0.039925 0.012897
-0.466955 0.042145 0.077112
-0.466955 -0.049967 -0.003156
-0.466955 0.036594 0.043702
-0.466955 -0.002753 -0.077633
-0.466955 -0.005306 0.086562
-0.466955 0.037908 -0.036933
-0.466955 0.007138 0.073116
-0.466955 -0.052907 0.076031
-0.466955 -0.001415 0.006838
-0.466955 -0.009910 -0.089106
-0.466955 0.077925 0.044359
-0.466955 -0.007823 -0.069150
-0.466955 0.061969 -0.021708
-0.466955 -0.083780 -0.006161
-0.466955 0.028955 0.081118
-0.466955 -0.038407 -0.059585
-0.466955 -0.013786 0.070516
-0.466955 -0.099200 -0.001003
-0.466955 -0.069857 -0.019899
-0.466955 -0.040465 -0.031234
-0.466955 0.032936 -0.075412
-0.466955 -0.035721 0.001964
-0.466955 -0.038472 -0.029700
-0.466955 -0.052720 -0.022986
-0.466955 0.030300 0.047870
-0.466955 0.021261 0.008756
-0.466955 -0.015369 -0.094023
-0.466955 0.080992 -0.012545
-0.466955 -0.063493 -0.011824
-0.466955 -0.047423 0.056371
-0.466955 -0.055913 0.065594
-0.466955 0.039094 0.091270
-0.466955 0.030903 0.059778
-0.466955 -0.048051 0.074917
-0.466955 0.023055 -0.026507
-0.466955 0.052853 -0.060008
-0.466955 -0.007103 -0.006553
-0.466955 0.013187 -0.081937
-0.466955 0.018015 0.038348
-0.466955 0.093701 0.026823
-0.466955 -0.066794 0.057974
-0.466955 -0.015925 -0.018961
-0.466955 -0.071824 0.024349
-0.466955 0.062549 0.025598
-0.466955 -0.019007 0.091330
-0.466955 -0.008449 0.077417
-0.466955 0.015103 -0.056965
-0.466955 -0.079758 0.029310
-0.466955 0.007776 -0.053213
-0.466955 -0.043618 0.015193
-0.466955 0.022905 0.086436
-0.466955 0.001481 -0.096192
-0.466955 -0.003327 0.044813
-0.466955 0.078802 -0.042621
-0.466955 0.085215 0.049120
-0.466955 0.074452 0.066695
-0.466955 -0.043904 0.017530
-0.466955 -0.006771 0.039963
-0.466955 -0.032942 -0.010794
-0.466955 0.075569 0.005820
-0.466955 -0.050668 -0.026843
-0.466955 0.008897 -0.032599
-0.466955 -0.050643 -0.033373
-0.466955 0.028539 0.022615
-0.466955 -0.035205 0.077719
-0.466955 -0.076468 -0.010097
-0.466955 -0.007333 -0.034109
-0.466955 0.077570 0.059492
-0.466955 0.009035 0.050445
-0.466955 0.028323 0.087940
-0.466955 -0.090526 0.019916
-0.466955 -0.030862 -0.040011
-0.466955 -0.057499 -0.011963
-0.466955 0.035450 -0.060470
-0.466955 0.068253 0.024426
-0.466955 0.022864 0.062520
-0.466955 -0.002990 -0.003389
-0.466955 0.033475 0.000949
-0.466955 -0.080208 0.013400
-0.466955 -0.045184 0.015422
-0.466955 -0.069321 0.059102
-0.466955 -0.092096 0.021739
-0.466955 -0.044874 -0.031398
-0.466955 0.067002 -0.016886
-0.466955 0.065656 0.025744
-0.466955 -0.051017 0.002136
-0.466955 -0.065565 0.042768
-0.466955 -0.038627 -0.075330
-0.466955 0.002286 0.091349
-0.466955 0.091669 -0.010545
-0.466955 0.014919 -0.011139
-0.466955 -0.039378 0.041804
-0.466955 0.018019 0.074042
-0.466955 -0.027717 -0.067567
-0.466955 -0.018571 0.060498
-0.466955 0.048239 -0.083421
-0.466955 0.016363 0.023983
-0.466955 -0.051024 -0.004663
-0.466955 -0.002236 0.057662
-0.466955 0.064949 -0.035555
-0.466955 0.050924 -0.045407
-0.466955 0.000484 0.018229
-0.466955 -0.069203 -0.007074
-0.466955 0.056759 -0.033598
-0.466955 -0.019842 0.061827
-0.466955 -0.009299 0.000736
-0.466955 0.017755 -0.023025
-0.466955 0.065082 0.032761
-0.466955 -0.056107 -0.045875
-0.466955 0.098469 0.002800
-0.466955 -0.034143 0.061255
-0.466955 -0.023030 -0.017593
-0.466955 -0.023708 -0.020746
-0.466955 -0.070520 0.054396
-0.466955 0.001650 0.034384
-0.466955 0.066759 -0.064935
-0.466955 -0.036164 0.092915
-0.466955 0.062390 -0.073596
-0.466955 -0.039808 0.024832
-0.466955 -0.036773 0.037195
-0.466955 -0.053117 0.061924
-0.466955 -0.069529 0.053123
-0.466955 -0.055869 0.051920
-0.466955 0.081415 -0.032557
-0.466955 -0.001892 -0.075993
-0.466955 0.024634 0.006328
-0.466955 -0.008381 -0.010214
-0.466955 -0.095184 0.001939
-0.466955 -0.033658 0.056092
-0.466955 0.035984 -0.031556
-0.466955 0.077742 0.010039
-0.466955 0.030165 -0.035436
-0.466955 0.012763 -0.077354
-0.466955 0.033852 0.052695
-0.466955 0.048610 -0.081966
-0.466955 0.047465 0.073139
-0.466955 -0.013825 -0.012641
-0.466955 -0.065512 0.000747
-0.466955 0.046802 0.053305
-0.466955 -0.063587 0.060875
-0.466955 0.076414 0.043460
-0.466955 0.012515 0.035850
-0.466955 -0.045303 0.068953
-0.466955 0.015034 -0.072299
-0.466955 0.010992 0.026407
-0.466955 -0.083387 0.046719
-0.466955 -0.040376 -0.057184
-0.466955 0.058463 0.030159
-0.466955 -0.016254 -0.020753
-0.466955 -0.043221 0.079785
-0.466955 -0.004046 0.001368
-0.466955 0.019787 -0.044494
-0.466955 0.031482 -0.016481
-0.466955 0.013972 -0.017919
-0.466955 -0.017275 -0.018471
-0.466955 0.021424 0.039831
-0.466955 0.058119 0.028628
-0.466955 -0.058418 -0.080744
-0.466955 0.017210 0.004660
-0.466955 -0.057574 0.052363
-0.466955 -0.090160 -0.042181
-0.466955 0.032382 -0.019061
-0.466955 0.051296 -0.072481
-0.466955 0.032156 0.032296
-0.466955 0.039271 -0.013741
-0.466955 -0.047585 0.004243
-0.466955 0.081878 0.036192
-0.466955 0.000438 -0.081549
-0.466955 -0.009976 0.044331
-0.466955 0.001806 0.076236
-0.466955 0.043522 -0.077834
-0.466955 0.081068 -0.014783
-0.466955 -0.053195 -0.078669
-0.466955 -0.055117 0.017131
-0.466955 0.023259 -0.072762
-0.466955 0.028777 0.025989
-0.466955 -0.086182 0.035802
-0.466955 -0.010147 -0.075759
-0.466955 0.076475 0.010689
-0.466955 -0.051211 -0.031866
-0.466955 0.070871 -0.013088
-0.466955 -0.090752 -0.040078
-0.466955 -0.024258 0.053388
-0.466955 -0.026369 -0.063982
-0.466955 -0.029611 0.062096
-0.466955 0.005214 0.019858
-0.466955 -0.047157 -0.058674
-0.466955 -0.046504 0.053524
-0.466955 -0.044169 -0.020428
-0.466955 -0.091835 -0.023420
-0.466955 -0.085063 -0.032675
-0.466955 -0.011739 -0.040385
-0.466955 -0.077981 -0.010787
-0.466955 -0.004033 -0.062102
-0.466955 -0.012601 -0.038858
-0.466955 0.088236 0.023062
-0.466955 -0.023085 -0.053502
-0.466955 -0.087747 0.046569
-0.466955 -0.034881 -0.050196
-0.466955 -0.052412 -0.020540
-0.466955 0.069149 -0.035485
-0.466955 -0.035604 -0.023215
-0.466955 -0.041508 0.068122
-0.466955 0.018642 0.010503
-0.466955 -0.031127 0.085145
-0.466955 0.018301 0.070105
-0.466955 0.023275 -0.042577
-0.466955 0.053158 0.024887
-0.466955 0.012217 0.024567
-0.466955 -0.047154 0.000787
-0.466955 -0.055544 0.071861
-0.466955 0.097309 -0.020018
-0.466955 -0.071842 0.018241
-0.466955 -0.000927 0.034310
-0.466955 0.026677 -0.037842
-0.466955 -0.079191 0.031681
-0.466955 0.001646 0.046181
-0.466955 0.018389 -0.020961
-0.466955 0.087549 0.006135
-0.466955 0.045559 -0.055626
-0.466955 -0.014567 -0.018926
-0.466955 -0.055723 0.040821
-0.466955 0.062733 -0.052937
-0.466955 -0.008836 0.027115
-0.466955 0.089136 -0.024549
-0.466955 0.040328 0.057096
-0.466955 -0.031965 0.033311
-0.466955 0.082331 -0.047874
-0.466955 0.070705 -0.033975
-0.466955 0.045651 0.012295
-0.466955 0.042558 -0.051695
-0.466955 0.031847 0.013754
-0.466955 0.087751 0.013076
-0.466955 -0.053500 -0.032296
-0.466955 0.010566 0.094634
-0.466955 -0.070569 0.014221
-0.466955 0.067907 0.063309
-0.466955 0.021291 -0.070788
-0.466955 0.032367 0.040369
-0.466955 -0.024970 0.082240
-0.466955 -0.028593 -0.072087
-0.466955 0.048299 -0.054870
-0.466955 -0.082768 0.033290
-0.466955 -0.078397 -0.012288
-0.466955 0.071869 0.011223
-0.466955 -0.048743 0.079086
-0.466955 -0.060662 -0.013802
-0.466955 -0.012758 -0.067838
-0.466955 -0.039640 -0.013650
-0.466955 -0.077092 -0.000998
-0.466955 0.023586 0.083870
-0.466955 -0.072571 -0.042662
-0.466955 -0.049118 0.046615
-0.466955 0.072135 -0.042753
-0.466955 0.006126 0.096232
-0.466955 -0.033393 0.058973
-0.466955 0.056877 0.044102
-0.466955 0.074621 0.028966
-0.466955 0.062517 0.073001
-0.466955 0.048649 0.074359
-0.466955 0.087804 -0.011501
-0.466955 -0.003634 0.027687
-0.466955 0.033484 0.055037
-0.466955 -0.001834 0.045316
-0.466955 -0.040510 -0.033357
-0.466955 -0.009073 0.020862
-0.466955 0.067766 0.008076
-0.466955 0.040506 -0.046949
-0.466955 -0.002135 -0.085914
-0.466955 0.050376 0.061408
-0.466955 0.070615 0.027749
-0.466955 0.059343 -0.028233
-0.466955 0.008927 -0.020002
-0.466955 0.047777 -0.049544
-0.466955 0.029980 -0.027084
-0.466955 -0.044377 -0.041175
-0.466955 -0.003853 -0.099004
-0.466955 -0.000970 -0.044122
-0.466955 0.041008 0.003875
-0.466955 -0.017449 0.084344
-0.466955 0.042844 -0.059816
-0.466955 0.079151 0.026525
-0.466955 0.039873 0.050989
-0.466955 -0.029689 0.059918
-0.466955 0.038701 -0.022456
-0.466955 -0.018335 -0.079398
-0.466955 -0.055696 -0.044023
-0.466955 -0.068431 0.001235
-0.466955 -0.094638 -0.001649
-0.466955 -0.088895 -0.021982
-0.466955 0.041475 0.002329
-0.466955 -0.051624 0.008615
-0.466955 0.084826 -0.040896
-0.466955 -0.051276 0.074429
-0.466955 -0.012446 -0.070476
-0.466955 -0.093635 -0.005509
-0.466955 -0.070613 -0.049117
-0.466955 -0.052558 0.058300
-0.466955 0.025611 -0.012934
-0.466955 0.056947 0.001968
-0.466955 -0.041993 0.072748
-0.466955 0.030719 0.040352
-0.466955 -0.080229 0.057642
-0.466955 0.020068 -0.012135
-0.466955 0.064491 0.049232
-0.466955 -0.083810 -0.015881
-0.466955 0.062591 0.057039
-0.466955 0.003910 0.084128
-0.466955 -0.086571 -0.004518
-0.466955 -0.027991 0.029105
-0.466955 -0.056814 0.078644
-0.466955 0.073851 -0.021400
-0.466955 0.033608 0.061488
-0.466955 -0.069348 -0.012513
-0.466955 -0.006779 -0.004895
-0.466955 0.021837 -0.027936
-0.466955 -0.077619 0.006002
-0.466955 -0.049708 0.054018
-0.466955 0.070806 0.039305
-0.466955 0.050962 -0.069926
-0.466955 -0.028816 -0.004674
-0.466955 0.004363 0.027622
-0.466955 0.092547 0.000382
-0.466955 0.040907 -0.034793
-0.466955 0.046282 0.030743
-0.466955 -0.004628 -0.053855
-0.466955 0.064264 0.014811
-0.466955 -0.096443 -0.009446
-0.466955 0.066010 -0.002754
-0.466955 -0.042842 -0.089433
-0.466955 -0.060264 0.072602
-0.466955 -0.062510 0.035815
-0.466955 -0.038907 0.014004
-0.466955 0.040359 0.030869
-0.466955 0.080690 0.030724
-0.466955 0.083828 -0.037818
-0.466955 0.062122 -0.045261
-0.466955 0.003643 0.060643
-0.466955 0.040226 -0.029860
-0.466955 0.034854 -0.075025
-0.466955 0.057237 0.055202
-0.466955 -0.023034 -0.023138
-0.466955 0.035523 -0.055339
-0.466955 0.014419 -0.091931
-0.466955 -0.025961 0.000041
-0.466955 0.035171 0.079128
-0.466955 0.057837 0.032188
-0.466955 0.018607 0.022276
-0.466955 -0.048311 0.051900
-0.466955 -0.042971 -0.050120
-0.466955 -0.062360 -0.072349
-0.466955 -0.096332 0.020751
-0.466955 -0.008713 0.088634
-0.466955 0.028800 -0.022775
-0.466955 -0.037518 -0.019056
-0.466955 -0.060477 -0.007612
-0.466955 0.035506 0.087036
-0.466955 -0.018125 -0.035804
-0.466955 -0.071542 0.031615
-0.466955 0.007594 -0.066008
-0.466955 0.025723 -0.071366
-0.466955 0.003139 0.098105
-0.466955 -0.020746 -0.097107
-0.466955 0.062879 0.053262
-0.466955 0.013392 0.025936
-0.466955 -0.030801 -0.012536
-0.466955 0.005281 0.016647
-0.466955 0.026667 0.048175
-0.466955 0.011794 -0.008594
-0.466955 -0.003929 0.017605
-0.466955 0.020731 -0.068013
-0.466955 0.011066 0.089632
-0.466955 0.053423 0.071573
-0.466955 -0.020402 0.032326
-0.466955 0.088579 -0.044380
-0.466955 -0.073532 0.014870
-0.466955 0.060390 0.014551
-0.466955 0.021368 0.038256
-0.466955 -0.013935 0.045547
-0.466955 0.009297 0.090485
-0.466955 -0.051411 -0.044248
-0.466955 0.022080 0.002337
-0.466955 0.039299 0.001839
-0.466955 0.043283 -0.028382
-0.466955 -0.037673 0.059867
-0.466955 -0.044188 0.071539
-0.466955 0.028216 -0.029644
-0.466955 0.065603 0.035853
-0.466955 -0.002709 -0.053437
-0.466955 -0.024548 0.039842
-0.466955 0.035769 -0.073168
-0.466955 0.030837 0.091821
-0.466955 -0.002531 0.017541
-0.466955 0.036405 -0.040948
-0.466955 -0.028189 0.055986
-0.466955 -0.058385 0.047700
-0.466955 0.014573 -0.022796
-0.466955 -0.015334 0.072080
-0.466955 -0.044755 0.040979
-0.466955 -0.081736 -0.020556
-0.466955 -0.001240 0.037140
-0.466955 -0.014292 -0.067458
-0.466955 -0.039384 -0.039687
-0.466955 0.021035 0.073060
-0.466955 0.067012 0.029465
-0.466955 0.085208 0.001433
-0.466955 -0.046926 -0.000817
-0.466955 0.010070 0.010123
-0.466955 -0.030955 -0.052538
-0.466955 0.038227 -0.008359
-0.466955 -0.052804 0.065821
-0.466955 -0.049109 -0.000547
-0.466955 0.034248 -0.065526
-0.466955 -0.043413 0.030251
-0.466955 -0.085192 -0.006268
-0.466955 -0.031183 -0.042561
-0.466955 -0.065978 0.072015
-0.466955 0.080991 0.032550
-0.466955 0.059481 -0.026050
-0.466955 -0.075884 -0.023034
-0.466955 0.015999 0.082544
-0.466955 -0.016987 -0.080462
-0.466955 -0.088398 -0.028517
-0.466955 -0.007568 0.046348
-0.466955 0.063203 0.029583
-0.466955 0.090578 0.030525
-0.466955 0.042538 0.049118
-0.466955 0.078690 0.004898
-0.466955 -0.010801 -0.013122
-0.466955 0.080356 -0.038445
-0.466955 0.047207 -0.067098
-0.466955 0.013186 -0.007475
-0.466955 -0.036267 -0.000787
-0.466955 -0.036608 0.000938
-0.466955 -0.003841 -0.052253
-0.466955 0.006769 0.066089
-0.466955 0.097119 -0.000149
-0.466955 0.016340 0.036695
-0.466955 -0.033032 -0.073148
-0.466955 -0.086519 0.030719
-0.466955 0.022659 0.029979
-0.466955 -0.093319 -0.024206
-0.466955 -0.092938 -0.016627
-0.466955 -0.052371 -0.065435
-0.466955 0.019078 -0.017351
-0.466955 0.052184 -0.019148
-0.466955 0.091939 0.024742
-0.466955 0.035557 0.042436
-0.466955 0.080164 -0.048701
-0.466955 -0.067457 -0.051070
-0.466955 0.017409 0.029254
-0.466955 -0.089850 -0.013765
-0.466955 -0.010251 0.091886
-0.466955 0.033270 0.047846
-0.466955 0.041080 -0.001639
-0.466955 -0.009522 -0.053024
-0.466955 0.022045 -0.059445
-0.466955 -0.037261 -0.072341
-0.466955 -0.010386 -0.021065
-0.466955 -0.080986 -0.043554
-0.466955 0.038660 -0.057907
-0.466955 -0.088877 -0.007800
-0.466955 0.010029 -0.067519
-0.466955 -0.049158 -0.040324
-0.466955 0.003520 0.024592
-0.466955 0.041098 0.012699
-0.466955 0.034487 0.080705
-0.466955 -0.065216 -0.053087
-0.466955 0.028349 -0.014246
-0.466955 0.025186 0.082451
-0.466955 -0.052033 -0.028375
-0.466955 0.095520 0.026917
-0.466955 -0.016528 0.001352
-0.466955 0.004948 -0.084826
-0.466955 -0.040305 0.080246
-0.466955 0.059534 -0.011352
-0.466955 -0.018687 0.042638
-0.466955 -0.048918 -0.056423
-0.466955 0.066161 0.005929
-0.466955 0.051826 -0.027485
-0.466955 -0.025496 0.071757
-0.466955 -0.063567 -0.042343
-0.466955 0.005773 0.093472
-0.466955 0.032164 0.011453
-0.466955 -0.077204 -0.021206
-0.466955 0.000054 -0.025935
-0.466955 -0.065491 0.020830
-0.466955 0.016741 -0.043530
-0.466955 0.016261 0.059840
-0.466955 -0.051612 0.062975
-0.466955 -0.062590 -0.045305
-0.466955 -0.066891 -0.060747
-0.466955 0.063613 -0.028302
-0.466955 0.074836 0.011041
-0.466955 -0.018862 0.039203
-0.466955 -0.067797 0.047976
-0.466955 0.022774 0.045457
-0.466955 0.054274 -0.001158
-0.466955 0.030276 -0.032850
-0.466955 0.027562 0.055123
-0.466955 0.024168 0.063697
-0.466955 0.071981 0.009571
-0.466955 0.033880 -0.019296
-0.466955 -0.005186 0.016680
-0.466955 0.026495 0.072544
-0.466955 0.041939 -0.064269
-0.466955 -0.046833 -0.048476
-0.466955 0.006854 0.028914
-0.466955 0.052153 -0.074065
-0.466955 -0.098693 0.005746
-0.466955 -0.007581 0.008034
-0.466955 -0.040980 0.056006
-0.466955 0.032186 -0.073407
-0.466955 -0.012030 -0.082815
-0.466955 -0.050651 -0.001677
-0.466955 -0.079019 0.041148
-0.466955 0.091063 -0.000496
-0.466955 -0.021375 -0.025825
-0.466955 -0.068064 -0.059263
-0.466955 0.069790 0.045364
-0.466955 0.036427 0.090944
-0.466955 0.067609 0.059256
-0.466955 -0.015781 -0.068955
-0.466955 -0.018598 -0.054223
-0.466955 -0.011329 0.078150
-0.466955 -0.034725 -0.012181
-0.466955 0.022332 -0.073961
-0.466955 0.000307 -0.042750
-0.466955 -0.071774 0.053695
-0.466955 -0.074641 -0.048315
-0.466955 0.067759 0.041770
-0.466955 0.044909 0.029927
-0.466955 0.086240 -0.029575
-0.466955 0.022376 0.027380
-0.466955 0.085505 0.028812
-0.466955 -0.021142 -0.064352
-0.466955 -0.021174 0.047588
-0.466955 -0.021762 -0.022364
-0.466955 -0.058960 -0.068815
-0.466955 -0.031300 0.043074
-0.466955 -0.065166 -0.045729
-0.466955 -0.046128 -0.017767
-0.466955 0.004164 0.057046
-0.466955 0.001698 -0.061810
-0.466955 0.032824 -0.044783
-0.466955 -0.050131 -0.021355
-0.466955 -0.082627 -0.049012
-0.466955 -0.026143 -0.069465
-0.466955 -0.012507 0.076094
-0.466955 0.028762 0.015280
-0.466955 0.040353 -0.038065
-0.466955 -0.051359 -0.059155
-0.466955 0.012146 0.056906
-0.466955 0.065078 -0.070972
-0.466955 0.064315 -0.031972
-0.466955 0.059342 -0.031922
-0.466955 0.012750 -0.024470
-0.466955 0.060219 -0.033394
-0.466955 0.013391 -0.057905
-0.466955 0.001893 -0.043253
-0.466955 -0.062416 0.000228
-0.466955 -0.047287 0.047839
-0.466955 0.022467 0.058019
-0.466955 0.066131 -0.072046
-0.466955 0.011357 -0.024715
-0.466955 0.028658 0.066560
-0.466955 0.088885 0.045707
-0.466955 -0.061123 0.002870
-0.466955 -0.009901 -0.048005
-0.466955 -0.092576 -0.001182
-0.466955 0.007836 0.071652
-0.466955 -0.065337 -0.048624
-0.466955 -0.013462 -0.014230
-0.466955 -0.022549 -0.065655
-0.466955 -0.078168 -0.049325
-0.466955 -0.006087 -0.010367
-0.466955 0.054999 -0.006437
-0.466955 0.040374 -0.003578
-0.466955 0.020723 0.035271
-0.466955 -0.033434 -0.049482
-0.466955 -0.001199 -0.042672
-0.466955 -0.008585 -0.075713
-0.466955 -0.049465 -0.036365
-0.466955 -0.087368 0.040728
-0.466955 -0.001026 0.077952
-0.466955 -0.084195 -0.047223
-0.466955 0.082398 -0.006632
-0.466955 -0.001838 0.089908
-0.466955 0.029502 -0.057778
-0.466955 -0.021565 0.097060
-0.466955 -0.036078 0.086007
-0.466955 -0.007532 0.075382
-0.466955 0.000715 0.022226
-0.466955 -0.050124 0.066842
-0.466955 0.039542 0.012045
-0.466955 -0.001705 0.050367
-0.466955 -0.008622 -0.044966
-0.466955 0.078830 0.061360
-0.466955 0.059575 0.052615
-0.466955 -0.040310 -0.025077
-0.466955 0.067688 0.056069
-0.466955 -0.002897 0.091497
-0.466955 0.047315 0.036775
-0.466955 0.058796 0.015021
-0.466955 0.064168 -0.049016
-0.466955 0.068453 0.032017
-0.466955 0.011249 -0.016093
-0.466955 -0.054566 -0.052693
-0.466955 0.029050 -0.020554
-0.466955 0.059664 0.003455
-0.466955 0.005174 0.072009
-0.466955 -0.015871 -0.003369
-0.466955 0.074280 0.052319
-0.466955 -0.018379 -0.076362
-0.466955 -0.074786 -0.033682
-0.466955 -0.068294 0.033247
-0.466955 -0.057761 0.061114
-0.466955 0.077977 0.042658
-0.466955 0.092159 -0.020776
-0.466955 0.028967 0.079304
-0.466955 -0.007719 0.063114
-0.466955 -0.037220 0.007689
-0.466955 -0.016594 -0.009636
-0.466955 0.028281 0.027674
-0.466955 -0.017833 -0.071723
-0.466955 0.045921 -0.061138
-0.466955 -0.062818 -0.076846
-0.466955 -0.061775 0.048538
-0.466955 0.036688 0.084451
-0.466955 0.011845 0.075273
-0.466955 -0.091654 0.004790
-0.466955 0.007564 0.030836
-0.466955 0.034369 -0.000406
-0.466955 -0.036778 0.074575
-0.466955 -0.028978 0.058049
-0.466955 -0.084345 -0.042533
-0.466955 0.031374 -0.079693
-0.466955 -0.080557 -0.058414
-0.466955 0.040815 -0.085154
-0.466955 0.071074 0.051176
-0.466955 0.001621 -0.074039
-0.466955 -0.046369 0.031928
-0.466955 -0.015337 -0.010686
-0.466955 0.002621 0.086117
-0.466955 -0.053647 0.020720
-0.466955 0.047563 -0.028433
-0.466955 0.072938 0.051625
-0.466955 -0.000756 0.049231
-0.466955 -0.023283 0.020684
-0.466955 0.061201 -0.026003
-0.466955 0.028822 0.010512
-0.466955 0.087461 0.026801
-0.466955 -0.023230 -0.015989
-0.466955 -0.033078 -0.074833
-0.466955 0.056280 0.039994
-0.466955 0.013228 0.010278
-0.466955 -0.002043 0.042166
-0.466955 -0.049756 -0.057598
-0.466955 -0.003940 0.085569
-0.466955 -0.006365 0.029568
-0.466955 0.091348 0.040217
-0.466955 -0.019341 -0.052508
-0.466955 0.088451 -0.012944
-0.466955 0.049501 -0.012421
-0.466955 -0.080975 0.051000
-0.466955 0.024527 -0.016184
-0.466955 -0.039378 0.048889
-0.466955 0.006965 0.035758
-0.466955 -0.033726 0.069572
-0.466955 0.046725 0.070329
-0.466955 -0.004753 -0.076660
-0.466955 -0.046842 -0.013562
-0.466955 -0.013615 0.088177
-0.466955 0.043346 0.064598
-0.466955 -0.004763 0.044371
-0.466955 0.060688 0.067535
-0.466955 0.080139 -0.041311
-0.466955 0.044185 -0.037978
-0.466955 -0.021808 -0.078057
-0.466955 0.069407 0.055724
-0.466955 -0.051798 -0.035807
-0.466955 0.003171 0.075095
-0.466955 0.012127 -0.064896
-0.466955 -0.027513 -0.055504
-0.466955 0.052359 0.069910
-0.466955 0.011280 -0.010980
-0.466955 0.033709 -0.022888
-0.466955 0.064980 -0.062857
-0.466955 0.036186 0.005166
-0.466955 0.040609 0.049557
-0.466955 -0.085458 0.050686
-0.466955 0.043826 -0.010121
-0.466955 -0.010265 -0.038379
-0.466955 -0.085265 -0.019503
-0.466955 0.066360 -0.006345
-0.466955 -0.009267 -0.093161
-0.466955 -0.088075 0.036628
-0.466955 -0.097076 0.010486
-0.466955 -0.065638 0.002476
-0.466955 -0.059139 -0.035781
-0.466955 0.038527 0.016556
-0.466955 0.045461 0.061926
-0.466955 -0.028965 -0.056576
-0.466955 0.026943 -0.089421
-0.466955 0.070493 -0.008794
-0.466955 0.008182 0.084912
-0.466955 -0.069056 0.017726
-0.466955 0.083296 0.055306
-0.466955 0.018108 -0.054464
-0.466955 -0.089760 0.033652
-0.466955 0.018453 0.068388
-0.466955 0.019542 -0.032915
-0.466955 0.035110 -0.002500
-0.466955 0.008986 -0.012278
-0.466955 0.044728 -0.057029
-0.466955 0.067761 0.067242
-0.466955 -0.062568 -0.019719
-0.466955 -0.034176 -0.083858
-0.466955 0.073316 -0.040645
-0.466955 -0.036935 0.032891
-0.466955 0.064362 0.000011
-0.466955 0.043461 -0.036768
-0.466955 0.070674 -0.058865
-0.466955 -0.035825 -0.073988
-0.466955 0.048509 0.057821
-0.466955 -0.067372 -0.014537
-0.466955 0.016633 0.087857
-0.466955 -0.014492 0.056688
-0.466955 -0.086865 0.029281
-0.466955 0.003451 -0.090427
-0.466955 0.014564 0.028287
-0.466955 0.058950 0.023858
-0.466955 0.029251 0.083941
-0.466955 -0.085154 -0.024875
-0.466955 0.068103 -0.057260
-0.466955 0.083730 -0.003689
-0.466955 0.010702 0.052664
-0.466955 -0.080777 -0.023460
-0.466955 0.037199 -0.072136
-0.466955 -0.069714 0.032307
-0.466955 0.051655 -0.009239
-0.466955 0.057938 0.020543
-0.466955 0.000477 -0.060327
-0.466955 0.039709 -0.042589
-0.466955 0.003623 -0.015140
-0.466955 0.023350 -0.019550
-0.466955 0.043584 0.069301
-0.466955 -0.040187 0.070543
-0.466955 0.027184 -0.074653
-0.466955 -0.091602 -0.002298
-0.466955 0.015697 -0.019178
-0.466955 -0.072055 0.015124
-0.466955 -0.063392 -0.018507
-0.466955 0.037485 -0.015135
-0.466955 0.031135 -0.066340
-0.466955 0.029072 -0.019037
-0.466955 0.020651 -0.016536
-0.466955 -0.070912 -0.043612
-0.466955 0.011758 -0.043192
-0.466955 -0.030081 -0.072676
-0.466955 0.032964 0.026650
-0.466955 -0.020863 0.071689
-0.466955 -0.046339 -0.049878
-0.466955 0.035727 0.061774
-0.466955 -0.049190 0.083115
-0.466955 -0.072981 -0.033446
-0.466955 -0.049144 -0.019883
-0.466955 0.017629 0.061129
-0.466955 -0.023640 -0.000991
-0.466955 0.024749 -0.091133
-0.466955 0.063974 -0.054813
-0.466955 -0.011366 -0.035693
-0.466955 -0.006820 0.031382
-0.466955 -0.050053 -0.045102
-0.466955 -0.040237 -0.090367
-0.466955 -0.008292 0.052587
-0.466955 -0.089033 0.016848
-0.466955 -0.066034 0.019340
-0.466955 0.051903 -0.079049
-0.466955 0.027769 -0.086491
-0.466955 0.020415 -0.058640
-0.466955 -0.032581 -0.046678
-0.466955 -0.072197 0.055335
-0.466955 0.001700 0.004905
-0.466955 -0.020182 -0.022845
-0.466955 -0.058808 0.022286
-0.466955 0.016735 -0.036632
-0.466955 -0.006404 -0.037327
-0.466955 0.027443 -0.088024
-0.466955 0.023621 -0.004005
-0.466955 -0.048497 0.057976
-0.466955 -0.093692 0.008667
-0.466955 0.019097 0.018397
-0.466955 0.023503 0.077727
-0.466955 0.077515 -0.055155
-0.466955 -0.040322 -0.044651
-0.466955 0.035047 -0.052351
-0.466955 -0.009696 0.078905
-0.466955 -0.053151 -0.045592
-0.466955 0.035597 0.007355
-0.466955 0.082781 -0.012747
-0.466955 -0.020345 -0.076198
-0.466955 0.015145 0.091563
-0.466955 0.045974 0.056006
-0.466955 0.029110 -0.051070
-0.466955 0.057812 -0.031092
-0.466955 -0.033235 -0.009264
-0.466955 -0.022176 -0.029215
-0.466955 0.049355 0.044145
-0.466955 -0.002805 -0.044777
-0.466955 0.012361 0.027093
-0.466955 0.058969 -0.078040
-0.466955 -0.024181 -0.083809
-0.466955 -0.052811 0.002004
-0.466955 0.082499 0.010011
-0.466955 -0.080949 0.005296
-0.466955 -0.015178 -0.040770
-0.466955 0.005460 -0.018536
-0.466955 0.043406 0.015229
-0.466955 0.022377 -0.075721
-0.466955 -0.084793 -0.044122
-0.466955 -0.023269 0.051425
-0.466955 -0.082814 -0.045530
-0.466955 -0.041227 0.077545
-0.466955 0.070980 -0.039804
-0.466955 0.073681 0.055604
-0.466955 0.007403 -0.080220
-0.466955 -0.067918 -0.061895
-0.466955 0.068125 -0.010523
-0.466955 -0.030839 0.051474
-0.466955 0.010818 0.001703
-0.466955 -0.068019 0.031814
-0.466955 0.030815 0.077086
-0.466955 0.082572 0.053785
-0.466955 -0.035603 0.084013
-0.466955 0.021729 0.065047
-0.466955 0.032410 -0.091141
-0.466955 -0.092603 0.036050
-0.466955 0.027238 -0.081900
-0.466955 -0.021068 -0.071728
-0.466955 0.064635 0.001660
-0.466955 -0.048454 -0.050859
-0.466955 -0.037087 -0.084856
-0.466955 -0.049704 0.069771
-0.466955 -0.028135 0.071270
-0.466955 -0.086640 -0.024234
-0.466955 0.041990 0.016114
-0.466955 0.097758 0.004377
-0.466955 0.056114 0.066861
-0.466955 0.060882 -0.042376
-0.466955 -0.026601 -0.089065
-0.466955 0.080912 0.007274
-0.466955 0.020835 -0.060592
-0.466955 0.003954 -0.020376
-0.466955 0.069632 0.064812
-0.466955 0.026135 0.001223
-0.466955 0.010315 -0.032766
-0.466955 -0.089592 0.010073
-0.466955 0.044391 -0.069083
-0.466955 0.085074 -0.015311
-0.466955 0.021827 -0.084733
-0.466955 -0.042882 -0.029047
-0.466955 0.050714 0.086230
-0.466955 0.012159 -0.079040
-0.466955 -0.042029 -0.037886
-0.466955 -0.055049 0.011831
-0.466955 -0.053738 0.035199
-0.466955 -0.084387 -0.023507
-0.466955 0.022354 -0.066063
-0.466955 0.067179 0.034761
-0.466955 -0.053712 -0.019482
-0.466955 -0.037613 0.056017
-0.466955 -0.024628 0.084488
-0.466955 0.063803 0.045319
-0.466955 0.061927 0.042988
-0.466955 0.018975 -0.064693
-0.466955 0.045228 -0.030311
-0.466955 -0.046655 0.082472
-0.466955 -0.027403 -0.081175
-0.466955 -0.078594 -0.003083
-0.466955 -0.024512 -0.071844
-0.466955 0.005941 0.008412
-0.466955 0.081672 0.015369
-0.466955 0.070653 0.063157
-0.466955 0.030028 0.082238
-0.466955 -0.061243 -0.021523
-0.466955 0.019251 0.048745
-0.466955 -0.028903 0.020987
-0.466955 -0.017655 0.090074
-0.466955 0.026058 -0.031659
-0.466955 -0.068892 -0.001412
-0.466955 0.023863 -0.093860
-0.466955 0.077141 -0.034957
-0.466955 -0.035426 -0.007059
-0.466955 -0.085908 0.039780
-0.466955 -0.007103 -0.048759
-0.466955 -0.016954 -0.090529
-0.466955 0.035961 -0.013907
-0.466955 0.073342 -0.051808
-0.466955 0.072086 -0.062275
-0.466955 0.029065 -0.028304
-0.466955 0.041769 0.005825
-0.466955 -0.025222 0.005470
-0.466955 0.022788 -0.071392
-0.466955 0.094255 -0.007267
-0.466955 0.052058 0.052106
-0.466955 -0.075389 0.012163
-0.466955 -0.042253 -0.057644
-0.466955 0.065852 -0.067212
-0.466955 -0.026242 -0.008754
-0.466955 -0.063557 0.021880
-0.466955 -0.002038 0.046998
-0.466955 -0.043796 -0.080003
-0.466955 -0.063041 0.062922
-0.466955 0.056566 -0.006517
-0.466955 -0.031778 0.010164
-0.466955 0.038903 0.054311
-0.466955 0.041130 -0.039430
-0.466955 0.085567 0.027071
-0.466955 0.018780 0.071472
-0.466955 -0.008577 0.044732
-0.466955 -0.048561 0.081879
-0.466955 -0.051301 -0.008678
-0.466955 0.060221 0.071909
-0.466955 -0.017228 -0.003636
-0.466955 0.006206 0.030222
-0.466955 0.036893 0.034074
-0.466955 -0.071151 -0.003072
-0.466955 0.070190 -0.006119
-0.466955 0.052392 -0.045688
-0.466955 0.027279 0.004918
-0.466955 -0.048546 0.031109
-0.466955 -0.043968 -0.061650
-0.466955 0.070760 -0.060452
-0.466955 0.029947 0.031242
-0.466955 0.032997 -0.001900
-0.466955 0.037069 -0.054765
-0.466955 -0.019317 0.043929
-0.466955 -0.016063 -0.023409
-0.466955 0.055906 0.020117
-0.466955 0.057600 -0.072539
-0.466955 0.043237 -0.026882
-0.466955 0.048490 -0.026425
-0.466955 0.003251 0.039536
-0.466955 -0.022968 -0.068344
-0.466955 0.004854 0.024022
-0.466955 -0.074622 -0.043281
-0.466955 -0.093117 0.017660
-0.466955 0.049882 0.068771
-0.466955 0.045691 -0.034455
-0.466955 0.061199 -0.049879
-0.466955 -0.034305 0.025519
-0.466955 0.016723 -0.010677
-0.466955 -0.021647 -0.081248
-0.466955 0.007104 0.060063
-0.466955 -0.005338 0.038649
-0.466955 0.067368 0.054404
-0.466955 -0.018632 -0.023763
-0.466955 -0.027153 -0.045571
-0.466955 -0.036187 -0.056815
-0.466955 -0.017965 -0.095248
-0.466955 0.012896 -0.098808
-0.466955 -0.021484 0.039498
-0.466955 -0.059295 -0.005426
-0.466955 -0.010341 -0.077289
-0.466955 0.006886 -0.005525
-0.466955 -0.096396 0.018001
-0.466955 -0.075160 0.040935
-0.466955 -0.000783 -0.052011
-0.466955 -0.060476 -0.004006
-0.466955 0.074263 0.064190
-0.466955 0.020864 0.070354
-0.466955 0.014854 0.060294
-0.466955 0.081021 -0.055560
-0.466955 -0.066577 -0.031821
-0.466955 -0.026185 0.046070
-0.466955 0.041946 0.075472
-0.466955 -0.027549 0.087394
-0.466955 -0.024357 0.093074
-0.466955 0.052270 -0.065955
-0.466955 0.030821 -0.028318
-0.466955 -0.058834 0.073980
-0.466955 0.092818 -0.011724
-0.466955 -0.065631 -0.021453
-0.466955 0.052519 0.083364
-0.466955 -0.032696 0.064155
-0.466955 0.059313 0.020713
-0.466955 0.020602 0.056859
-0.466955 -0.032573 -0.087156
-0.466955 0.048049 0.078980
-0.466955 0.002166 0.017921
-0.466955 0.027554 -0.065587
-0.466955 -0.024169 -0.079109
-0.466955 0.066187 -0.018439
-0.466955 0.004320 -0.095251
-0.466955 -0.033023 0.021422
-0.466955 0.025435 0.013169
-0.466955 -0.053564 -0.081927
-0.466955 -0.069345 0.009527
-0.466955 0.078118 -0.062063
-0.466955 0.004076 0.014288
-0.466955 -0.076833 -0.060681
-0.466955 0.035310 0.027577
-0.466955 0.049828 -0.003337
-0.466955 -0.011441 -0.047021
-0.466955 0.001120 -0.002448
-0.466955 0.038057 -0.049126
-0.466955 -0.012720 -0.090194
-0.466955 -0.017053 0.050130
-0.466955 0.060620 0.031717
-0.466955 -0.007518 -0.076717
-0.466955 0.077957 0.016211
-0.466955 0.032371 -0.034664
-0.466955 -0.068441 0.064246
-0.466955 -0.028256 -0.043939
-0.466955 -0.009793 0.041094
-0.466955 -0.000419 -0.033263
-0.466955 0.058267 -0.080840
-0.466955 -0.020651 0.066808
-0.466955 -0.007502 0.021284
