-0.440460 -0.079222 -0.060430
-0.450665 0.096599 -0.025583
-0.103184 -0.081939 0.057063
0.153087 -0.082968 -0.055187
-0.366367 0.032757 -0.094180
0.450189 0.089253 -0.044794
0.176676 -0.080077 -0.059328
-0.135714 0.045924 0.088894
0.448181 0.099983 0.000881
0.159549 -0.098840 0.013612
-0.183776 -0.004208 0.099934
-0.432945 -0.097284 -0.021750
-0.201341 0.064341 0.076660
0.348366 -0.097796 -0.019462
-0.352167 -0.011513 0.099366
0.001492 0.062871 0.077858
-0.332813 0.030583 0.095297
0.029245 -0.035085 -0.093258
0.460254 -0.089542 -0.043768
0.448522 0.085725 -0.051195
0.429933 -0.021246 -0.097347
-0.180756 0.087441 -0.048294
0.181207 -0.003316 -0.099599
0.233387 -0.090782 -0.041155
0.465089 -0.016602 -0.098254
0.223161 -0.094260 -0.032417
-0.026590 -0.002806 0.099978
0.119547 -0.096672 -0.024489
0.388310 0.005083 0.099914
0.381213 -0.043897 0.089807
-0.010698 0.005769 0.099892
-0.378006 0.098901 0.014699
-0.249171 -0.026600 -0.096024
0.120785 0.006284 0.099876
-0.298515 0.064460 0.076554
-0.251640 0.093174 -0.036081
-0.206570 -0.088688 -0.045444
0.423422 0.042183 -0.090402
-0.047338 -0.096362 0.025959
-0.336174 0.051166 0.085983
0.338254 0.076106 0.064960
0.141058 -0.038462 0.092273
-0.230424 0.061380 0.079015
0.302109 0.082920 -0.055601
-0.208665 -0.063704 0.077015
0.091617 -0.088234 -0.046335
-0.024507 0.098827 0.015165
0.344388 0.053923 0.084328
0.352105 0.049115 -0.086833
0.076906 -0.099769 0.000088
-0.339116 -0.050594 0.086183
-0.314208 -0.064110 -0.076295
-0.327403 0.018753 0.098313
-0.341597 0.006045 -0.099521
-0.278443 0.055363 -0.082986
0.424903 0.099400 -0.010409
-0.199714 0.067250 -0.073732
-0.376878 -0.099650 0.004075
0.158068 -0.079486 -0.060090
-0.165429 -0.080501 0.059144
0.464411 -0.007032 -0.099427
-0.006466 0.091500 0.040398
0.292567 0.085277 0.052314
-0.059982 -0.072761 0.068489
0.016606 0.096326 0.026884
0.058212 -0.069658 0.071601
0.408398 -0.099393 -0.008016
0.136015 0.000728 -0.099688
-0.317162 -0.078039 -0.061955
-0.088281 0.096457 0.026434
0.330179 -0.095947 -0.027023
0.438469 -0.081091 0.058311
0.422528 -0.037766 0.092574
-0.080670 -0.055373 -0.082821
0.141245 -0.099741 -0.000807
0.423677 0.090643 0.042379
-0.306003 -0.082857 0.055712
0.154674 0.006229 0.099878
0.279024 0.052974 0.084914
0.446048 0.039557 0.091901
-0.222313 -0.097877 -0.019097
-0.112954 -0.066172 0.074839
-0.325261 0.092027 -0.038818
-0.281036 0.044943 -0.089031
-0.021435 -0.091895 -0.038583
0.207013 -0.052139 -0.084907
-0.035118 0.094655 0.032331
-0.444999 0.099765 0.006907
0.241036 -0.034371 0.093878
0.302674 0.099256 -0.011936
-0.393145 -0.099408 -0.007852
0.367063 -0.096010 0.027169
-0.418154 0.029204 -0.095336
-0.062925 0.098010 -0.019546
0.191907 -0.078772 0.061373
-0.264806 0.010698 0.099466
-0.465242 0.040032 0.091695
0.243685 -0.086570 -0.049372
0.090346 0.066568 0.074696
-0.058332 -0.079198 -0.060461
0.361618 -0.013696 -0.098715
0.146956 0.030849 -0.094858
0.401992 -0.069919 0.071340
-0.104624 -0.082009 -0.056597
-0.171334 -0.099724 0.001696
-0.068428 -0.030019 -0.095031
-0.458177 -0.091735 0.039316
-0.004797 -0.012587 0.099253
-0.369136 -0.039802 0.091694
0.312645 -0.010865 0.099428
-0.450428 -0.099528 -0.006588
-0.320214 0.099947 -0.001674
0.209759 -0.040843 -0.090880
0.227312 0.082015 -0.056932
0.195227 0.099033 -0.013501
-0.162206 0.024833 0.096960
0.300232 0.054657 -0.083466
-0.116882 -0.097104 0.022920
0.002663 -0.078809 -0.060962
0.214943 -0.047798 -0.087457
0.234685 -0.050926 -0.085624
-0.089002 -0.062195 0.078202
0.146469 0.083953 0.054443
-0.298922 -0.016426 0.098645
-0.200623 -0.098685 0.014590
0.259680 0.097012 -0.024012
-0.414768 -0.050094 -0.086116
-0.127766 0.018395 -0.098007
0.223141 0.084428 0.053745
-0.272475 0.086210 0.050737
-0.038361 -0.022716 -0.097018
0.300342 -0.000858 -0.099677
-0.254340 -0.093135 -0.035541
0.200901 0.085614 0.051746
0.229568 0.080477 0.059477
0.408054 -0.078259 -0.061672
0.007687 -0.046316 -0.088212
0.272912 0.083238 0.055496
0.124273 -0.026334 0.096464
0.258749 0.025959 -0.096278
0.345886 0.073328 -0.067748
0.431335 0.008512 0.099672
-0.287999 -0.052449 -0.084723
-0.083699 -0.026945 -0.095924
-0.168684 0.089661 -0.043993
0.309382 -0.092216 -0.037842
0.195489 -0.042057 -0.090355
-0.453966 -0.099730 -0.001137
-0.329391 0.093361 0.035924
0.198590 0.014790 0.098941
0.089599 -0.037561 0.092663
0.125312 -0.090954 0.041121
-0.027529 0.077183 0.063722
-0.020597 0.093449 -0.035317
0.151787 -0.010505 -0.099099
-0.285232 -0.049103 0.087065
0.464187 -0.035786 -0.093005
-0.295342 0.094875 -0.031356
0.465147 0.099953 -0.001468
-0.171098 0.074569 -0.066340
0.291693 -0.069119 -0.071777
-0.002160 0.094818 -0.031513
-0.409760 0.099980 -0.000608
0.381909 -0.074580 0.066426
-0.276280 0.032751 -0.094182
-0.097402 0.042419 -0.090299
-0.275960 0.021301 0.097749
-0.345029 -0.011737 0.099345
-0.329039 0.041488 -0.090702
0.148654 0.093679 0.035042
0.285186 0.067251 -0.073731
-0.090346 0.092745 -0.037157
0.108002 -0.099308 0.009274
-0.098486 0.040607 0.091446
-0.027252 -0.032526 0.094542
-0.456403 0.004041 -0.099584
0.385421 0.099930 0.002575
0.110596 -0.084443 -0.052969
-0.214853 -0.060426 -0.079211
0.414685 -0.029151 -0.095283
-0.155487 0.071875 0.069618
-0.015282 0.076653 -0.063976
-0.384003 0.045765 0.088975
0.044359 -0.034284 -0.093546
0.350927 -0.090305 0.042619
-0.014553 -0.038913 -0.091715
-0.177911 0.097019 0.024345
-0.435648 0.007795 -0.099377
-0.081858 -0.093834 -0.033600
0.206690 0.081958 0.057380
-0.253659 -0.058254 0.081225
0.032224 -0.079927 0.059885
-0.082459 0.061064 0.079259
0.423918 -0.003785 0.099947
-0.290242 0.098693 0.016013
0.445722 0.069527 -0.071602
0.022591 -0.038697 -0.091809
-0.079776 -0.087955 0.047246
-0.035754 0.075031 0.066180
-0.174546 -0.005010 0.099909
-0.173600 0.068942 0.072551
0.105328 0.035674 -0.093130
-0.074570 0.001640 -0.099659
-0.352396 0.099447 0.010275
-0.048228 0.059720 0.080302
-0.079805 -0.053785 0.084263
-0.372264 0.093508 0.035517
0.127060 0.089090 0.045476
-0.186556 -0.063406 0.077262
-0.045327 0.068741 0.072751
-0.223456 0.099970 -0.000947
-0.244469 0.079776 0.060380
-0.303883 0.029891 -0.095136
-0.302712 -0.094858 0.031118
-0.188267 -0.033177 0.094307
0.398444 0.098828 0.015163
-0.155578 -0.061908 -0.078061
-0.372687 0.099598 -0.008309
-0.385109 0.000558 0.100056
-0.233330 0.006113 0.099882
0.142744 -0.031614 -0.094508
-0.173386 -0.090371 -0.042105
-0.278457 -0.087522 -0.047732
0.159522 0.033646 0.094223
0.033862 -0.075654 0.065208
-0.243377 0.009761 -0.099191
-0.230443 0.092636 -0.037411
0.150128 -0.079997 0.059794
-0.241335 -0.094955 -0.030440
0.458666 -0.087999 0.047159
0.050661 0.063139 0.077650
-0.389786 -0.087584 0.047975
0.391485 0.000045 -0.099705
0.136019 0.039393 0.091971
0.412256 -0.096971 -0.023153
-0.008641 -0.074732 0.066254
0.400049 -0.093487 0.034926
-0.129633 0.048719 -0.087068
-0.298257 0.072123 -0.069006
-0.402471 0.099902 -0.003112
0.206216 0.032159 -0.094395
-0.081413 -0.069599 0.071660
0.224594 -0.075730 -0.064759
0.352926 -0.035740 0.093385
-0.336120 -0.003184 0.099966
0.357629 -0.062528 0.077943
-0.069422 0.075134 -0.065699
-0.362066 0.098375 0.018020
0.423115 0.096199 -0.026958
-0.178561 0.005218 -0.099547
-0.194346 0.003856 0.099952
0.166195 0.034282 0.093994
-0.277300 0.026886 0.096372
-0.301782 0.069136 0.072356
-0.169342 0.095158 -0.030543
0.390333 -0.039653 -0.091395
0.338393 -0.033852 -0.093702
-0.235031 -0.030781 -0.094807
-0.060659 0.038741 0.092254
0.327996 0.098788 0.015412
-0.106910 -0.095449 -0.028737
0.003582 -0.013654 -0.098721
-0.412223 -0.059976 -0.079560
0.398138 0.034573 0.093889
-0.342629 -0.099064 -0.011499
0.340719 0.086845 0.049664
-0.006795 0.099930 -0.002198
0.276619 0.086761 -0.049444
-0.387177 0.096714 0.025551
-0.038093 0.099568 -0.008636
0.361079 -0.056134 -0.082303
-0.021217 -0.012336 0.099289
0.087826 0.073153 0.068310
0.006792 0.095502 0.029723
-0.019742 0.074873 0.066359
-0.198493 0.033920 0.094124
0.307633 0.081156 0.058560
0.077484 -0.095871 0.027647
-0.063676 -0.099311 0.009246
-0.187584 0.005758 0.099893
0.243355 0.020435 -0.097580
0.289539 0.066520 0.074738
-0.256354 0.079557 0.060662
-0.322971 0.072337 -0.068793
-0.067744 0.001800 0.100017
-0.265501 0.001583 0.100024
-0.360480 0.070109 -0.071020
0.212016 -0.079352 0.060625
0.340741 0.032789 -0.094168
-0.046848 0.011299 0.099409
0.085760 -0.099770 0.000109
0.283272 0.084192 0.054092
0.184338 0.009244 0.099603
-0.026241 0.004123 0.099944
0.059380 -0.040899 -0.090856
0.377479 -0.099413 -0.007803
-0.014667 -0.088306 -0.046195
0.438546 0.025889 0.096661
0.425363 0.000286 -0.099702
-0.240582 0.089897 -0.043530
0.132088 -0.024425 0.096999
-0.013083 0.014826 0.098935
0.256449 0.074119 0.067213
-0.130583 0.095755 0.028850
0.087228 -0.098064 0.018512
0.373558 -0.093719 0.034281
0.261514 0.062383 0.078237
0.021530 -0.071833 0.069426
0.281186 -0.062895 -0.077296
-0.072230 -0.010734 -0.099077
-0.256923 0.074825 0.066413
-0.360070 -0.093598 -0.034255
-0.389154 0.089318 0.045029
-0.095060 -0.084928 -0.052148
-0.191552 0.068983 -0.072147
0.169640 -0.099598 0.005709
0.276614 0.086196 0.050760
-0.303062 0.048886 -0.086969
0.077737 0.076673 -0.063954
0.189985 -0.099176 0.010671
-0.046279 -0.097143 -0.022382
-0.075750 0.086225 -0.050349
0.070965 -0.090706 -0.041331
-0.035569 -0.089263 0.044679
-0.016430 0.069285 -0.071845
0.204144 0.065926 0.075262
-0.193305 0.067153 0.074180
-0.458008 0.087737 -0.047768
0.410061 -0.014110 -0.098649
-0.432827 -0.098915 -0.012777
0.067884 0.099753 -0.006677
-0.216421 0.072501 0.068991
0.406175 -0.097220 -0.022036
-0.421183 -0.063093 0.077505
0.086952 0.010390 -0.099132
0.166452 0.051466 -0.085443
-0.114549 -0.014609 -0.098570
-0.026995 -0.037118 -0.092492
-0.332371 0.087838 0.047933
-0.410486 -0.035222 -0.093208
0.387521 -0.098925 0.013073
0.128507 -0.082938 0.055594
0.036638 -0.094347 -0.032176
-0.151277 0.098717 -0.015497
0.107751 -0.091167 -0.040265
-0.086612 0.094966 -0.031104
-0.318913 -0.031791 0.094807
0.148539 -0.088215 -0.046372
-0.150586 -0.088895 -0.045038
0.423488 -0.091011 0.040988
0.079982 -0.061551 -0.078338
0.455160 0.007821 0.099738
-0.289651 0.017743 0.098473
-0.184840 -0.092343 -0.037548
0.430638 -0.079673 0.060212
-0.383736 -0.096796 0.024297
0.091393 -0.061028 -0.078744
0.315669 0.061628 0.078823
-0.244816 0.095171 -0.030497
0.464847 -0.082112 -0.056447
0.214392 0.062262 0.078331
0.053734 0.096570 -0.025683
-0.238033 0.093444 0.035694
0.454430 -0.024395 -0.096643
-0.402381 0.026518 -0.096116
0.336091 0.081236 -0.058079
0.016789 0.078736 0.061721
-0.022443 0.099754 -0.006666
0.442171 0.046632 0.088533
-0.174718 0.093753 -0.034473
0.135968 0.072894 -0.068236
0.203987 0.057429 0.081945
0.416370 0.099586 0.008803
0.196036 -0.095257 -0.029398
0.046907 0.097255 -0.022926
0.034978 -0.041823 0.090819
-0.268166 -0.023440 -0.096856
0.341046 0.065001 -0.075715
0.277655 -0.091224 -0.040133
-0.171460 -0.087261 0.048565
-0.257987 0.000149 0.100069
0.016738 -0.036488 0.093115
0.399697 0.097078 0.024080
-0.295185 0.047517 -0.087719
-0.122246 0.015907 0.098764
-0.456211 0.012147 -0.098966
0.292985 -0.049947 -0.086203
-0.059515 0.099821 -0.005689
-0.214597 0.009162 -0.099248
0.303829 -0.004958 0.099911
-0.344102 0.088587 -0.046101
0.369347 0.084907 -0.052578
0.192913 0.044305 0.089719
-0.285477 -0.099636 0.004505
-0.094623 0.087515 0.048531
-0.056984 0.090568 -0.042190
-0.339445 0.012490 0.099296
-0.171371 0.016017 -0.098384
0.253371 -0.099150 0.010950
-0.269828 -0.097815 0.019739
0.346346 -0.049691 -0.086355
0.194937 0.068623 0.072869
-0.389584 0.014512 -0.098622
-0.247579 0.029294 -0.095309
0.089525 0.098710 0.015905
0.370969 -0.019374 -0.097765
-0.300169 0.091093 0.041339
0.017837 -0.095626 0.028490
-0.278696 0.081061 0.058698
0.357185 0.078967 0.061423
0.235416 -0.004136 -0.099574
-0.291736 0.073309 -0.067770
0.293103 0.071117 0.070375
-0.191580 -0.098938 0.012990
0.132056 0.021840 0.097629
-0.301937 0.009928 -0.099176
-0.013491 -0.045844 0.088815
0.048540 -0.083040 0.055443
0.077862 0.041698 0.090974
-0.088856 0.074868 0.066364
0.016563 0.014675 0.098959
-0.423759 0.087021 0.049365
0.256344 0.020872 -0.097482
-0.198146 0.055857 -0.082651
0.158888 -0.093208 0.035702
-0.284124 0.098813 0.015253
0.086206 0.088571 0.046495
-0.244799 -0.098082 0.018394
-0.002534 0.016562 0.098661
0.303656 0.087817 0.047974
-0.454302 0.033720 0.094196
0.149494 0.066195 -0.074662
0.076992 0.060127 -0.079624
0.327902 0.060323 0.079835
0.167912 0.099563 -0.008681
-0.262013 0.021894 -0.097254
-0.160407 -0.084418 -0.053010
-0.046170 0.041015 0.091269
-0.340431 -0.004974 -0.099547
-0.132031 0.008588 0.099665
0.015591 0.021716 0.097656
-0.416099 0.087826 0.047957
0.132170 -0.088465 -0.045883
0.130821 0.063089 0.077689
0.199541 -0.058506 -0.080691
-0.028881 -0.087798 0.047555
0.192607 -0.004964 -0.099548
0.366356 -0.064255 -0.076166
0.193031 -0.093048 0.036144
-0.291473 0.030706 -0.094899
-0.131077 -0.064279 -0.076146
-0.144627 0.061760 0.078720
-0.333115 0.064442 0.076570
0.166629 -0.088500 0.046176
0.136095 -0.094844 0.031156
-0.163278 -0.050968 -0.085600
-0.161801 -0.097345 0.021841
-0.304054 0.087237 -0.048638
-0.154038 -0.056634 0.082326
-0.336214 0.025675 0.096723
0.464698 0.099835 0.005605
-0.424605 0.098938 0.014469
0.125458 0.099179 -0.012581
0.390579 -0.099499 0.007250
-0.403230 -0.025289 -0.096405
0.304126 -0.089215 0.044773
-0.161833 0.036223 0.093295
0.085439 0.096057 0.027811
-0.057749 0.011893 0.099353
-0.275672 -0.086608 0.049670
-0.448727 -0.095467 0.029039
0.389850 0.029918 -0.095128
0.432686 0.049539 -0.086583
-0.320058 -0.092121 -0.038061
-0.046738 -0.099421 0.008085
0.051265 0.099905 -0.003012
0.152719 0.013606 -0.098766
-0.039101 0.055715 -0.082747
-0.230422 -0.047513 0.087965
-0.009146 -0.055364 -0.082827
0.388847 -0.072418 -0.068478
0.350093 0.066297 0.074935
0.359074 -0.050151 -0.086083
0.428831 -0.039076 0.092008
-0.144933 -0.068429 -0.072467
0.298983 0.079291 -0.060642
0.127434 0.033667 0.094215
-0.414101 0.071881 -0.069248
-0.298943 0.098564 0.016826
-0.341347 -0.017701 0.098443
-0.351027 -0.095189 -0.029634
-0.164831 0.097571 -0.021512
0.349372 -0.099013 -0.012029
0.414424 0.093223 0.036307
0.168220 -0.075292 0.065619
0.126047 0.098009 -0.019553
0.062790 -0.058117 0.081318
-0.034847 0.079646 0.060548
-0.048266 -0.099668 -0.003110
-0.352099 -0.097205 0.022467
0.188044 -0.099379 -0.008167
0.242128 0.099953 -0.001486
-0.386238 -0.099523 -0.006635
-0.109366 -0.031598 0.094876
0.044552 -0.056724 -0.081903
-0.186093 -0.031972 -0.094379
0.308915 0.065049 0.076036
-0.050317 -0.034235 0.093926
0.408730 0.099937 -0.001984
-0.083171 0.012819 0.099253
0.044393 0.092053 0.039119
-0.070701 -0.088594 0.045992
-0.392793 0.076416 -0.064246
-0.454476 0.099866 -0.004260
-0.308411 0.054816 0.083720
-0.311120 -0.099669 0.003472
0.330677 0.079009 -0.061006
-0.200438 -0.087880 -0.047030
0.197504 -0.016773 -0.098227
0.366247 -0.098422 -0.015886
0.376035 -0.091307 0.040304
0.238816 0.098834 -0.014762
0.349218 0.053801 -0.084048
-0.343396 0.092218 0.038740
-0.351881 0.052602 -0.084771
0.198860 0.099784 0.006710
-0.406863 0.064515 -0.076144
0.276149 -0.002437 0.099990
0.095853 0.012425 -0.098939
-0.422097 0.014724 -0.098589
-0.186651 0.081300 -0.057985
-0.080437 0.041996 -0.090482
0.123368 -0.058514 -0.080686
0.367652 -0.092431 0.037707
0.410466 -0.078911 0.061194
-0.077372 0.092173 0.038843
0.123263 -0.047061 0.088195
0.417604 0.030612 -0.094926
0.054624 -0.019164 0.098175
0.062650 -0.011461 0.099371
-0.293378 -0.063189 -0.077068
-0.241312 0.090881 0.041827
-0.188784 0.033769 0.094179
-0.114242 -0.048716 -0.086931
0.031859 -0.099213 0.010281
-0.422487 -0.098554 0.015417
-0.157419 0.099124 0.013292
0.293334 0.041112 -0.090865
0.138923 -0.072521 -0.068375
-0.278859 -0.033499 0.094191
-0.039881 -0.039882 0.091659
-0.324578 -0.080775 0.058777
-0.116094 -0.054102 -0.083684
0.258153 -0.007510 0.099745
0.224233 0.093180 -0.036065
0.345281 0.093800 -0.034343
0.133238 0.089421 -0.044464
-0.205535 0.018319 -0.098019
0.161169 0.071438 0.070055
-0.423554 -0.071211 0.070048
0.254236 0.070061 0.071431
0.089981 0.099543 0.009263
-0.396732 -0.079496 0.060440
0.109150 -0.096112 0.026819
-0.446555 0.096644 0.025790
-0.224801 0.097265 0.023241
-0.107937 0.032433 0.094660
0.090288 0.019008 0.098262
0.094784 -0.025221 0.096788
-0.286173 -0.059784 -0.079709
0.000482 -0.090246 0.042749
0.438433 0.017823 0.098461
0.239264 0.063658 -0.076885
-0.200124 -0.017420 0.098488
0.014288 -0.054986 -0.083084
0.035471 -0.073954 -0.066773
0.165605 -0.024519 0.096978
-0.169863 -0.064864 -0.075630
0.032130 -0.089160 -0.044519
-0.213494 0.084921 0.052916
-0.288851 0.067798 -0.073249
-0.421441 -0.090235 0.042771
0.232994 0.043841 0.089955
-0.311263 0.092887 -0.036831
-0.206268 0.089833 0.044018
0.258626 -0.087843 -0.047103
0.202859 -0.050131 0.086457
0.065900 0.066942 -0.074004
0.054714 0.006122 -0.099519
-0.126223 -0.074943 0.066014
-0.016460 -0.099656 0.003865
0.034644 0.098593 -0.016279
0.400689 -0.096789 -0.023967
-0.230554 0.070593 0.070899
0.437300 0.053397 -0.084301
-0.085942 -0.085908 0.050854
0.067356 0.043448 -0.089793
0.216737 -0.027966 -0.095627
0.234318 0.056718 -0.082065
-0.436584 0.085700 0.051600
0.108243 -0.026547 -0.096040
-0.011385 0.093173 0.036447
0.172420 -0.046942 -0.087893
-0.039996 0.092215 -0.038382
0.013577 -0.088720 -0.045382
-0.152521 -0.099577 -0.006026
-0.278493 0.015154 0.098883
0.136557 0.098350 -0.017814
-0.088351 0.070934 0.070558
0.384062 -0.099661 -0.003338
-0.253079 -0.051877 0.085424
-0.215087 0.088109 0.047401
0.099493 0.035970 0.093386
-0.336222 0.085320 -0.051880
-0.105221 0.019973 0.098046
-0.463169 0.064931 0.076139
-0.037280 -0.029958 -0.095049
0.031941 0.091888 -0.039139
-0.267124 0.085920 -0.050865
0.336744 -0.019301 0.098144
-0.052504 0.007296 0.099787
-0.053604 -0.082266 -0.056220
0.275616 0.012286 0.099315
-0.201049 -0.076310 0.064464
0.361222 0.017123 0.098572
-0.458119 0.032334 -0.094332
0.248422 0.099886 -0.003624
0.192378 -0.030966 -0.094741
0.281445 0.036106 -0.092974
0.377079 0.001531 0.100026
0.084351 0.086057 -0.050633
0.135970 0.079856 0.060277
0.095947 -0.077129 0.063491
-0.428478 0.012205 -0.098960
-0.382013 0.090962 0.041641
-0.146239 -0.067617 0.073565
-0.461452 -0.033809 -0.093717
-0.242098 -0.047618 -0.087549
0.059723 -0.053072 0.084718
0.032241 0.069099 -0.072031
0.301725 0.023443 -0.096908
0.423791 0.099459 0.010147
-0.202466 -0.056459 -0.082083
0.330770 -0.098701 -0.014128
0.343306 -0.098495 0.015791
-0.176224 0.099588 0.008780
-0.326633 0.000866 -0.099684
0.026693 -0.087352 -0.048050
-0.299215 0.098822 -0.014833
0.011797 -0.038462 -0.091910
-0.030498 -0.099372 0.008603
0.249069 0.069815 -0.071314
0.225688 -0.095934 0.027430
-0.286092 0.097074 0.024098
0.138646 0.099788 0.006666
0.110890 -0.097661 0.020427
0.436076 -0.056247 -0.082227
0.359226 0.010428 -0.099128
-0.163010 -0.098746 0.014203
0.396175 -0.022717 0.097380
-0.457826 0.028296 0.095962
-0.452882 -0.079346 -0.060270
0.334599 -0.020525 -0.097508
-0.448324 0.062579 -0.077722
0.234090 0.076497 0.064516
-0.081830 -0.045126 -0.088818
-0.331936 0.097671 0.021428
-0.151081 -0.099048 -0.011661
-0.373442 0.050427 -0.086057
0.098963 0.097457 0.022385
0.245857 0.084494 0.053639
0.122791 0.037778 0.092670
0.137126 -0.096664 0.024888
0.207904 -0.084756 0.052801
0.417748 0.020550 0.097917
-0.210997 0.047154 -0.087904
0.103896 -0.053657 -0.083987
-0.001799 0.099490 -0.009451
-0.218831 -0.038653 -0.091828
-0.270501 -0.099393 0.008377
-0.212273 -0.019056 -0.097836
-0.249855 0.081948 0.057394
0.033492 0.099876 0.004279
0.080148 0.050320 -0.086120
-0.348199 -0.020293 0.097922
0.208880 -0.029320 -0.095234
0.057612 0.032379 0.094679
0.416376 0.029314 0.095666
0.360984 0.084440 0.053727
-0.434660 0.014973 -0.098549
-0.081362 -0.036306 0.093181
-0.429038 -0.087517 -0.047742
0.066496 -0.088956 -0.044918
-0.432926 0.067562 0.073819
-0.416675 -0.077682 -0.062416
-0.063075 -0.035226 -0.093207
-0.233403 -0.037786 -0.092203
0.060163 -0.042206 0.090653
-0.030805 0.079331 -0.060591
-0.071891 0.093527 0.035463
0.417722 0.098116 0.019433
-0.334566 -0.017993 0.098397
0.189943 0.019701 0.098107
0.124406 -0.086762 -0.049047
0.199268 -0.089384 0.044441
0.037614 0.099419 -0.010211
-0.040836 -0.003277 -0.099601
-0.158557 -0.095392 -0.028934
-0.193058 -0.016886 -0.098209
-0.163556 0.068810 0.072682
-0.012835 0.097270 -0.022856
-0.180240 0.001855 0.100015
0.358703 0.034300 -0.093624
-0.067446 0.062974 -0.077415
-0.012604 -0.005958 0.099879
-0.214032 0.027859 -0.095726
0.054974 -0.027507 0.096123
0.140262 -0.063251 0.077383
-0.158908 -0.096147 0.026697
0.155358 0.030205 -0.095045
-0.195547 -0.008481 0.099653
0.449185 0.099425 0.010508
0.388195 0.042198 0.090758
0.373475 0.090838 -0.041565
0.181170 0.095871 0.028450
-0.287880 0.036781 -0.092731
-0.270931 -0.005994 0.099878
0.160179 0.057641 -0.081438
0.154549 -0.032071 -0.094343
0.395391 0.006369 0.099874
-0.409222 0.043236 -0.089901
-0.444117 0.082891 0.056006
-0.158955 0.099862 -0.004375
0.256194 0.065030 0.076052
-0.171626 0.069956 -0.071173
-0.378082 -0.084357 0.053477
-0.377999 -0.070832 0.070427
0.091765 0.006568 -0.099493
0.424284 0.079424 0.060834
0.126166 -0.099666 0.003545
0.156225 -0.053546 -0.084062
0.157404 0.095001 0.031369
0.321773 0.026511 -0.096118
-0.032508 0.009385 0.099590
-0.263352 0.001815 -0.099654
-0.044561 -0.030001 0.095399
-0.228221 0.090238 0.043223
0.239836 0.069475 -0.071655
-0.399828 -0.000993 -0.099672
-0.050614 0.079763 -0.060035
0.324530 0.042489 -0.090269
-0.171806 0.087388 -0.048383
-0.193264 0.097643 0.021551
0.440691 0.057895 -0.081265
0.145399 0.007508 0.099767
-0.298685 0.073234 0.068217
0.178924 0.099985 -0.000456
0.276143 0.094480 0.032817
-0.236324 -0.094336 0.032568
0.335269 0.094773 -0.031639
0.333699 -0.005997 0.099878
0.164436 -0.061465 0.078768
0.184047 0.063276 -0.077181
-0.230985 -0.031180 0.095026
0.376858 -0.097730 0.020119
0.370613 0.070481 -0.070649
0.190570 -0.086360 -0.049727
0.242561 -0.054590 -0.083353
-0.328547 0.074240 -0.066714
0.023245 -0.005381 -0.099534
-0.268300 0.082064 -0.056860
-0.262998 -0.043121 0.090203
0.094984 0.044707 -0.089151
0.058804 -0.077340 -0.062857
0.180499 -0.098248 -0.016987
0.194056 0.079740 0.060426
0.164276 0.062058 -0.078126
-0.459797 0.053864 -0.084005
-0.161886 -0.087996 -0.046802
-0.143911 0.077468 -0.062992
0.007724 0.087136 0.049171
-0.331469 -0.079911 0.059904
0.302051 -0.038159 0.092404
0.457058 0.063946 0.077007
-0.105623 0.037197 -0.092559
0.374710 -0.089339 -0.044167
0.297921 0.010990 0.099438
-0.226361 -0.084422 -0.053004
-0.143556 -0.045091 0.089199
0.213113 -0.099152 -0.010562
0.255531 -0.014953 0.098878
-0.047124 0.090102 -0.043128
-0.177287 -0.073625 -0.067146
0.375360 0.038016 0.092567
0.389427 0.077584 0.063206
-0.279504 -0.007858 -0.099349
-0.466838 -0.039051 -0.091656
-0.048176 0.064666 0.076373
-0.137317 -0.094199 -0.032587
-0.067187 -0.078114 -0.061859
-0.025816 -0.007563 -0.099377
-0.370219 0.074406 0.066889
0.302932 -0.095830 -0.027426
0.041151 -0.052714 0.084929
0.325812 0.054194 -0.083781
-0.216851 0.088784 -0.045714
-0.276688 0.099851 -0.004734
0.270824 -0.061886 0.078441
0.254153 0.096214 0.027272
0.054192 -0.073597 -0.067178
0.363556 -0.000212 0.100060
-0.374790 -0.093432 0.035078
0.048830 -0.017172 0.098527
-0.464151 -0.082971 0.055545
0.298597 0.098240 0.018874
0.182878 -0.076364 0.064403
0.130407 0.082798 -0.055780
0.165307 0.096635 0.025821
0.276974 0.096575 0.026028
-0.145478 -0.073210 -0.067618
0.021102 0.035873 0.093421
-0.370209 -0.048462 0.087444
0.045654 0.099596 0.008702
-0.118909 0.099798 0.006557
-0.214039 0.057614 -0.081457
0.223422 -0.097578 0.020800
-0.166853 0.056826 0.082354
0.016450 0.003749 -0.099593
-0.174188 0.081586 -0.057563
0.408438 0.095190 -0.030433
0.290888 -0.011831 -0.098974
0.157446 -0.059522 -0.079912
0.299182 -0.099426 0.008023
-0.175646 -0.014558 0.098941
-0.466548 0.095616 0.029328
0.297145 0.065403 -0.075360
-0.043863 -0.085357 -0.051422
0.054661 0.079668 -0.060157
-0.430356 -0.037083 -0.092508
0.004803 0.068685 0.072808
0.050333 0.099198 0.012826
-0.334627 -0.050940 -0.085616
-0.300667 -0.067553 0.073622
-0.112237 -0.022327 -0.097105
-0.121464 0.043457 0.090151
0.053113 0.031002 -0.094812
-0.391782 -0.086265 -0.049887
0.286886 -0.089786 0.043652
0.074754 0.087767 -0.047711
0.220845 -0.091413 -0.039696
-0.053989 0.087966 -0.047319
0.316568 0.034422 -0.093581
0.000787 -0.044444 -0.089166
0.014475 0.063174 0.077623
-0.413710 -0.082438 -0.055966
-0.422282 0.080798 0.059063
-0.448456 -0.022807 -0.096998
0.426060 0.052417 -0.084881
-0.101015 0.000476 -0.099696
0.281952 -0.005993 0.099878
0.127487 -0.081704 -0.057046
-0.118843 0.050131 0.086595
-0.031836 0.088791 -0.045700
-0.333131 0.098965 0.014297
0.247203 -0.098292 0.017072
-0.172762 -0.036085 -0.092898
0.257266 -0.075843 0.064994
-0.031477 0.017335 0.098538
-0.431126 0.099332 -0.011123
0.442598 -0.021610 0.097628
0.252938 0.099562 -0.008698
-0.464632 -0.099582 0.006226
-0.174633 0.035829 -0.093074
-0.222500 -0.013403 0.099124
-0.407631 -0.099206 -0.009993
0.129927 0.057801 0.081692
-0.090927 -0.099446 -0.007449
-0.451033 0.058674 0.081098
0.108655 -0.072675 0.068584
-0.214613 0.036007 0.093373
0.345002 -0.091465 0.039939
0.460829 0.027797 0.096107
0.404904 -0.051338 -0.085381
-0.019561 -0.043348 0.090087
-0.068686 0.070310 -0.070820
-0.319578 0.017225 0.098555
-0.204348 0.058380 -0.080936
-0.368938 0.066829 0.074466
-0.301922 0.089795 -0.043730
-0.030746 0.085469 -0.051628
-0.096482 -0.099732 0.001457
-0.267755 0.089266 -0.044769
-0.221948 -0.067388 0.073767
-0.012407 0.092573 -0.037554
-0.178320 -0.007895 -0.099346
-0.152713 0.062470 0.078170
-0.302093 -0.001423 -0.099659
-0.400976 -0.016892 -0.098208
-0.006945 0.035392 -0.093231
-0.246651 -0.090724 0.041652
0.418421 -0.026845 0.096316
0.316068 0.012658 -0.098916
-0.323007 -0.099545 -0.006402
0.191828 0.020243 -0.097623
-0.037104 0.017489 -0.098151
-0.328026 -0.007232 -0.099408
0.210664 0.099119 0.013321
0.432729 -0.066363 0.074671
0.296706 0.098650 -0.015920
0.369964 -0.062879 0.077671
-0.040626 -0.025461 0.096718
-0.051863 0.014813 0.098937
-0.246415 0.004059 0.099946
0.397003 -0.018500 -0.097954
0.112140 0.056598 0.082510
-0.150089 -0.013867 0.099050
0.241544 0.002950 0.099981
0.213630 0.001574 -0.099661
0.354939 -0.099676 0.003233
0.114922 -0.098862 -0.013107
0.134937 -0.055441 0.083138
-0.313416 -0.059243 0.080491
0.108938 0.017609 0.098495
-0.098337 0.061153 0.079191
0.006793 -0.097874 0.019473
-0.061274 0.030982 0.095182
0.051856 -0.076516 0.064230
0.093768 -0.073027 0.068187
0.301411 0.099980 0.000978
0.271473 -0.053427 -0.084143
-0.241106 -0.018137 0.098374
-0.068978 0.076088 0.064980
0.329764 0.001861 -0.099652
0.296609 -0.063179 0.077438
-0.203166 -0.084353 -0.053120
0.423156 -0.008262 -0.099311
0.064967 0.087770 0.048068
0.409884 -0.022874 -0.096983
-0.331744 0.087405 -0.048355
0.007186 0.043787 0.089982
-0.268372 0.094704 -0.031830
-0.436167 -0.009983 -0.099148
-0.398069 0.096175 -0.027041
-0.218087 0.080781 -0.058721
0.062931 0.084597 0.053465
-0.076670 0.084240 0.054021
-0.285185 -0.002157 -0.099636
-0.053771 -0.095675 -0.027961
0.411387 0.067652 0.073741
0.455350 -0.096659 -0.024545
0.065740 -0.098251 0.017331
-0.118770 -0.079716 0.060156
0.199640 0.054770 -0.083389
0.179253 -0.010988 0.099416
0.337112 0.099799 0.006547
-0.253819 -0.090079 -0.042714
0.220742 -0.052502 -0.084692
0.303076 -0.087838 -0.047112
0.374442 -0.014020 -0.098663
0.319546 -0.051058 -0.085546
0.351312 -0.095843 0.027745
0.371639 0.000926 -0.099682
-0.284624 -0.098958 -0.012505
0.363541 -0.086501 -0.049489
0.111610 0.099959 -0.001291
-0.282788 0.099546 -0.008869
0.322889 -0.093174 -0.035432
-0.446980 -0.081719 -0.057025
-0.087822 0.079586 0.060625
0.111880 -0.092833 0.036743
0.265846 -0.032617 -0.094146
-0.075685 -0.090417 0.042362
-0.022965 -0.050756 -0.085724
-0.148428 0.047666 0.088006
-0.095577 0.046213 0.088747
0.321812 -0.089579 0.044059
0.356137 0.039961 0.091726
-0.394780 -0.066893 -0.073841
-0.209702 -0.008111 0.099688
-0.339191 0.081736 -0.057344
-0.370875 0.058875 0.080958
0.106981 0.008990 0.099627
0.172448 0.013745 0.099107
0.408767 0.030996 0.095177
-0.000958 0.071352 0.070140
0.051836 -0.002052 0.100002
-0.141776 -0.030371 -0.094928
-0.030539 -0.099715 0.001985
0.397261 0.078905 -0.061140
0.099943 0.056405 -0.082278
-0.371696 -0.016907 -0.098206
-0.442324 0.070170 -0.070959
-0.451762 -0.096263 -0.025935
0.447787 0.010290 -0.099141
0.163427 0.099912 -0.002773
0.407758 0.063123 0.077663
0.113333 0.097622 -0.021284
-0.383759 0.099302 0.011805
0.377250 -0.065802 -0.074803
0.343820 -0.017325 0.098503
-0.446663 0.028114 0.096015
0.297224 0.075353 0.065814
-0.366983 0.083424 0.055221
-0.033867 -0.095689 -0.027912
-0.133447 -0.078157 0.062167
-0.262502 0.034999 -0.093373
0.059794 -0.047891 0.087773
-0.438822 -0.093283 0.035492
-0.130767 0.098492 -0.016918
-0.081878 0.070425 -0.070705
-0.284504 0.031180 -0.094748
0.046604 0.035452 -0.093210
-0.129906 0.060232 -0.079542
-0.389180 -0.097290 -0.021724
0.034571 0.051052 -0.085688
-0.029236 0.023194 0.097326
0.244763 -0.089549 0.044117
-0.420654 -0.036257 -0.092836
-0.422223 -0.015744 -0.098390
-0.394937 0.099459 0.010147
-0.052247 -0.067360 0.073792
0.368239 -0.082893 -0.055297
-0.286661 0.087447 0.048645
0.227665 -0.097926 -0.018880
-0.466606 0.048900 0.087323
-0.038105 -0.046827 -0.087952
0.400247 0.089782 0.044119
0.297354 -0.068254 0.073004
-0.112304 0.092433 -0.037879
-0.419628 0.054985 -0.083243
0.187424 0.079990 -0.059742
-0.341134 0.028736 0.095834
0.095276 -0.098039 -0.018303
0.101994 0.099996 -0.000119
-0.459556 0.094248 0.033461
0.257411 0.080118 0.059939
0.165062 -0.099207 0.010347
-0.367658 -0.082984 -0.055164
-0.378487 -0.099443 -0.007489
-0.319654 -0.082031 -0.056565
0.207606 -0.097602 0.020692
0.439359 -0.016769 0.098591
-0.277010 0.003618 -0.099597
0.337468 -0.099103 0.011444
0.394997 -0.034190 0.093943
0.363012 -0.019688 0.098058
-0.110399 -0.050457 0.086264
-0.246781 -0.039187 -0.091597
-0.178399 0.046460 -0.088258
-0.131384 -0.082730 -0.055537
-0.178478 -0.093128 -0.035561
-0.271319 -0.047493 0.087975
0.253776 -0.067647 0.073539
0.227014 -0.055696 0.082964
0.188527 -0.060861 -0.078873
0.435029 0.082983 -0.055507
0.093637 -0.099080 -0.011327
0.170518 -0.085608 -0.050998
-0.052092 -0.010665 0.099447
0.227598 0.021957 -0.097240
0.039238 -0.099654 0.003945
0.272801 -0.099285 0.009521
0.295369 -0.044121 -0.089331
-0.064710 -0.075707 0.065148
-0.269792 0.034729 -0.093470
-0.200711 0.086001 -0.050728
0.113475 -0.093109 -0.035612
-0.148296 -0.088490 0.046197
-0.144372 0.067472 0.073899
0.322509 0.034687 0.093848
0.366299 -0.044431 -0.089172
-0.059394 0.012444 -0.098938
0.090488 -0.091778 0.039215
0.235613 -0.096582 0.025199
-0.154577 0.043902 -0.089561
-0.303894 0.061217 0.079142
-0.151588 0.091540 -0.039942
0.276449 -0.094554 0.031963
-0.321154 -0.097322 0.021941
0.372410 0.086607 0.050067
0.081625 0.050257 0.086521
0.237288 0.034679 -0.093488
0.368640 -0.025050 -0.096474
-0.150624 -0.019570 0.098084
0.149672 0.098932 -0.014139
0.234828 -0.084910 0.052541
-0.312129 0.047264 -0.087848
0.384265 0.055709 -0.082751
-0.219011 0.093256 0.036217
-0.317615 -0.049895 -0.086234
0.260329 -0.056471 0.082438
-0.428930 0.098539 -0.016620
0.150984 -0.079202 -0.060456
-0.047387 -0.073003 0.068214
0.255879 -0.097725 -0.019776
-0.073720 0.079030 0.061342
-0.199766 -0.099716 0.001969
0.035491 -0.047785 0.087826
0.217566 0.029050 0.095743
0.326958 0.099635 -0.007925
0.125428 -0.090492 -0.041825
0.180852 -0.010772 -0.099074
0.311779 0.099633 -0.007945
-0.352036 0.083273 -0.055082
0.424385 0.023060 0.097356
0.383916 -0.090935 0.041163
0.093428 -0.014013 -0.098665
-0.092849 -0.094550 0.031974
-0.073222 -0.080075 -0.059331
-0.032248 -0.070348 0.070911
0.424089 0.099887 0.003945
-0.466482 0.099220 -0.012311
0.401357 0.028895 0.095788
-0.026321 0.099600 0.008650
-0.129743 -0.074816 -0.065796
0.303780 -0.063290 0.077353
0.176011 -0.041711 -0.090505
-0.318876 0.042874 -0.090085
-0.125508 0.049316 0.087077
-0.036730 -0.099129 0.011166
-0.115056 0.020855 0.097849
0.397345 -0.055910 0.082819
0.227084 0.013005 -0.098861
-0.136699 0.031539 -0.094619
0.027462 0.044963 0.089383
0.292191 -0.098688 -0.014205
-0.451911 0.094697 -0.031852
-0.159592 -0.045238 -0.088761
-0.466651 0.024410 -0.096692
0.289331 -0.040166 -0.091173
0.033337 0.096679 -0.025307
0.378248 -0.005894 0.099881
0.414012 0.086953 -0.049119
-0.116409 -0.079139 -0.060538
-0.140917 0.054268 -0.083731
0.278653 -0.089227 0.044750
0.407885 0.001708 0.100020
-0.420883 0.036778 -0.092733
-0.070308 -0.093674 -0.034043
-0.129410 0.053562 0.084566
0.230958 0.093359 -0.035569
0.106798 0.048102 0.087784
0.246082 -0.039714 -0.091369
-0.450440 0.089004 -0.045282
-0.413595 0.079877 0.060249
-0.365390 -0.099577 -0.006016
0.365469 -0.099225 -0.009794
0.200648 0.012756 -0.098901
0.151934 -0.098674 0.014657
-0.178792 0.064229 0.076758
0.206172 -0.057346 -0.081480
0.403903 0.079502 0.060733
0.073588 0.052912 -0.084588
-0.453658 -0.035667 -0.093048
-0.374112 -0.087472 0.048193
0.374839 -0.054016 0.084106
-0.455243 0.080395 -0.059219
-0.246046 -0.046067 0.088702
-0.156401 0.026350 0.096527
0.168156 -0.056610 -0.081980
-0.281822 -0.040619 -0.090977
-0.144933 0.092908 -0.036782
-0.379110 -0.071106 -0.069790
0.084496 0.065711 0.075451
-0.367908 0.095410 0.030038
0.393501 0.089774 0.044133
-0.201078 0.072488 -0.068642
0.402103 -0.099246 -0.009565
0.418070 0.005335 0.099906
-0.313153 0.006030 0.099884
0.072960 0.079409 -0.060490
0.343307 0.088835 -0.045613
0.206310 0.060177 -0.079585
0.378693 0.096825 -0.024805
0.120195 -0.092525 -0.037127
-0.350902 0.076739 -0.063880
-0.170879 0.080064 0.060009
0.131940 -0.046053 -0.088346
0.142476 -0.093366 -0.034900
-0.429971 -0.043987 -0.089399
-0.051401 -0.025836 -0.096246
-0.052917 -0.099163 -0.010447
0.169836 -0.075705 -0.064788
-0.014992 -0.072375 0.068884
0.114407 -0.049517 0.086820
0.003593 0.006913 -0.099461
-0.206494 -0.090044 0.043147
-0.283622 0.084832 0.053067
-0.393269 -0.042542 0.090498
-0.349962 0.071746 0.069747
-0.382427 -0.045142 0.089173
-0.213935 0.067755 0.073650
-0.148135 0.041243 0.091171
-0.363096 0.058382 0.081297
-0.441288 -0.087813 -0.047161
0.148936 0.038912 0.092179
-0.424263 0.079896 -0.059862
-0.417217 0.041436 -0.090725
0.049209 0.098743 -0.015334
0.118802 -0.067313 0.073833
-0.346858 0.009723 0.099558
-0.427378 -0.065706 0.075250
0.460834 -0.048947 -0.086794
-0.356519 -0.056352 0.082518
0.186549 0.068066 -0.073013
0.281896 0.048289 -0.087322
-0.221417 0.038016 -0.092205
0.185130 0.089127 0.045403
-0.030848 0.094820 -0.031508
-0.114419 -0.087599 0.047944
0.025081 -0.081506 -0.057339
0.321688 0.059290 0.080636
0.028276 0.001239 0.100035
0.430292 -0.060402 0.079593
-0.308231 -0.056789 -0.081858
0.422862 -0.043967 0.089772
-0.313223 0.052595 -0.084775
-0.180705 -0.077343 0.063216
0.200485 -0.051924 -0.085034
0.165700 -0.096356 0.025978
0.099454 0.045258 0.089233
0.401667 0.002765 0.099987
-0.099096 0.092215 -0.038384
-0.345273 0.067147 -0.073823
0.439468 0.040789 0.091368
-0.253961 -0.060376 -0.079250
0.272055 -0.087725 0.047698
0.162300 0.020051 -0.097666
0.097746 -0.064402 0.076400
0.323339 0.078821 -0.061249
0.390729 -0.019529 -0.097730
0.246938 -0.083876 -0.053850
-0.460543 0.097990 -0.019636
-0.306250 0.081099 0.058643
0.259671 0.099919 0.002924
-0.280536 0.016903 -0.098244
-0.428746 -0.099595 -0.005446
-0.130583 -0.049361 -0.086550
-0.178099 0.020622 -0.097538
0.464651 -0.032647 0.094498
0.193272 0.070973 -0.070157
0.315186 -0.090471 0.042236
-0.181284 0.021012 0.097814
0.195657 -0.085747 0.051126
-0.267411 -0.086927 0.049130
0.297513 0.057952 0.081589
-0.135467 0.090859 0.041879
-0.234383 -0.071866 -0.069030
0.135205 0.058376 -0.080938
-0.014314 -0.028446 -0.095488
-0.047729 0.074059 -0.066919
-0.293092 -0.068385 0.072874
-0.033832 -0.085205 0.052043
-0.299698 0.092621 -0.037445
-0.006422 0.006634 -0.099487
-0.322420 0.096984 -0.024137
0.329871 0.050094 -0.086254
0.439017 -0.073169 -0.067664
-0.190772 -0.048719 0.087292
0.433039 0.044136 0.089805
0.262932 -0.068532 0.072727
-0.046333 0.033921 0.094124
-0.126025 0.077063 0.063874
-0.052346 0.059787 -0.079888
0.366690 0.072048 0.069444
0.157417 0.099771 -0.006479
-0.317643 -0.086511 0.049834
-0.400568 -0.085099 -0.051858
-0.416032 0.050423 0.086422
0.014217 0.058539 -0.080828
-0.041862 0.064205 0.076779
-0.404400 -0.031389 -0.094589
0.349545 -0.096352 -0.025629
-0.109541 -0.041339 0.091028
-0.427046 -0.004596 -0.099559
0.237781 -0.070605 -0.070291
-0.404269 -0.086114 0.050506
-0.226024 0.036667 0.093135
0.127740 0.042531 -0.090251
-0.357890 -0.021937 -0.097192
-0.403675 -0.050587 0.086188
0.465285 -0.046719 0.088370
0.420038 -0.092811 0.036805
-0.173962 -0.072503 0.068756
-0.192749 -0.016124 0.098693
-0.102618 -0.027684 0.096072
-0.425132 0.001989 -0.099648
-0.162178 0.073562 0.067846
0.351551 -0.084726 -0.052489
0.083584 0.098934 0.014491
-0.155973 -0.023249 -0.096899
-0.249773 0.041273 -0.090795
-0.354261 0.069755 -0.071374
-0.424954 -0.031480 -0.094556
0.061454 0.089757 -0.043804
-0.306447 0.041783 0.090937
-0.281176 0.098361 -0.017750
-0.123788 0.082666 -0.055975
-0.356559 -0.089446 -0.043957
-0.436597 -0.060544 0.079482
0.328852 0.084474 0.053674
0.124333 0.015781 0.098784
-0.297225 -0.097857 -0.019188
0.020506 0.010504 -0.099121
-0.071279 0.064107 0.076866
0.429448 0.076283 -0.064396
0.302911 0.036547 -0.092815
0.066552 0.099310 0.011728
0.122198 0.022792 0.097416
0.301751 0.097909 -0.019999
-0.169922 0.096868 -0.024654
-0.458251 -0.027901 -0.095646
-0.007131 -0.079280 0.060719
0.045645 0.003442 0.099965
0.031070 0.092118 0.038969
-0.061126 0.036356 -0.092884
-0.390569 0.027703 -0.095772
-0.372282 0.094583 -0.032167
-0.359952 -0.099647 0.004169
0.045194 -0.097320 0.021954
-0.024070 -0.099678 0.003176
-0.056630 0.051551 0.085756
0.224212 -0.037556 -0.092302
-0.425847 -0.093285 -0.035126
-0.079187 -0.084582 0.053096
-0.441849 0.092785 -0.037066
-0.077949 -0.058860 0.080788
-0.407865 0.070258 0.071234
-0.075414 -0.080862 0.058648
-0.433561 0.016159 0.098724
0.189499 0.061677 -0.078421
-0.278865 0.058072 0.081508
-0.326572 -0.070464 -0.070432
0.265342 -0.026175 -0.096148
0.388627 -0.087993 0.047171
0.047733 -0.060258 0.079704
0.432027 0.099233 -0.012180
0.262890 -0.099599 0.005690
0.298552 -0.098157 -0.017561
-0.345600 0.042035 0.090828
-0.347629 -0.026223 -0.096134
0.303104 0.061247 0.079118
0.395014 -0.094576 0.031902
-0.423292 0.059469 0.080497
0.404200 0.033869 -0.093780
-0.389490 -0.070778 0.070481
-0.357839 0.038579 -0.091961
-0.314956 0.087645 -0.047949
0.464777 -0.027501 -0.095762
-0.032912 0.058524 -0.080838
0.251699 -0.030134 -0.094997
0.410514 -0.095663 0.028363
-0.394840 -0.094612 0.031801
-0.018993 -0.034815 0.093718
0.181814 -0.097059 0.023122
0.066228 -0.084179 0.053767
0.222902 0.090658 -0.041980
0.234391 -0.010452 -0.099104
0.050486 0.086312 0.050565
-0.465882 -0.055417 0.083154
-0.130039 -0.097071 -0.022704
0.313487 0.062053 -0.078130
0.441131 -0.078253 -0.061680
-0.262971 -0.011662 0.099352
0.227644 0.019002 0.098263
-0.429200 0.089630 -0.044055
-0.011173 -0.012412 -0.098918
0.041930 0.048999 0.087264
-0.105442 -0.066927 -0.073811
0.048817 -0.070482 -0.070414
0.465284 -0.086580 -0.049354
-0.372269 0.037066 0.092978
-0.377425 -0.094901 -0.030624
0.095933 0.072365 0.069127
-0.253269 0.054373 -0.083659
-0.381244 -0.038303 -0.091979
-0.008317 0.069633 0.071859
0.326789 -0.096692 0.024760
-0.089378 -0.018424 0.098329
-0.443360 -0.050064 0.086497
-0.333927 -0.029309 -0.095237
0.068911 0.008942 0.099631
-0.273647 0.097959 -0.019777
0.446289 0.023889 0.097171
0.191921 -0.096466 -0.025238
0.334782 -0.053995 0.084120
0.014150 -0.007643 -0.099369
0.002772 -0.005806 0.099884
0.438397 -0.076468 0.064285
-0.020866 -0.055801 -0.082530
0.304851 0.077268 0.063613
0.194657 0.089678 -0.043960
0.434159 0.015790 -0.098420
0.041585 -0.093761 0.034164
-0.295027 0.088563 0.046512
-0.178311 0.013716 0.099111
0.434547 -0.004070 0.099938
0.216675 0.085552 0.051850
0.049398 0.054663 0.083825
0.214577 0.095011 -0.030979
0.401807 -0.014278 -0.098623
0.205269 0.091595 0.040179
0.010649 -0.073409 -0.067391
0.215660 -0.098226 -0.017125
-0.003909 0.050683 -0.085906
-0.091526 0.062059 -0.078126
0.064566 0.012249 -0.098956
0.336217 -0.099193 -0.010130
-0.373387 -0.054117 -0.083674
0.338453 0.050912 0.086133
-0.137804 0.048648 -0.087110
-0.434125 0.028416 0.095927
0.028642 -0.047830 -0.087441
-0.428653 -0.012359 0.099286
-0.329935 0.052526 0.085179
0.252838 -0.079793 0.060057
-0.226274 0.093211 0.036341
0.119643 0.084646 0.053382
-0.258866 0.097674 0.021412
0.064985 0.002527 0.099994
-0.296438 0.081450 -0.057764
0.155878 0.019133 -0.097871
-0.259103 0.055182 0.083472
0.152309 0.019350 0.098185
-0.012766 -0.004254 -0.099570
-0.050480 -0.025370 0.096744
-0.360870 0.021141 -0.097422
-0.451765 -0.029202 -0.095268
-0.462947 0.081879 -0.057133
-0.374326 -0.075630 0.065235
-0.308715 0.091619 0.040123
0.349028 0.080107 -0.059591
0.351820 -0.024775 -0.096554
0.415736 -0.073476 0.067679
-0.164925 -0.099685 0.002963
-0.339767 0.099233 -0.012176
-0.209390 0.019397 0.098175
-0.260838 -0.045194 -0.088784
0.370535 -0.089844 0.043538
-0.215701 0.028554 0.095887
-0.355008 -0.036868 -0.092600
0.133784 -0.092723 0.037032
0.431731 0.000023 -0.099704
0.100103 0.099796 -0.006221
0.376909 -0.068009 0.073220
0.045878 0.063025 -0.077376
0.324760 0.072732 -0.068397
0.356478 -0.060211 -0.079378
-0.173162 -0.046530 -0.088103
-0.326016 -0.092428 -0.037352
-0.434158 -0.095771 0.027992
0.431050 0.055871 -0.082641
0.439646 -0.035843 0.093348
0.297359 0.028054 -0.095670
-0.060542 -0.041206 0.091086
0.206182 -0.093642 -0.034134
-0.429822 0.085949 0.051179
0.296293 0.085022 -0.052384
0.256913 0.086963 0.049464
-0.184530 0.078888 0.061525
-0.047535 -0.092263 0.038096
0.214060 -0.086911 -0.048795
0.017053 0.087329 -0.048483
0.227173 -0.063105 0.077496
0.248339 -0.017787 0.098430
0.275804 -0.064625 -0.075840
0.135587 -0.049800 0.086653
0.207952 0.040407 -0.091170
0.183443 -0.082242 0.056618
0.199780 0.040593 0.091452
0.000228 0.037487 0.092796
0.080508 0.008254 -0.099334
-0.375740 -0.044533 -0.089121
0.063864 -0.073159 -0.067675
-0.055008 -0.092383 -0.037454
0.169811 0.058728 0.081062
-0.426358 -0.083900 -0.053816
-0.352405 0.032264 0.094720
-0.126432 -0.084652 -0.052615
0.115645 -0.071701 0.069558
-0.317161 0.076457 0.064562
0.191945 0.097540 0.022014
-0.417950 -0.032066 0.094707
0.456719 -0.093270 -0.035165
-0.087505 0.085026 -0.052377
0.202823 -0.023999 0.097094
0.232636 0.091204 0.041082
0.320675 -0.095728 -0.027778
-0.183757 0.090188 -0.042959
0.165284 0.099428 0.010479
0.407775 -0.074365 0.066671
0.021727 0.054463 -0.083598
-0.381614 -0.099720 -0.001473
-0.401822 0.099908 0.003289
-0.069426 -0.072424 0.068834
-0.092137 0.099478 -0.009585
0.099274 -0.082706 -0.055572
-0.458358 -0.049603 -0.086407
-0.390251 -0.035736 -0.093023
0.132811 0.050639 0.086295
-0.009441 0.053963 0.084300
-0.143322 0.092212 0.038753
-0.114710 0.001647 -0.099659
0.246870 0.098097 -0.019156
-0.404134 -0.060629 0.079416
0.124404 0.084458 -0.053337
-0.171387 0.096802 0.025247
-0.350514 -0.099134 -0.010757
0.211896 0.092869 -0.036873
-0.416883 -0.024826 0.096902
0.453294 -0.072478 0.068781
0.312120 -0.097738 -0.019717
0.087648 0.026840 0.096385
0.263334 0.095932 0.028241
-0.064988 -0.073312 -0.067502
0.214984 -0.096945 0.023629
0.365317 0.094266 0.033411
-0.053290 -0.040518 0.091384
-0.083143 -0.017756 -0.098072
-0.318126 -0.062437 0.078014
0.102613 -0.099760 0.000554
-0.113000 -0.099623 -0.004571
0.208889 0.099962 -0.001185
0.436583 0.075679 -0.065081
-0.334879 -0.083004 -0.055135
-0.256337 0.039624 0.091871
-0.216039 -0.031434 -0.094572
-0.251423 -0.007342 -0.099398
-0.281275 -0.082086 0.056847
-0.062647 -0.056449 0.082452
-0.212405 -0.024506 0.096981
-0.196463 0.099384 0.010942
0.285605 0.029566 -0.095230
-0.334845 0.032303 -0.094344
0.014692 0.067615 -0.073410
-0.159785 -0.099445 0.007824
0.418654 -0.098421 0.016256
-0.121724 0.090262 -0.042813
-0.098866 0.074363 0.066937
0.417686 -0.088527 0.046123
-0.383870 -0.018368 -0.097975
-0.403152 -0.032781 0.094450
-0.363700 0.076457 0.064562
0.391496 -0.042828 0.090352
-0.099854 -0.099612 -0.004896
0.430351 0.064310 0.076687
0.150754 0.057556 0.081859
0.142267 0.043042 -0.089999
0.342615 0.096568 0.026054
-0.010713 -0.095364 -0.029030
-0.161984 -0.072312 0.068947
-0.429135 0.057370 -0.081623
0.253815 0.066744 -0.074178
-0.223536 0.087250 -0.048616
0.129236 -0.075909 0.064919
0.387143 0.048988 -0.086908
0.159417 0.053952 0.084308
-0.280740 -0.096358 0.025973
-0.274094 -0.070888 0.070370
0.236304 -0.029254 0.095616
0.117627 -0.027084 0.096246
0.128766 0.094853 -0.031417
-0.184545 0.035088 -0.093341
-0.380713 -0.063146 0.077464
-0.149410 0.050554 -0.085982
0.325326 0.047766 0.087955
0.103582 0.098562 0.016837
0.143945 0.099355 0.011244
-0.155872 -0.002475 -0.099626
0.420059 -0.018528 0.098312
-0.112482 0.067069 -0.073891
-0.258246 -0.064583 0.076241
-0.125413 -0.067741 -0.073093
-0.171889 0.098232 0.018915
0.228981 0.087442 -0.048291
0.285940 -0.037122 0.092853
0.326942 -0.070472 0.070787
-0.386795 -0.039306 0.091908
0.193051 0.099392 0.010861
-0.350198 -0.064996 0.075876
0.134971 -0.094412 -0.031994
0.219624 0.047292 0.088197
-0.147628 0.055609 -0.082819
-0.221306 -0.060252 -0.079346
0.280776 0.090654 -0.041990
-0.428671 -0.098408 0.016338
0.451247 0.072439 -0.068690
0.320227 0.098164 -0.018859
0.032366 -0.053315 -0.084211
-0.392870 -0.019755 -0.097680
0.209162 -0.032593 0.094518
0.003799 -0.084814 -0.052341
-0.009743 -0.065543 -0.075031
-0.230422 -0.082001 0.056973
-0.136985 0.080962 0.058845
-0.309847 0.071929 0.069563
0.153457 -0.099273 -0.009282
-0.115743 0.089843 -0.043636
-0.189115 -0.022713 -0.097019
-0.367889 -0.090559 -0.041670
0.165814 -0.017649 0.098451
-0.426513 -0.096756 -0.024114
0.405224 0.096604 -0.025566
-0.125420 0.094814 0.031888
0.337009 -0.065493 0.075438
-0.059396 0.096320 -0.026545
-0.271146 0.092720 0.037580
-0.404895 0.097278 -0.022823
-0.233937 -0.014865 -0.098530
0.268205 -0.097650 -0.020113
0.212769 0.024089 -0.096763
-0.068109 0.048684 -0.087088
0.330633 0.097123 0.023878
-0.191999 -0.098119 -0.017801
0.106808 -0.009010 -0.099240
-0.003746 -0.077549 -0.062587
-0.308690 -0.074744 -0.065877
0.153255 0.050764 0.086221
0.346111 -0.002225 -0.099634
-0.179087 0.040452 -0.091150
0.260917 0.068680 0.072813
-0.115758 -0.030611 0.095222
-0.310180 0.023221 0.097320
-0.225464 0.098579 -0.016368
-0.176373 -0.026680 -0.096001
0.100833 0.084959 -0.052491
0.352265 0.071057 -0.070072
0.294530 0.072216 -0.068913
-0.193577 -0.090036 -0.042799
0.379218 -0.008368 -0.099301
0.394586 0.051446 -0.085455
-0.096032 -0.084502 0.053231
0.121211 -0.044842 -0.088963
0.272665 0.089744 0.044193
0.080026 0.093144 0.036527
0.018013 0.078181 -0.062074
-0.134201 0.054349 -0.083675
0.228467 0.068256 0.073208
-0.306019 0.095942 0.028206
0.004318 0.019258 -0.097843
0.144693 -0.058044 -0.081006
-0.232865 0.099861 0.004766
0.366746 -0.069746 0.071513
0.263573 0.097744 0.021102
-0.143181 -0.099724 -0.001347
-0.348754 -0.091165 0.040633
-0.053881 -0.073282 0.067899
-0.330893 -0.034076 0.093984
0.146459 -0.084545 -0.052795
0.326745 -0.081880 -0.056787
0.207553 -0.097528 -0.020657
-0.367034 -0.014115 0.099011
0.386678 -0.047800 0.087819
0.062356 0.060607 -0.079251
0.383364 0.072052 0.069441
0.367040 -0.005307 0.099900
-0.313539 0.004858 -0.099558
-0.156092 0.074471 -0.066452
-0.323429 0.099612 -0.008164
0.348022 0.099733 0.007249
0.306235 -0.077454 -0.062710
-0.422180 -0.076417 0.064343
-0.053255 0.075613 0.065520
-0.092571 -0.016812 -0.098221
-0.443081 0.078602 -0.061531
0.134442 0.015307 -0.098496
-0.269137 0.057385 0.081974
0.425278 -0.067087 0.074033
0.179340 -0.095110 -0.029906
0.444440 0.080587 0.059335
0.355055 0.098950 0.014390
-0.102255 -0.085226 0.052007
0.184498 -0.070294 0.070964
0.320197 0.068443 -0.072680
0.318494 -0.096275 0.026258
0.315784 -0.094039 -0.033031
-0.047020 -0.051185 0.085833
-0.446835 0.098904 -0.014320
-0.170067 -0.070654 -0.070242
0.084501 0.037356 0.092853
0.403090 0.099966 0.001423
0.073746 -0.098511 -0.015325
-0.436116 -0.043864 -0.089462
-0.298080 -0.040627 0.091336
