0.465339 -0.043655 0.080302
0.465339 -0.035502 0.082132
0.465339 0.020566 0.036049
0.465339 0.091822 0.019220
0.465339 -0.008668 -0.036700
0.465339 -0.019280 0.000326
0.465339 -0.014591 0.079749
0.465339 0.078078 -0.043478
0.465339 -0.049735 0.027262
0.465339 -0.066650 0.035904
0.465339 -0.047581 0.001141
0.465339 -0.010035 -0.000073
0.465339 0.078069 0.062482
0.465339 0.062372 -0.007916
0.465339 -0.001282 0.042907
0.465339 0.021407 -0.063335
0.465339 0.034847 -0.053090
0.465339 0.003364 -0.091360
0.465339 -0.013482 0.010225
0.465339 -0.018886 0.041993
0.465339 -0.028298 -0.025403
0.465339 -0.076363 0.031641
0.465339 -0.078465 0.020085
0.465339 0.024747 -0.075496
0.465339 -0.072252 -0.023267
0.465339 0.086839 -0.040466
0.465339 0.012700 0.025421
0.465339 -0.018267 -0.064582
0.465339 -0.041721 -0.087171
0.465339 0.027082 0.060897
0.465339 0.023913 -0.072383
0.465339 -0.016421 0.042403
0.465339 -0.051447 0.061406
0.465339 -0.020300 0.081187
0.465339 0.002960 0.043174
0.465339 0.059971 -0.045219
0.465339 -0.062682 -0.024859
0.465339 -0.043743 0.048004
0.465339 0.062410 0.020403
0.465339 0.045592 -0.077645
0.465339 0.017189 -0.062809
0.465339 0.036448 0.028479
0.465339 0.003554 0.082675
0.465339 0.016325 0.048795
0.465339 0.089621 0.008888
0.465339 -0.073545 -0.066223
0.465339 -0.027288 0.081902
0.465339 -0.063546 0.006349
0.465339 0.050817 -0.005647
0.465339 -0.043349 0.053277
0.465339 -0.028709 -0.064530
0.465339 0.044637 0.035294
0.465339 0.022612 -0.015924
0.465339 0.029822 -0.035511
0.465339 0.062176 -0.003541
0.465339 -0.010566 0.079760
0.465339 -0.032462 -0.014097
0.465339 -0.067568 0.066538
0.465339 0.078868 0.029870
0.465339 -0.068499 0.017624
0.465339 0.034805 0.022322
0.465339 0.009580 0.063874
0.465339 -0.035782 0.089169
0.465339 0.009175 -0.066412
0.465339 -0.019945 -0.091206
0.465339 0.009090 -0.007259
0.465339 -0.000418 -0.033761
0.465339 -0.006509 -0.024831
0.465339 0.007593 -0.011118
0.465339 -0.069478 -0.050412
0.465339 -0.043821 -0.073133
0.465339 -0.046612 -0.048391
0.465339 -0.010763 0.098474
0.465339 -0.017472 0.011389
0.465339 -0.051205 -0.052169
0.465339 0.027054 0.003222
0.465339 -0.020547 0.007058
0.465339 -0.044003 0.042631
0.465339 0.070376 0.007962
0.465339 -0.058177 -0.031423
0.465339 0.042490 0.085007
0.465339 0.000907 0.087177
0.465339 -0.005845 0.044144
0.465339 0.015661 -0.077416
0.465339 -0.015093 0.093525
0.465339 0.091514 -0.008643
0.465339 -0.045498 0.077036
0.465339 0.039823 0.078655
0.465339 0.062539 -0.077705
0.465339 0.022460 0.086005
0.465339 -0.062338 0.034785
0.465339 0.064281 -0.048743
0.465339 0.071988 -0.032093
0.465339 -0.016341 0.073015
0.465339 -0.050903 0.078146
0.465339 -0.025315 -0.028754
0.465339 -0.005252 0.039755
0.465339 -0.055507 -0.052883
0.465339 -0.055354 0.079146
0.465339 -0.043813 0.012577
0.465339 -0.037758 0.008701
0.465339 -0.028612 0.044386
0.465339 0.010245 0.047570
0.465339 -0.060617 -0.056836
0.465339 0.009588 -0.056940
0.465339 -0.070931 -0.015310
0.465339 -0.068271 0.020613
0.465339 0.018701 0.041163
0.465339 -0.058982 -0.013735
0.465339 -0.083247 0.021163
0.465339 -0.002556 -0.099567
0.465339 -0.021000 -0.020802
0.465339 0.055957 -0.054416
0.465339 -0.058077 0.046469
0.465339 0.078329 0.023690
0.465339 0.068954 0.011791
0.465339 0.036832 0.014132
0.465339 -0.067627 0.032660
0.465339 0.016313 -0.095957
0.465339 0.043976 -0.058135
0.465339 0.049447 -0.066401
0.465339 0.006853 -0.027669
0.465339 -0.022088 0.002210
0.465339 -0.039972 0.003101
0.465339 -0.002652 0.009968
0.465339 0.041037 0.010318
0.465339 0.040486 0.045132
0.465339 0.023718 -0.043298
0.465339 0.064683 0.008191
0.465339 0.028200 -0.027485
0.465339 0.055044 0.011171
0.465339 -0.013808 0.028806
0.465339 -0.035513 -0.001479
0.465339 -0.062158 0.015261
0.465339 0.060110 -0.050255
0.465339 -0.081274 0.009020
0.465339 -0.003431 -0.083106
0.465339 0.050838 -0.071001
0.465339 0.046935 -0.074217
0.465339 0.008605 -0.061260
0.465339 0.033479 0.012283
0.465339 0.039483 0.005343
0.465339 0.082073 0.031007
0.465339 0.029793 -0.081460
0.465339 0.002197 -0.015361
0.465339 -0.042244 0.000130
0.465339 -0.000632 -0.038225
0.465339 0.085257 0.047096
0.465339 0.040052 -0.040397
0.465339 -0.042832 0.035944
0.465339 0.055831 0.004413
0.465339 0.036215 0.026901
0.465339 0.039383 0.034135
0.465339 -0.035706 -0.070038
0.465339 0.031309 0.026133
0.465339 -0.034393 0.039419
0.465339 0.060012 0.034845
0.465339 0.068743 -0.043534
0.465339 0.037792 -0.073592
0.465339 0.035327 -0.051415
0.465339 0.071564 0.067079
0.465339 -0.060130 -0.051743
0.465339 0.019382 0.034859
0.465339 -0.038261 -0.009121
0.465339 0.093500 0.019870
0.465339 0.019036 -0.015876
0.465339 0.008509 0.005952
0.465339 -0.021139 -0.040704
0.465339 -0.014667 -0.095311
0.465339 0.069867 -0.021691
0.465339 -0.057174 0.045303
0.465339 0.078300 0.006013
0.465339 0.017155 0.063445
0.465339 -0.057298 0.065623
0.465339 0.008151 0.001368
0.465339 -0.025225 0.035624
0.465339 -0.054874 0.061842
0.465339 0.049093 0.040606
0.465339 -0.062199 0.058560
0.465339 0.024754 0.068989
0.465339 0.044933 0.016400
0.465339 0.034693 -0.042533
0.465339 -0.027719 -0.039178
0.465339 -0.055463 -0.061017
0.465339 -0.086779 -0.044157
0.465339 -0.060313 0.059630
0.465339 -0.011217 -0.058011
0.465339 -0.037058 0.017077
0.465339 -0.025475 -0.048063
0.465339 -0.037530 0.040274
0.465339 0.001120 0.097251
0.465339 0.027069 -0.079314
0.465339 -0.037683 0.092281
0.465339 0.040062 -0.084237
0.465339 0.074073 -0.041057
0.465339 -0.015993 0.016329
0.465339 -0.052932 -0.018654
0.465339 0.013426 -0.066882
0.465339 0.071316 -0.036279
0.465339 -0.011518 -0.083256
0.465339 -0.022042 0.095856
0.465339 0.044036 -0.051363
0.465339 0.067473 -0.033461
0.465339 -0.054022 0.030935
0.465339 -0.020756 0.092057
0.465339 -0.011484 0.056917
0.465339 -0.063801 -0.014736
0.465339 0.014062 -0.077772
0.465339 -0.027787 0.095182
0.465339 -0.046229 -0.042447
0.465339 0.027375 0.094901
0.465339 0.072202 -0.055935
0.465339 0.092186 -0.006356
0.465339 -0.091941 0.016006
0.465339 0.005640 0.049713
0.465339 0.004159 0.055318
0.465339 -0.013944 -0.085417
0.465339 -0.009972 -0.031579
0.465339 -0.048653 0.040887
0.465339 -0.058839 0.008823
0.465339 -0.055939 0.069284
0.465339 -0.054092 -0.078654
0.465339 0.040898 -0.085395
0.465339 -0.014069 0.039673
0.465339 0.024549 -0.086480
0.465339 -0.008883 -0.047204
0.465339 -0.005822 -0.094089
0.465339 -0.072567 0.048564
0.465339 -0.080044 0.028488
0.465339 0.066371 -0.065822
0.465339 0.068658 0.052536
0.465339 -0.043627 -0.007129
0.465339 0.014220 0.042300
0.465339 -0.053641 0.076152
0.465339 -0.026793 -0.052445
0.465339 0.063347 -0.059166
0.465339 -0.011319 -0.093570
0.465339 0.012118 0.048592
0.465339 0.019649 0.007039
0.465339 0.015594 -0.085303
0.465339 0.067823 -0.016620
0.465339 -0.032490 0.051585
0.465339 0.013570 0.037126
0.465339 0.032314 -0.031483
0.465339 0.009136 -0.003102
0.465339 0.009051 -0.077214
0.465339 -0.021745 -0.071429
0.465339 0.035289 0.032329
0.465339 0.003764 -0.065564
0.465339 -0.023189 -0.052432
0.465339 -0.085352 0.048520
0.465339 -0.038613 0.076853
0.465339 -0.001785 -0.048245
0.465339 0.042893 0.018650
0.465339 0.044044 0.012916
0.465339 -0.046224 -0.071840
0.465339 0.001297 -0.036312
0.465339 -0.028360 0.058598
0.465339 -0.034293 -0.014841
0.465339 -0.054554 -0.055138
0.465339 -0.027683 0.037123
0.465339 0.061118 0.009759
0.465339 0.073838 0.057348
0.465339 0.022046 -0.029442
0.465339 0.073661 -0.043508
0.465339 -0.008407 0.014872
0.465339 -0.066927 -0.062473
0.465339 0.043873 -0.012201
0.465339 0.057834 -0.061477
0.465339 0.029492 0.072957
0.465339 -0.044600 0.024759
0.465339 -0.030560 0.042712
0.465339 -0.095709 0.007285
0.465339 -0.012104 -0.048937
0.465339 -0.013725 -0.024191
0.465339 -0.004333 -0.059291
0.465339 -0.059944 0.017838
0.465339 0.056739 -0.062745
0.465339 0.029539 0.004669
0.465339 0.010876 -0.027799
0.465339 0.033549 0.075087
0.465339 0.033883 -0.071722
0.465339 -0.045948 0.087526
0.465339 -0.039077 0.010059
0.465339 0.028560 -0.058213
0.465339 -0.058177 -0.071395
0.465339 -0.082377 0.055426
0.465339 0.079446 0.005231
0.465339 -0.009413 0.063575
0.465339 0.017002 0.061562
0.465339 -0.004167 -0.044423
0.465339 0.070643 -0.009139
0.465339 0.049123 0.062956
0.465339 -0.001838 0.011257
0.465339 0.042990 -0.075425
0.465339 -0.028886 -0.091454
0.465339 -0.075026 -0.022507
0.465339 -0.036175 -0.081420
0.465339 0.000492 -0.082401
0.465339 -0.064639 -0.045996
0.465339 0.001598 0.070691
0.465339 -0.006874 -0.074104
0.465339 -0.000610 -0.059923
0.465339 -0.010154 -0.068700
0.465339 -0.053121 0.061992
0.465339 0.081752 0.016670
0.465339 0.010826 -0.050148
0.465339 -0.071629 0.065307
0.465339 0.028003 0.033456
0.465339 -0.056964 -0.021344
0.465339 -0.045701 0.065634
0.465339 -0.038924 -0.050275
0.465339 0.082401 0.035187
0.465339 0.006225 -0.045316
0.465339 0.012053 0.061516
0.465339 -0.056381 0.009900
0.465339 0.096904 0.018908
0.465339 -0.005274 -0.040544
0.465339 0.040090 0.049997
0.465339 -0.074959 -0.050018
0.465339 -0.076440 -0.006462
0.465339 -0.091618 -0.000182
0.465339 -0.071150 -0.032994
0.465339 0.051521 0.069537
0.465339 0.072705 0.038936
0.465339 -0.050711 -0.025323
0.465339 0.060408 -0.073454
0.465339 -0.070935 -0.049439
0.465339 -0.033496 0.002619
0.465339 0.065588 0.021429
0.465339 0.019278 -0.079600
0.465339 0.074089 -0.002472
0.465339 -0.082928 0.011286
0.465339 0.072510 -0.052138
0.465339 0.008451 -0.049978
0.465339 0.003882 -0.067584
0.465339 0.011315 -0.013782
0.465339 -0.064109 -0.048725
0.465339 0.025446 0.016143
0.465339 0.011433 -0.008122
0.465339 0.058827 -0.058259
0.465339 -0.086961 0.018860
0.465339 0.047290 -0.068283
0.465339 0.040017 -0.033813
0.465339 -0.026083 0.025353
0.465339 0.041813 0.072029
0.465339 0.071836 0.037682
0.465339 -0.000775 -0.011318
0.465339 0.031220 0.080237
0.465339 0.008274 -0.038306
0.465339 -0.017882 -0.089657
0.465339 -0.026341 -0.011480
0.465339 0.007731 0.024311
0.465339 -0.018210 -0.027390
0.465339 0.017621 0.017236
0.465339 -0.021501 -0.005003
0.465339 0.041719 -0.031020
0.465339 -0.056492 -0.014390
0.465339 -0.044738 -0.034740
0.465339 0.056404 0.061411
0.465339 -0.035568 -0.025389
0.465339 -0.013825 0.070731
0.465339 -0.092743 0.036420
0.465339 0.064164 0.046158
0.465339 0.024257 0.063128
0.465339 0.026535 -0.026985
0.465339 0.039368 0.016460
0.465339 -0.043280 -0.001458
0.465339 -0.073441 -0.058792
0.465339 0.020364 -0.081880
0.465339 0.074081 0.024459
0.465339 -0.020439 0.044211
0.465339 0.021317 -0.011570
0.465339 0.039680 0.061055
0.465339 0.013402 -0.051063
0.465339 0.027431 0.084665
0.465339 0.052114 0.068211
0.465339 -0.084740 -0.040040
0.465339 0.069644 0.021667
0.465339 -0.020817 -0.023831
0.465339 -0.025463 0.067773
0.465339 0.029074 0.077004
0.465339 0.093721 -0.021787
0.465339 -0.010798 0.027791
0.465339 -0.035294 0.047447
0.465339 -0.063868 0.056458
0.465339 0.021037 -0.028299
0.465339 0.086126 0.032710
0.465339 0.096718 0.003747
0.465339 -0.017500 0.051674
0.465339 -0.008458 -0.014327
0.465339 0.065060 0.030086
0.465339 -0.057589 0.011532
0.465339 0.033052 0.089545
0.465339 0.033629 -0.088076
0.465339 -0.037929 -0.038845
0.465339 -0.048970 -0.083735
0.465339 -0.019587 -0.086584
0.465339 0.038600 0.004098
0.465339 0.013032 -0.061518
0.465339 0.003622 -0.078320
0.465339 -0.044450 -0.081596
0.465339 -0.038184 0.060655
0.465339 -0.048915 0.030655
0.465339 0.045423 -0.030786
0.465339 0.060654 0.026367
0.465339 -0.008227 -0.066891
0.465339 -0.084646 -0.002744
0.465339 0.005936 -0.091263
0.465339 0.048950 -0.050745
0.465339 0.065474 -0.024966
0.465339 0.042104 -0.063397
0.465339 -0.002567 -0.015274
0.465339 -0.021757 -0.028701
0.465339 -0.042290 0.089120
0.465339 0.090435 0.018304
0.465339 -0.010914 -0.051922
0.465339 0.027639 0.029047
0.465339 -0.057111 -0.019069
0.465339 -0.084270 -0.020037
0.465339 -0.014146 0.052529
0.465339 -0.081229 -0.007282
0.465339 0.007458 -0.053139
0.465339 0.011031 -0.089516
0.465339 -0.003609 0.012911
0.465339 -0.006556 0.036363
0.465339 -0.074841 -0.005608
0.465339 0.015677 0.079962
0.465339 -0.077960 -0.014984
0.465339 0.038551 0.075011
0.465339 -0.058802 -0.070086
0.465339 0.063634 0.072880
0.465339 0.078361 0.047000
0.465339 0.029567 -0.069495
0.465339 0.056194 0.067135
0.465339 -0.027687 -0.061790
0.465339 -0.061841 0.038108
0.465339 -0.026700 -0.031586
0.465339 0.050319 -0.033371
0.465339 -0.021051 -0.059162
0.465339 -0.052096 -0.053323
0.465339 0.092706 0.025937
0.465339 -0.018579 0.085012
0.465339 -0.086029 0.045010
0.465339 -0.058527 0.041591
0.465339 -0.054893 0.010868
0.465339 -0.044516 -0.075745
0.465339 0.016266 0.017937
0.465339 -0.012655 -0.050991
0.465339 0.019722 0.053562
0.465339 0.056434 0.009701
0.465339 0.011724 -0.032455
0.465339 -0.007575 0.037670
0.465339 -0.064635 -0.004102
0.465339 -0.041332 0.002443
0.465339 -0.008276 -0.011918
0.465339 -0.067993 0.009698
0.465339 0.001710 -0.089684
0.465339 0.012211 -0.098924
0.465339 -0.017384 0.088189
0.465339 0.069155 0.049108
0.465339 -0.044524 -0.050024
0.465339 0.069252 0.047389
0.465339 -0.020543 -0.029601
0.465339 -0.020180 0.024670
0.465339 -0.043074 0.027948
0.465339 -0.012579 -0.017846
0.465339 0.011995 -0.097320
0.465339 0.077831 0.025327
0.465339 -0.021827 0.030255
0.465339 -0.072382 0.021928
0.465339 -0.064814 -0.050103
0.465339 -0.032033 0.072777
0.465339 -0.011899 -0.068442
0.465339 -0.013153 -0.016334
0.465339 -0.093394 -0.030638
0.465339 -0.041471 -0.055528
0.465339 0.037203 -0.007649
0.465339 -0.016959 0.097764
0.465339 0.040030 0.008890
0.465339 0.029993 -0.029317
0.465339 -0.015216 0.010008
0.465339 0.040392 -0.042415
0.465339 0.010566 0.087512
0.465339 -0.049742 0.033673
0.465339 -0.004989 -0.011335
0.465339 -0.045970 0.006097
0.465339 0.076956 0.053647
0.465339 0.083419 -0.015059
0.465339 0.089953 -0.035478
0.465339 0.064781 -0.009263
0.465339 -0.017432 -0.035106
0.465339 -0.034002 -0.063109
0.465339 -0.005370 -0.057581
0.465339 -0.078315 -0.019147
0.465339 0.065840 0.000433
0.465339 -0.001255 0.034573
0.465339 -0.077972 0.058632
0.465339 0.026704 -0.059808
0.465339 0.004448 -0.008972
0.465339 -0.040041 0.057178
0.465339 -0.038362 0.037756
0.465339 -0.094839 0.015467
0.465339 -0.019948 -0.065057
0.465339 -0.023474 0.048430
0.465339 0.071519 0.017747
0.465339 0.011528 -0.012322
0.465339 0.031148 -0.052930
0.465339 -0.031870 0.033222
0.465339 -0.044382 -0.028969
0.465339 0.036234 -0.064558
0.465339 0.097216 0.013073
0.465339 -0.033940 0.060742
0.465339 -0.013998 -0.061883
0.465339 -0.002238 0.040347
0.465339 -0.007469 -0.037868
0.465339 0.031619 -0.080933
0.465339 -0.069527 0.002462
0.465339 -0.043974 0.089014
0.465339 0.099676 0.006375
0.465339 0.080683 0.029267
0.465339 0.034927 0.086967
0.465339 -0.075237 0.039302
0.465339 0.023388 0.038932
0.465339 -0.038058 -0.018786
0.465339 -0.008726 -0.003129
0.465339 0.035293 0.059348
0.465339 -0.018535 -0.055352
0.465339 0.068192 0.014461
0.465339 -0.006768 -0.077225
0.465339 -0.091487 -0.009857
0.465339 -0.070030 0.058060
0.465339 0.030781 0.001884
0.465339 -0.058319 0.075186
0.465339 0.054669 -0.072679
0.465339 0.073213 0.005300
0.465339 0.051874 0.078625
0.465339 -0.051458 -0.080076
0.465339 0.049638 0.001898
0.465339 0.005897 -0.076934
0.465339 0.076550 -0.003973
0.465339 -0.044065 -0.031944
0.465339 0.069620 0.042278
0.465339 0.057072 -0.045148
0.465339 0.070359 0.034677
0.465339 -0.032090 0.087760
0.465339 0.083622 -0.012237
0.465339 -0.067116 -0.019956
0.465339 -0.018439 0.036043
0.465339 0.011196 0.059204
0.465339 0.033108 -0.022557
0.465339 0.004448 0.099850
0.465339 0.011978 -0.021594
0.465339 0.048047 -0.060844
0.465339 -0.029897 0.088320
0.465339 -0.009980 0.095448
0.465339 -0.041978 0.054756
0.465339 0.006750 -0.019508
0.465339 -0.042522 0.031483
0.465339 0.058248 0.031340
0.465339 -0.014014 -0.063386
0.465339 0.036988 -0.052337
0.465339 0.044533 -0.086866
0.465339 -0.061742 -0.021130
0.465339 0.067943 0.021656
0.465339 -0.019206 0.037454
0.465339 -0.085474 -0.029381
0.465339 0.025882 -0.078234
0.465339 0.081245 0.043007
0.465339 -0.006308 -0.036931
0.465339 -0.052372 0.020050
0.465339 0.050385 -0.072840
0.465339 0.044436 0.062413
0.465339 0.008348 0.076864
0.465339 0.011576 0.029324
0.465339 0.019903 -0.023993
0.465339 -0.020387 0.084315
0.465339 -0.058814 -0.040927
0.465339 -0.007998 0.072259
0.465339 0.047555 0.009137
0.465339 0.006291 -0.022532
0.465339 -0.034153 -0.045283
0.465339 0.066419 -0.006747
0.465339 0.012575 0.055052
0.465339 0.036945 0.038716
0.465339 -0.057892 0.080987
0.465339 0.064951 0.038728
0.465339 0.052607 -0.024890
0.465339 -0.087818 -0.014497
0.465339 0.028292 0.087166
0.465339 -0.047152 0.072621
0.465339 0.075662 0.003288
0.465339 -0.061577 -0.031216
0.465339 0.086136 0.016825
0.465339 0.003606 0.068084
0.465339 0.010900 0.033835
0.465339 -0.042460 0.037855
0.465339 0.036875 0.089118
0.465339 -0.024868 0.085932
0.465339 -0.033363 0.048001
0.465339 0.056439 -0.037697
0.465339 -0.050995 -0.000015
0.465339 -0.055338 0.045427
0.465339 0.037228 -0.085492
0.465339 -0.066334 0.069574
0.465339 0.020065 0.068165
0.465339 0.059730 0.057324
0.465339 0.066872 0.053456
0.465339 0.012424 0.012765
0.465339 -0.027366 -0.026662
0.465339 -0.039190 -0.089532
0.465339 -0.043933 -0.088418
0.465339 0.044144 -0.077782
0.465339 -0.083278 -0.050350
0.465339 0.075180 -0.003762
0.465339 -0.002875 0.020752
0.465339 0.036820 -0.053982
0.465339 -0.034826 0.020976
0.465339 -0.020284 -0.097392
0.465339 0.031092 0.094587
0.465339 -0.076698 0.039969
0.465339 -0.055154 -0.074455
0.465339 0.046199 -0.087065
0.465339 -0.059636 -0.024592
0.465339 0.038043 0.034511
0.465339 0.098656 0.011163
0.465339 0.017803 -0.002598
0.465339 -0.076536 0.016471
0.465339 0.059514 -0.009644
0.465339 -0.073246 -0.020810
0.465339 0.046059 -0.000921
0.465339 0.077919 0.010906
0.465339 0.002433 -0.073387
0.465339 -0.028780 0.033338
0.465339 -0.082668 -0.038097
0.465339 -0.055595 -0.033861
0.465339 -0.046706 -0.080678
0.465339 -0.042312 -0.038991
0.465339 -0.072100 0.056395
0.465339 0.054918 -0.005732
0.465339 0.030210 -0.037093
0.465339 -0.068156 -0.018806
0.465339 -0.018299 0.055363
0.465339 0.016108 -0.043338
0.465339 -0.078000 -0.035947
0.465339 -0.046776 0.084159
0.465339 -0.067878 -0.011897
0.465339 0.082923 0.046062
0.465339 -0.026091 -0.082002
0.465339 -0.012628 -0.084331
0.465339 0.079814 -0.043162
0.465339 -0.027268 0.088059
0.465339 -0.035461 -0.066373
0.465339 0.000667 0.065520
0.465339 0.034548 0.014898
0.465339 -0.095303 -0.018851
0.465339 -0.077713 0.035129
0.465339 0.056718 0.011283
0.465339 0.015057 0.098297
0.465339 -0.070490 0.030787
0.465339 -0.005536 0.059868
0.465339 0.020615 -0.086376
0.465339 -0.067837 0.037146
0.465339 -0.092396 0.019055
0.465339 -0.037044 0.007037
0.465339 -0.039657 -0.055746
0.465339 -0.015038 0.023570
0.465339 0.047064 -0.002911
0.465339 0.076370 0.022656
0.465339 -0.087637 0.004342
0.465339 -0.065659 -0.002884
0.465339 0.094173 0.005841
0.465339 0.032487 -0.084191
0.465339 -0.070284 0.013807
0.465339 0.010597 0.077399
0.465339 0.042111 0.039010
0.465339 0.090201 -0.020747
0.465339 0.062926 -0.012012
0.465339 0.016291 -0.040507
0.465339 -0.043698 -0.085485
0.465339 0.029604 -0.043986
0.465339 -0.080586 0.043482
0.465339 0.052737 -0.049804
0.465339 0.004377 -0.073709
0.465339 -0.032658 0.050029
0.465339 0.017122 -0.067455
0.465339 0.083281 0.003356
0.465339 -0.014923 0.014765
0.465339 0.084860 -0.051525
0.465339 0.043498 -0.005859
0.465339 -0.080775 -0.057363
0.465339 0.048568 -0.057121
0.465339 0.064715 -0.040665
0.465339 -0.043443 -0.057316
0.465339 0.042861 -0.073711
0.465339 -0.061635 0.056599
0.465339 -0.023738 0.067286
0.465339 -0.045022 -0.007821
0.465339 -0.066772 0.020014
0.465339 -0.002859 0.073271
0.465339 0.029800 -0.027501
0.465339 0.073796 -0.028676
0.465339 -0.068941 -0.013135
0.465339 -0.031049 -0.068841
0.465339 0.036707 -0.014513
0.465339 0.023292 -0.087088
0.465339 0.062251 -0.070970
0.465339 0.028464 0.063401
0.465339 -0.033382 0.078411
0.465339 0.085662 0.014114
0.465339 -0.065710 -0.015273
0.465339 0.002848 -0.081078
0.465339 0.024355 0.084596
0.465339 0.071943 -0.066206
0.465339 0.071193 -0.010915
0.465339 0.002447 0.091325
0.465339 -0.036983 -0.032854
0.465339 0.083247 0.027240
0.465339 0.093820 -0.033194
0.465339 0.052061 -0.068362
0.465339 -0.014780 -0.047523
0.465339 0.087682 -0.037397
0.465339 -0.096022 0.009823
0.465339 0.031353 -0.041763
0.465339 0.048170 0.070141
0.465339 -0.045479 0.023393
0.465339 0.040196 -0.003462
0.465339 -0.006798 -0.067086
0.465339 0.063829 0.014019
0.465339 -0.059978 -0.071765
0.465339 -0.065878 0.018348
0.465339 -0.040028 0.009107
0.465339 0.047352 0.075363
0.465339 -0.032231 0.037715
0.465339 -0.027833 0.040830
0.465339 -0.037858 -0.047238
0.465339 -0.086620 -0.018016
0.465339 0.007673 0.014882
0.465339 -0.031963 0.023294
0.465339 0.046016 0.052928
0.465339 0.042831 0.070723
0.465339 -0.060464 0.048597
0.465339 0.017140 -0.026931
0.465339 -0.075090 -0.041870
0.465339 -0.008284 0.042531
0.465339 0.028024 0.005287
0.465339 0.085925 -0.020743
0.465339 0.010718 -0.052216
0.465339 -0.060247 0.075968
0.465339 0.061626 0.011578
0.465339 -0.088825 0.008235
0.465339 -0.050614 -0.046540
0.465339 -0.005368 0.068773
0.465339 -0.024580 0.079724
0.465339 0.014907 -0.060157
0.465339 0.070881 -0.041559
0.465339 -0.046594 0.078238
0.465339 -0.075353 0.000544
0.465339 0.045434 -0.002189
0.465339 -0.028835 -0.066044
0.465339 0.004351 -0.024729
0.465339 0.061968 0.064216
0.465339 -0.023541 -0.064095
0.465339 0.015182 0.041349
0.465339 0.093366 0.022485
0.465339 -0.079506 0.059701
0.465339 -0.009914 -0.002415
0.465339 -0.052637 -0.021706
0.465339 -0.027099 -0.002014
0.465339 -0.062456 0.029220
0.465339 -0.000003 -0.001034
0.465339 0.075914 -0.005334
0.465339 -0.052055 0.009818
0.465339 -0.007544 -0.040584
0.465339 0.012219 -0.071932
0.465339 0.036257 -0.082462
0.465339 0.085556 0.051710
0.465339 0.059886 -0.006402
0.465339 -0.078023 0.039311
0.465339 -0.072349 0.040741
0.465339 -0.018215 0.013252
0.465339 -0.047177 -0.037180
0.465339 0.066405 0.069188
0.465339 -0.072439 -0.054200
0.465339 0.087495 0.017503
0.465339 0.044067 -0.040392
0.465339 0.026241 -0.017038
0.465339 -0.013405 0.020682
0.465339 0.004925 0.028733
0.465339 -0.004994 0.006687
0.465339 0.035019 -0.019514
0.465339 -0.037972 0.085604
0.465339 0.055141 0.007097
0.465339 -0.010277 -0.018405
0.465339 -0.030851 0.017018
0.465339 0.041520 -0.024213
0.465339 0.015209 -0.021986
0.465339 0.077660 0.038234
0.465339 0.049580 0.000262
0.465339 -0.001293 0.059816
0.465339 0.081533 0.024495
0.465339 -0.070512 -0.013575
0.465339 -0.082252 -0.009120
0.465339 0.090334 -0.027540
0.465339 0.099137 -0.010593
0.465339 0.068276 -0.004939
0.465339 0.006029 -0.029141
0.465339 0.018845 0.037015
0.465339 0.035544 0.035514
0.465339 0.015382 0.093011
0.465339 -0.036408 -0.003589
0.465339 0.013769 -0.096949
0.465339 0.078777 -0.039904
0.465339 -0.070464 0.003674
0.465339 -0.049667 -0.064224
0.465339 -0.044489 0.039720
0.465339 -0.075822 -0.044885
0.465339 0.014205 0.091294
0.465339 -0.021437 0.050900
0.465339 -0.029136 -0.071060
0.465339 0.043002 -0.023772
0.465339 -0.012652 0.079079
0.465339 -0.065802 0.047864
0.465339 0.027126 0.026621
0.465339 0.027712 -0.022786
0.465339 -0.011271 0.034322
0.465339 -0.095721 0.004847
0.465339 -0.094935 0.002426
0.465339 -0.012963 -0.070452
0.465339 -0.084985 0.009724
0.465339 0.098271 -0.017370
0.465339 0.038065 -0.051513
0.465339 0.048976 0.032581
0.465339 -0.018237 -0.095575
0.465339 0.083125 0.050167
0.465339 -0.083907 0.043870
0.465339 0.011884 -0.025768
0.465339 -0.037465 -0.072001
0.465339 0.084688 -0.037611
0.465339 0.071090 -0.026473
0.465339 -0.094728 -0.030431
0.465339 -0.010195 -0.044681
0.465339 -0.009217 0.001158
0.465339 0.086040 0.009999
0.465339 0.056582 -0.014434
0.465339 -0.074450 0.012947
0.465339 -0.002347 0.093632
0.465339 0.017628 -0.028679
0.465339 0.063907 0.009458
0.465339 -0.049428 0.022442
0.465339 0.000587 0.003130
0.465339 0.057028 -0.004371
0.465339 0.050852 -0.081008
0.465339 0.052360 0.007645
0.465339 0.041671 -0.076212
0.465339 0.022864 -0.031450
0.465339 -0.019439 -0.047801
0.465339 0.041029 -0.053609
0.465339 -0.052795 0.053068
0.465339 0.062591 0.061152
0.465339 0.070468 0.058142
0.465339 -0.002512 -0.042359
0.465339 0.030390 -0.074924
0.465339 0.091285 0.015442
0.465339 0.092355 -0.033833
0.465339 0.036485 0.058183
0.465339 0.033280 0.034354
0.465339 0.049569 -0.081566
0.465339 0.066611 0.029821
0.465339 0.003761 0.036780
0.465339 -0.065776 0.068305
0.465339 0.076373 -0.017023
0.465339 0.083660 0.047332
0.465339 -0.093212 -0.001438
0.465339 -0.085395 0.019353
0.465339 0.041075 -0.009878
0.465339 -0.020317 -0.063381
0.465339 0.078505 0.053240
0.465339 -0.016681 0.012945
0.465339 0.021042 0.022718
0.465339 0.042822 -0.066927
0.465339 -0.079099 0.043297
0.465339 -0.044064 0.035094
0.465339 0.007959 0.054437
0.465339 0.021736 0.041081
0.465339 -0.017928 0.094400
0.465339 0.064580 -0.053666
0.465339 -0.025696 0.069199
0.465339 0.049201 -0.010208
0.465339 0.061628 0.034714
0.465339 0.066325 0.018318
0.465339 0.008549 -0.009302
0.465339 -0.030268 -0.067404
0.465339 -0.050457 0.082747
0.465339 -0.039504 -0.031945
0.465339 -0.006310 0.017019
0.465339 -0.017209 0.084365
0.465339 -0.005782 0.042703
0.465339 -0.008081 -0.096325
0.465339 -0.023953 0.022950
0.465339 -0.016658 -0.010360
0.465339 -0.041204 0.085592
0.465339 -0.074431 0.015839
0.465339 0.071454 -0.027992
0.465339 0.026497 -0.015546
0.465339 0.026786 0.083412
0.465339 0.074164 0.039294
0.465339 0.047562 -0.054778
0.465339 0.034608 0.028970
0.465339 0.043377 0.033695
0.465339 -0.019550 -0.070124
0.465339 -0.030121 0.077273
0.465339 -0.018261 0.005984
0.465339 0.016775 0.056719
0.465339 -0.028115 0.031823
0.465339 0.012911 -0.082304
0.465339 0.009007 -0.047798
0.465339 0.094515 -0.014832
0.465339 0.038253 -0.047472
0.465339 -0.078427 0.018677
0.465339 -0.020962 0.000959
0.465339 0.020102 0.011313
0.465339 -0.067679 0.000856
0.465339 0.084717 -0.010575
0.465339 0.046481 0.028578
0.465339 -0.083392 0.023648
0.465339 -0.001090 0.013518
0.465339 -0.080680 0.021550
0.465339 0.092601 -0.018664
0.465339 0.048764 -0.033972
0.465339 -0.045393 -0.009426
0.465339 -0.028741 0.094150
0.465339 0.001742 -0.009905
0.465339 0.004081 0.025192
0.465339 0.069958 -0.029038
0.465339 -0.006540 0.001598
0.465339 -0.058358 -0.023912
0.465339 0.047256 0.086417
0.465339 -0.025982 -0.021080
0.465339 -0.002555 0.002744
0.465339 -0.077947 0.029598
0.465339 0.054016 0.083641
0.465339 0.045403 0.040904
0.465339 0.012937 0.041159
0.465339 0.089003 0.018685
0.465339 -0.061727 -0.051270
0.465339 0.067919 -0.064551
0.465339 -0.013727 -0.020910
0.465339 0.062422 0.065684
0.465339 -0.074214 -0.060245
0.465339 0.066353 0.046708
0.465339 0.090065 0.033342
0.465339 -0.098786 0.007847
0.465339 0.050594 -0.051034
0.465339 0.072661 0.068604
0.465339 -0.045592 -0.016513
0.465339 0.075314 -0.020888
0.465339 -0.049692 -0.071421
0.465339 0.041461 -0.074552
0.465339 0.032056 -0.079571
0.465339 0.048101 0.013265
0.465339 -0.022072 0.073007
0.465339 -0.038099 0.028360
0.465339 -0.043868 0.019929
0.465339 0.093787 -0.016975
0.465339 0.074705 0.050803
0.465339 -0.073711 -0.027020
0.465339 -0.001214 -0.019191
0.465339 0.078323 -0.053607
0.465339 -0.046091 -0.010928
0.465339 0.008714 0.011606
0.465339 0.068476 -0.057662
0.465339 0.020083 -0.007174
0.465339 -0.031124 -0.016743
0.465339 0.022797 0.067703
0.465339 -0.034137 0.084800
0.465339 -0.032874 -0.012521
0.465339 -0.078729 0.028142
0.465339 -0.013785 0.058722
0.465339 -0.032029 0.094312
0.465339 0.051449 0.084043
0.465339 0.042985 -0.009401
0.465339 0.047654 0.051993
0.465339 -0.037461 -0.010229
0.465339 -0.077948 0.002274
0.465339 0.027969 0.068281
0.465339 0.058432 0.038321
0.465339 -0.001272 -0.043215
0.465339 -0.034548 -0.085217
0.465339 -0.057832 -0.026496
0.465339 0.038152 0.047136
0.465339 -0.055877 -0.072929
0.465339 0.055032 -0.043990
0.465339 0.009090 0.039043
0.465339 0.037184 -0.040737
0.465339 -0.013738 0.093098
0.465339 0.057675 0.006465
0.465339 -0.042399 -0.032418
0.465339 -0.046128 0.000481
0.465339 -0.008056 -0.094134
0.465339 0.015399 0.069411
0.465339 -0.027172 0.093316
0.465339 0.032151 0.064988
0.465339 0.080783 -0.036600
0.465339 0.080370 -0.013672
0.465339 -0.062995 -0.003981
0.465339 -0.058927 -0.033921
0.465339 0.015154 -0.057502
0.465339 0.090016 0.030299
0.465339 -0.002173 0.037568
0.465339 0.042186 -0.061374
0.465339 0.003087 0.060341
0.465339 0.074176 -0.016473
0.465339 0.004922 -0.006591
0.465339 -0.034393 0.089956
0.465339 -0.061145 0.003068
0.465339 0.018402 0.059386
0.465339 -0.092132 0.013303
0.465339 0.064682 0.074010
0.465339 -0.071662 0.023237
0.465339 -0.091004 -0.029035
0.465339 -0.017016 -0.070270
0.465339 0.099682 0.002240
0.465339 0.079336 -0.002932
0.465339 0.004679 -0.069304
0.465339 -0.038359 -0.012421
0.465339 -0.067577 -0.009501
0.465339 -0.089643 -0.011192
0.465339 0.028260 -0.077526
0.465339 0.068302 0.019733
0.465339 -0.091591 0.031084
0.465339 0.011621 -0.029701
0.465339 0.019427 0.022830
0.465339 0.033932 -0.085508
0.465339 -0.008760 -0.030310
0.465339 0.045907 0.076095
0.465339 -0.046712 0.007626
0.465339 0.021610 -0.005600
0.465339 0.038400 -0.046048
0.465339 0.043313 0.029447
0.465339 -0.008498 0.018581
0.465339 0.071125 0.033440
0.465339 -0.031388 -0.079785
0.465339 -0.054274 -0.021646
0.465339 0.010473 0.066392
0.465339 0.055861 0.005854
0.465339 -0.076420 0.029817
0.465339 -0.044047 -0.068277
0.465339 0.007879 -0.077938
0.465339 -0.007203 -0.049745
0.465339 0.051316 -0.023623
0.465339 -0.046700 0.004871
0.465339 -0.053793 -0.045349
0.465339 -0.026953 0.067447
0.465339 -0.067718 0.058877
0.465339 -0.020430 -0.046066
0.465339 0.039547 -0.066859
0.465339 0.039712 0.047762
0.465339 -0.088473 0.025995
0.465339 -0.043970 0.022578
0.465339 0.023495 0.061182
0.465339 0.062059 -0.041773
0.465339 -0.076259 -0.023426
0.465339 0.080501 0.023185
0.465339 0.008434 -0.036410
0.465339 0.033307 -0.045120
0.465339 -0.028104 0.026171
0.465339 0.013326 -0.088459
0.465339 -0.062013 0.007229
0.465339 -0.053342 -0.034939
0.465339 -0.071749 0.046242
0.465339 -0.072472 -0.041973
0.465339 -0.002901 -0.092389
0.465339 0.001343 -0.099444
0.465339 0.023810 -0.006045
0.465339 -0.071732 0.069221
0.465339 0.060327 -0.031563
0.465339 -0.045276 0.059947
0.465339 -0.045215 0.027101
0.465339 0.009270 0.080867
0.465339 0.045647 -0.019468
0.465339 0.015864 -0.008058
0.465339 0.051437 0.009875
0.465339 -0.067936 0.072833
0.465339 0.011154 0.017188
0.465339 -0.023992 -0.092285
0.465339 -0.098132 0.016566
0.465339 -0.041800 -0.035555
0.465339 0.034254 0.003704
0.465339 0.076268 0.060871
0.465339 -0.043084 -0.083315
0.465339 0.079892 0.011386
0.465339 0.034995 -0.054699
0.465339 -0.014630 -0.065667
0.465339 0.027582 -0.074189
0.465339 0.007008 0.019270
0.465339 0.029312 0.020505
0.465339 -0.074697 -0.001661
0.465339 0.092304 -0.009848
0.465339 -0.040243 -0.013510
0.465339 0.024632 0.009673
0.465339 0.015891 0.012856
0.465339 0.044215 0.077482
0.465339 -0.044242 -0.071537
0.465339 0.028018 -0.016943
0.465339 -0.036188 0.037850
0.465339 -0.006888 0.015075
0.465339 0.043556 -0.021124
0.465339 -0.059284 0.055326
0.465339 -0.025151 -0.058399
0.465339 0.037329 -0.058795
0.465339 -0.061577 -0.029651
0.465339 -0.078250 -0.055689
0.465339 -0.011595 0.020535
0.465339 -0.007302 -0.015566
0.465339 -0.073827 -0.036876
0.465339 0.014737 -0.018230
0.465339 -0.003120 0.033655
0.465339 0.029071 0.035684
0.465339 -0.028751 -0.055983
0.465339 -0.053156 -0.027343
0.465339 0.038703 -0.063105
0.465339 -0.026898 0.004858
0.465339 0.048796 0.061448
0.465339 -0.050871 -0.067015
0.465339 0.031687 0.037421
0.465339 -0.009058 -0.026565
0.465339 -0.045538 -0.068561
0.465339 -0.042758 0.005815
0.465339 0.033377 0.037737
0.465339 0.001658 -0.027811
0.465339 -0.038621 0.087462
0.465339 0.045242 0.088727
0.465339 0.004310 -0.034030
0.465339 -0.012897 -0.041386
0.465339 -0.000655 0.008333
0.465339 0.033212 -0.017410
0.465339 -0.000818 0.047300
0.465339 0.074765 0.007228
0.465339 0.043744 0.036472
0.465339 -0.072769 0.058161
0.465339 0.082710 0.043168
0.465339 -0.004587 0.027984
0.465339 -0.079894 -0.049625
0.465339 -0.049930 0.058491
0.465339 -0.059222 -0.017367
0.465339 -0.011899 -0.039165
0.465339 -0.051599 0.011178
0.465339 0.011004 0.014021
0.465339 0.084712 0.038464
0.465339 -0.041844 -0.034084
0.465339 0.019552 -0.005879
0.465339 0.080946 0.037739
0.465339 -0.066864 0.026267
0.465339 0.005412 -0.065923
0.465339 -0.046943 0.027400
0.465339 0.066974 -0.012679
0.465339 0.024002 -0.016602
0.465339 0.035563 0.060803
0.465339 -0.032964 0.090219
0.465339 0.002938 -0.086410
0.465339 -0.022292 0.026949
0.465339 -0.020444 0.069010
0.465339 -0.009539 0.022555
0.465339 -0.055728 0.007016
0.465339 -0.013226 -0.095892
0.465339 -0.067101 -0.041362
0.465339 -0.050695 0.066566
0.465339 0.061240 -0.051096
0.465339 -0.071029 0.060541
0.465339 0.072112 0.008345
0.465339 -0.068878 0.003995
0.465339 -0.066164 0.011646
0.465339 -0.039392 -0.044028
0.465339 0.023786 -0.030331
0.465339 -0.038262 -0.020534
0.465339 -0.099419 -0.006026
0.465339 -0.018301 0.076553
0.465339 0.013879 0.051577
0.465339 -0.005096 -0.027574
0.465339 0.003103 0.099555
0.465339 0.091254 -0.040161
0.465339 0.000106 0.046052
0.465339 -0.071015 -0.060544
0.465339 0.054301 -0.050966
0.465339 -0.050110 0.051398
0.465339 -0.057133 -0.053241
0.465339 -0.020783 0.070684
0.465339 0.068827 -0.051867
0.465339 -0.017505 -0.052204
0.465339 0.041289 0.060788
0.465339 -0.011765 -0.078302
0.465339 0.033876 -0.070261
0.465339 -0.010039 -0.097347
0.465339 -0.091183 0.032670
0.465339 0.023923 -0.066633
0.465339 -0.000780 0.023071
0.465339 -0.009190 -0.064497
0.465339 -0.075623 0.022477
0.465339 -0.023958 0.046418
0.465339 -0.072470 0.009836
0.465339 -0.046324 -0.025559
0.465339 -0.026566 0.096113
0.465339 0.048102 0.037363
0.465339 -0.061304 -0.045875
0.465339 -0.045351 0.043550
0.465339 0.072121 0.019308
0.465339 -0.015675 -0.075811
0.465339 -0.018133 0.009396
0.465339 0.067753 -0.053393
0.465339 -0.006157 0.062937
0.465339 -0.021056 0.089712
0.465339 0.056752 0.007941
0.465339 0.001269 -0.012187
0.465339 -0.011288 0.040367
0.465339 -0.028092 -0.032453
0.465339 0.006765 0.021594
0.465339 -0.020168 -0.089601
0.465339 0.058203 -0.063698
0.465339 -0.088251 0.020294
0.465339 -0.048728 0.086782
0.465339 -0.011137 -0.027482
0.465339 0.062997 -0.055354
0.465339 0.019241 0.060675
0.465339 -0.090764 0.016724
0.465339 0.091257 0.025268
0.465339 0.014673 0.081291
0.465339 -0.033054 -0.054689
0.465339 -0.015851 -0.014078
0.465339 0.029323 -0.089597
0.465339 0.077843 -0.003155
0.465339 -0.028017 0.072834
0.465339 -0.069212 -0.027488
0.465339 0.043472 0.050419
0.465339 0.038217 0.018661
0.465339 -0.005442 0.055731
0.465339 0.009902 0.012682
0.465339 0.080661 -0.001814
0.465339 -0.073013 0.004658
0.465339 -0.004393 -0.005813
0.465339 0.000867 0.057670
0.465339 0.061903 0.039126
0.465339 0.020576 0.066774
0.465339 -0.056872 0.001417
0.465339 0.096228 -0.015264
0.465339 0.056226 -0.020752
0.465339 0.007498 -0.051420
0.465339 0.041471 -0.040989
0.465339 0.089172 -0.019173
0.465339 -0.040450 -0.090132
0.465339 0.013557 0.075108
0.465339 0.062213 0.054304
0.465339 0.036701 0.059991
0.465339 -0.050178 -0.035405
0.465339 -0.068027 -0.056265
0.465339 -0.087091 -0.030353
0.465339 -0.064944 0.024700
0.465339 -0.059152 0.026001
0.465339 -0.083418 0.004967
0.465339 -0.067182 -0.032621
0.465339 0.090114 0.019686
0.465339 0.010197 0.050885
0.465339 0.016013 0.060386
0.465339 -0.024067 0.092506
0.465339 0.049975 0.041806
0.465339 -0.038548 -0.086218
0.465339 0.041031 0.076883
0.465339 -0.027376 0.042315
0.465339 -0.059810 0.019163
0.465339 -0.019808 -0.084860
0.465339 -0.085749 0.039618
0.465339 -0.079710 0.009791
0.465339 0.045085 0.020452
0.465339 0.050476 -0.011201
0.465339 0.021248 -0.069179
0.465339 -0.011380 -0.041237
0.465339 0.085184 -0.032594
0.465339 -0.070064 0.065019
0.465339 -0.011631 -0.079872
0.465339 0.048390 0.016954
0.465339 0.028118 -0.040711
0.465339 0.016266 -0.045075
0.465339 -0.039796 -0.062005
0.465339 0.024180 0.043616
0.465339 -0.083117 0.000328
0.465339 0.049368 -0.055846
0.465339 -0.031992 -0.083756
0.465339 0.007229 0.092516
0.465339 0.066035 -0.000997
0.465339 0.071361 -0.007908
0.465339 -0.074975 0.023869
0.465339 -0.089326 -0.027533
0.465339 0.057445 0.039895
0.465339 -0.055512 -0.045311
0.465339 -0.008536 0.005800
0.465339 0.060469 -0.078979
0.465339 -0.032307 -0.048870
0.465339 0.039757 0.018263
0.465339 0.081302 -0.042586
0.465339 0.047343 0.064763
0.465339 -0.018822 -0.071562
0.465339 0.063458 -0.013507
0.465339 -0.015160 -0.054843
0.465339 0.002827 -0.030998
0.465339 0.014443 -0.090888
0.465339 0.086268 -0.030260
0.465339 -0.056518 -0.048543
0.465339 0.064928 -0.011313
0.465339 0.020278 -0.029813
0.465339 0.011900 0.093124
0.465339 0.049647 -0.076052
0.465339 -0.016971 -0.082124
0.465339 0.016573 -0.069381
0.465339 0.026208 0.039171
0.465339 -0.049723 0.081023
0.465339 -0.004202 -0.007782
0.465339 0.076206 -0.029239
0.465339 -0.075008 -0.048129
0.465339 0.062041 0.068942
0.465339 0.067821 -0.027697
0.465339 -0.019707 0.013193
0.465339 0.074704 0.015823
0.465339 0.006535 0.003501
0.465339 -0.050639 0.043480
0.465339 0.050870 -0.047646
0.465339 -0.023875 -0.026389
0.465339 -0.026041 -0.039104
0.465339 0.033213 0.076541
0.465339 -0.047261 -0.045483
0.465339 0.024912 -0.008475
0.465339 -0.030270 -0.053946
0.465339 -0.064164 -0.044164
0.465339 0.006277 -0.078257
0.465339 0.021735 0.025400
0.465339 -0.039263 0.048166
0.465339 -0.055722 -0.022148
0.465339 -0.033559 0.073864
0.465339 0.047667 0.011753
0.465339 0.010465 0.060682
0.465339 -0.070029 0.056372
0.465339 0.016623 0.088729
0.465339 -0.006902 0.061031
0.465339 -0.054502 0.037703
0.465339 0.095625 -0.004701
0.465339 0.071422 0.056301
0.465339 -0.070459 -0.010954
0.465339 0.092723 -0.037009
0.465339 0.008613 -0.054550
0.465339 -0.041361 0.012235
0.465339 -0.011718 0.054712
0.465339 -0.094642 0.022770
0.465339 -0.073438 -0.005007
0.465339 -0.017277 0.001883
0.465339 -0.047990 -0.000374
0.465339 -0.038689 -0.063064
0.465339 -0.024556 -0.030486
0.465339 0.090513 -0.009693
0.465339 -0.044284 -0.021461
0.465339 -0.023125 -0.048311
0.465339 -0.067729 0.014994
0.465339 0.019725 0.048656
0.465339 -0.010981 -0.016116
0.465339 0.048249 -0.027363
0.465339 -0.008056 0.096278
0.465339 -0.041142 -0.025372
0.465339 -0.090059 0.024188
0.465339 -0.084023 -0.027885
0.465339 -0.033423 0.014424
0.465339 0.023134 -0.057870
0.465339 0.004447 -0.048198
0.465339 -0.086521 -0.031849
0.465339 0.044652 -0.027367
0.465339 -0.052326 -0.033856
0.465339 0.060233 0.011962
0.465339 0.073755 -0.007003
0.465339 0.006744 -0.041210
0.465339 0.016253 0.023031
0.465339 -0.085771 -0.041385
0.465339 -0.062822 0.012734
0.465339 0.025752 -0.045092
0.465339 -0.018608 -0.050999
0.465339 -0.018065 -0.037483
0.465339 0.029496 -0.019112
0.465339 0.030747 -0.068302
0.465339 -0.070872 0.044351
0.465339 0.053007 0.013782
0.465339 0.076459 -0.020010
0.465339 -0.015342 -0.033400
0.465339 0.082741 0.054199
0.465339 0.081959 -0.033873
0.465339 -0.095026 0.024490
0.465339 -0.071733 0.006766
0.465339 -0.056433 0.051112
0.465339 0.050872 0.012434
0.465339 0.086492 -0.022764
0.465339 0.050350 -0.085667
0.465339 0.035764 0.083489
0.465339 0.082801 -0.042315
0.465339 -0.013528 0.091140
0.465339 0.028974 0.066854
0.465339 0.038086 0.057962
0.465339 -0.003507 0.070185
0.465339 -0.015718 -0.098077
0.465339 -0.043444 0.068029
0.465339 -0.050784 0.008966
0.465339 -0.025920 0.041301
0.465339 0.003138 0.014272
0.465339 0.072687 -0.040007
0.465339 0.045010 -0.011336
0.465339 -0.026167 -0.068217
0.465339 -0.039189 0.027247
0.465339 -0.026829 -0.028251
0.465339 0.073857 -0.066954
0.465339 0.028277 0.014955
0.465339 0.021548 -0.052658
0.465339 0.015319 -0.092015
0.465339 -0.010705 -0.070203
0.465339 0.059024 0.033851
0.465339 -0.027661 -0.054434
0.465339 0.049888 0.065413
0.465339 -0.060203 -0.042891
0.465339 -0.046178 0.016692
0.465339 0.083521 -0.036191
0.465339 -0.054541 -0.051166
0.465339 -0.028320 0.046998
0.465339 -0.001856 0.098025
0.465339 -0.015347 -0.035425
0.465339 0.005416 -0.072611
0.465339 0.072668 0.058536
0.465339 0.040026 -0.047871
0.465339 0.033492 -0.026930
0.465339 -0.040811 -0.044398
0.465339 -0.043857 0.026220
0.465339 -0.002627 -0.089164
0.465339 0.005515 0.048192
0.465339 -0.029056 -0.043006
0.465339 -0.058008 -0.012039
0.465339 0.077942 -0.029461
0.465339 -0.010922 0.067940
0.465339 -0.014557 0.060973
0.465339 -0.036941 0.036601
0.465339 -0.077430 -0.048724
0.465339 -0.031784 -0.053760
0.465339 -0.009553 0.021140
0.465339 0.069520 0.004784
0.465339 0.022531 0.090490
0.465339 0.013728 0.048117
0.465339 0.000449 -0.085389
0.465339 -0.030781 0.065272
0.465339 0.070247 -0.054178
0.465339 0.003838 -0.012513
0.465339 0.058096 0.010806
0.465339 0.015880 -0.062129
0.465339 0.005556 0.071353
0.465339 0.089623 -0.025998
0.465339 0.028407 0.042667
0.465339 0.061950 -0.065955
0.465339 -0.016849 0.017538
0.465339 0.026941 -0.035346
0.465339 -0.015679 0.083523
0.465339 0.093342 0.002897
0.465339 0.027124 -0.084622
0.465339 -0.052101 -0.019838
0.465339 -0.044278 0.036882
0.465339 0.012051 0.075863
0.465339 -0.030720 0.008320
0.465339 -0.048867 -0.030052
0.465339 -0.029631 -0.063434
0.465339 0.040459 -0.028835
0.465339 0.069054 0.071562
0.465339 -0.003707 0.030278
0.465339 0.076726 -0.056370
0.465339 0.025675 -0.051104
0.465339 -0.038972 0.052579
0.465339 0.031985 -0.062142
0.465339 -0.028075 0.049972
0.465339 -0.012190 -0.072947
0.465339 -0.043022 -0.029831
0.465339 -0.061653 -0.001163
0.465339 0.060025 -0.062108
0.465339 0.012777 -0.035846
0.465339 -0.023390 0.000274
0.465339 0.032479 0.040571
0.465339 0.013596 0.094791
0.465339 0.027133 0.034555
0.465339 -0.076886 -0.010492
0.465339 0.052302 0.085284
0.465339 -0.008481 0.064592
0.465339 0.028992 0.012996
0.465339 0.057554 0.043273
0.465339 -0.076447 0.001737
0.465339 -0.045193 0.007366
0.465339 -0.038731 0.022806
0.465339 0.017716 -0.004184
0.465339 0.017854 -0.090016
0.465339 0.002022 -0.067532
0.465339 0.068058 0.001590
0.465339 -0.068767 0.049298
0.465339 0.011134 -0.042247
0.465339 0.018192 -0.078362
0.465339 0.049508 0.037851
0.465339 0.033550 0.049484
0.465339 -0.054673 -0.082641
0.465339 0.034147 -0.057879
0.465339 -0.098395 0.011633
0.465339 0.028279 -0.083206
0.465339 -0.017421 -0.000658
0.465339 -0.046988 -0.012601
0.465339 -0.077878 -0.022676
0.465339 -0.028140 0.054838
0.465339 0.059144 0.026152
0.465339 -0.052083 0.035591
0.465339 0.066858 -0.018018
0.465339 -0.011046 -0.045776
0.465339 0.051774 -0.001780
0.465339 -0.080744 0.033746
0.465339 -0.077568 -0.032911
0.465339 -0.051866 0.054148
0.465339 0.043696 0.065683
0.465339 -0.060237 0.064658
0.465339 -0.044389 -0.030547
0.465339 -0.006151 -0.043034
0.465339 0.004297 -0.060925
0.465339 -0.031175 -0.031134
0.465339 -0.040190 -0.016860
0.465339 0.081505 -0.031886
0.465339 0.068307 0.032182
0.465339 -0.033557 -0.080494
0.465339 -0.047231 0.056793
0.465339 -0.063365 -0.031895
0.465339 0.057370 -0.036264
0.465339 -0.021042 0.061885
0.465339 -0.045094 -0.074316
0.465339 -0.031339 -0.050157
0.465339 -0.005876 -0.087064
0.465339 0.076604 0.024369
0.465339 0.041375 0.032147
0.465339 0.059285 0.055436
0.465339 -0.020817 -0.034303
0.465339 0.001769 -0.084727
0.465339 -0.044116 0.016200
0.465339 -0.083402 -0.001242
0.465339 0.025192 -0.080293
0.465339 -0.057288 0.007755
0.465339 -0.088331 0.010120
0.465339 -0.029234 0.051977
0.465339 -0.055130 0.001226
0.465339 0.048082 0.015115
0.465339 0.072893 -0.010853
0.465339 -0.021273 -0.022254
0.465339 0.030793 -0.049152
0.465339 0.035573 0.040529
0.465339 0.027547 0.062241
0.465339 -0.015197 -0.010055
0.465339 0.046188 0.009026
0.465339 -0.040745 0.048303
0.465339 -0.020992 0.017462
0.465339 0.015188 0.073088
0.465339 -0.067417 -0.021456
0.465339 0.029977 0.016670
0.465339 0.011314 -0.003764
0.465339 0.033582 -0.012132
0.465339 -0.007644 -0.019337
0.465339 -0.079031 0.056084
0.465339 -0.054057 -0.000138
0.465339 0.041732 0.086586
0.465339 -0.075357 0.060262
0.465339 0.059431 0.013037
0.465339 -0.097714 0.004123
0.465339 0.059150 0.051862
0.465339 -0.010846 -0.063805
0.465339 -0.057538 -0.078708
0.465339 -0.070315 0.038566
0.465339 -0.052425 -0.000862
0.465339 0.000278 0.019333
0.465339 0.001482 0.089995
0.465339 0.010238 0.099508
0.465339 0.010509 -0.002429
0.465339 0.012582 -0.020107
0.465339 -0.041655 0.056604
0.465339 0.008032 0.003060
0.465339 0.026991 0.016703
0.465339 -0.042944 -0.070299
0.465339 0.035581 -0.060052
0.465339 -0.000271 -0.020556
0.465339 0.076407 0.029516
0.465339 -0.062651 0.022069
0.465339 0.017882 -0.080097
0.465339 -0.049949 -0.019430
0.465339 0.083724 -0.006584
0.465339 0.001793 0.007038
0.465339 0.023154 0.047996
0.465339 0.069655 0.055025
0.465339 -0.060102 -0.053489
0.465339 0.032947 -0.008406
0.465339 0.089476 -0.016459
0.465339 0.012973 -0.014804
0.465339 0.098899 -0.002971
0.465339 -0.050079 -0.014184
0.465339 0.035591 0.011459
0.465339 0.019064 -0.060526
0.465339 -0.035028 -0.039919
0.465339 0.040181 -0.005998
0.465339 -0.024613 0.096493
0.465339 0.076415 0.032879
0.465339 0.034460 -0.064364
0.465339 -0.058260 -0.072919
0.465339 0.060589 -0.070491
0.465339 -0.002189 -0.077001
0.465339 -0.089020 -0.038334
0.465339 -0.024722 -0.034808
0.465339 -0.014774 0.054814
0.465339 -0.049258 -0.062316
0.465339 0.053523 0.080369
0.465339 -0.062071 0.072512
0.465339 -0.047760 -0.018754
0.465339 -0.010343 0.035592
0.465339 -0.006918 -0.053256
0.465339 0.042404 0.040919
0.465339 0.028315 -0.047843
0.465339 0.027983 0.048236
0.465339 -0.027078 -0.075508
0.465339 0.041864 0.016800
0.465339 -0.004248 0.042306
0.465339 0.066110 0.060559
0.465339 -0.022371 -0.035363
0.465339 0.033390 0.082041
0.465339 -0.075023 -0.013409
0.465339 -0.069085 -0.010468
0.465339 -0.045805 -0.082521
0.465339 -0.073163 0.001302
0.465339 -0.022767 -0.027709
0.465339 -0.046190 0.039705
0.465339 0.011610 0.047288
0.465339 0.056745 -0.046955
0.465339 -0.003496 -0.096508
0.465339 0.025192 0.060376
0.465339 0.034832 0.093429
0.465339 0.039367 0.042617
0.465339 -0.064670 -0.028251
0.465339 0.003615 0.001469
0.465339 0.049669 -0.016416
0.465339 0.036722 0.032761
0.465339 -0.005518 -0.079703
0.465339 0.064444 -0.000056
0.465339 0.035168 -0.027530
0.465339 -0.018821 0.050635
0.465339 -0.045004 0.054462
0.465339 0.091488 0.002122
0.465339 0.075802 -0.018723
0.465339 0.048407 -0.023791
0.465339 0.035285 -0.087732
0.465339 0.065903 -0.027109
0.465339 0.045415 -0.025634
0.465339 -0.092986 -0.018932
0.465339 -0.052067 -0.043836
0.465339 0.048408 -0.032104
0.465339 0.066022 -0.008301
0.465339 0.070858 -0.059855
0.465339 -0.036310 0.000335
0.465339 0.037346 0.008827
0.465339 -0.002998 -0.016717
0.465339 0.048853 -0.002729
0.465339 0.022788 0.094117
0.465339 0.034537 0.007848
0.465339 0.000345 0.059341
0.465339 0.046133 0.030360
0.465339 0.077057 0.015057
0.465339 0.006367 -0.049042
0.465339 -0.032742 0.065460
0.465339 -0.082704 -0.007434
0.465339 0.047063 0.043960
0.465339 -0.067546 -0.066597
0.465339 0.030584 0.067235
0.465339 0.029911 0.042398
0.465339 0.042924 0.015645
0.465339 0.011843 -0.016383
0.465339 -0.027918 0.006724
0.465339 0.058095 -0.051947
0.465339 -0.010359 -0.071893
0.465339 -0.013599 -0.035815
0.465339 0.080213 0.026075
0.465339 0.010982 -0.057095
0.465339 -0.004281 0.063290
0.465339 -0.094812 -0.021962
0.465339 -0.056719 0.020317
0.465339 0.005044 0.077747
0.465339 0.037061 0.020469
0.465339 -0.015881 0.057543
0.465339 0.052843 -0.000376
0.465339 0.010968 -0.055593
0.465339 -0.078103 0.008818
0.465339 -0.037767 0.063208
0.465339 -0.030080 -0.021071
0.465339 -0.073639 -0.000419
0.465339 0.050517 0.057681
0.465339 0.042174 0.065547
0.465339 0.086407 0.030046
0.465339 0.068433 -0.054780
0.465339 -0.010432 -0.004988
0.465339 -0.067994 -0.043488
0.465339 0.034109 -0.040945
0.465339 0.021886 0.046917
0.465339 -0.062643 0.074708
0.465339 0.002544 0.024680
0.465339 -0.064422 -0.020558
0.465339 0.008279 -0.094427
0.465339 0.079752 -0.032989
0.465339 -0.025930 -0.040802
0.465339 0.009187 -0.019742
0.465339 -0.087485 0.047266
0.465339 -0.016399 0.004591
0.465339 -0.085255 -0.017318
0.465339 -0.039196 0.084656
