0.465339 0.006099 0.035899
0.465339 -0.005389 -0.026041
0.465339 0.062694 -0.028839
0.465339 -0.009943 -0.034154
0.465339 -0.017011 -0.026088
0.465339 -0.026950 -0.025472
0.465339 0.037856 0.087852
0.465339 -0.053985 -0.048578
0.465339 -0.076332 0.043413
0.465339 0.056988 0.082233
0.465339 0.012606 0.079775
0.465339 -0.058960 -0.006584
0.465339 -0.022792 -0.065449
0.465339 0.059868 0.067649
0.465339 0.021641 -0.037770
0.465339 0.050752 0.045347
0.465339 -0.026861 -0.086633
0.465339 -0.023614 -0.085512
0.465339 -0.021008 0.041943
0.465339 -0.078721 0.018116
0.465339 -0.000642 -0.083299
0.465339 0.048222 -0.065988
0.465339 0.042643 0.079534
0.465339 -0.048955 -0.062829
0.465339 0.020595 -0.077494
0.465339 0.069350 0.000464
0.465339 -0.088071 -0.038158
0.465339 -0.043932 -0.042302
0.465339 -0.034673 -0.052617
0.465339 -0.049605 -0.027712
0.465339 0.033651 -0.059580
0.465339 -0.017223 -0.079816
0.465339 -0.096096 -0.005850
0.465339 0.036111 0.062344
0.465339 -0.091294 0.013888
0.465339 0.033484 0.020046
0.465339 -0.008897 0.035015
0.465339 -0.047487 -0.051772
0.465339 0.006814 -0.012978
0.465339 0.001318 0.005010
0.465339 0.037135 0.052896
0.465339 -0.000346 0.032099
0.465339 -0.088378 -0.016637
0.465339 -0.034739 0.017244
0.465339 0.057987 0.035387
0.465339 0.002525 0.014285
0.465339 -0.001024 -0.052826
0.465339 0.070686 -0.060056
0.465339 -0.028358 0.028747
0.465339 -0.077211 -0.001553
0.465339 -0.027876 -0.072614
0.465339 -0.045969 -0.034888
0.465339 -0.044558 -0.038546
0.465339 0.036326 0.007713
0.465339 -0.038008 -0.006217
0.465339 -0.088080 -0.002287
0.465339 0.061903 -0.036946
0.465339 -0.041068 0.012973
0.465339 0.051719 0.040563
0.465339 -0.053309 0.032201
0.465339 0.055200 0.071912
0.465339 -0.001583 -0.031644
0.465339 -0.063300 -0.058700
0.465339 -0.028386 0.070796
0.465339 -0.017150 0.055640
0.465339 -0.011221 0.062355
0.465339 0.039691 0.049740
0.465339 -0.026326 0.049856
0.465339 0.046542 0.042355
0.465339 0.087669 -0.006692
0.465339 0.015036 -0.096544
0.465339 -0.075768 -0.013939
0.465339 -0.016663 -0.083843
0.465339 0.008476 -0.064043
0.465339 -0.066116 -0.054432
0.465339 0.003051 0.062765
0.465339 -0.003402 0.074298
0.465339 -0.036244 -0.001875
0.465339 -0.092268 -0.018485
0.465339 -0.049703 0.013545
0.465339 -0.012605 -0.084991
0.465339 0.041456 0.048966
0.465339 0.043838 -0.062641
0.465339 0.071033 0.001839
0.465339 -0.053795 -0.070974
0.465339 -0.073079 -0.059499
0.465339 -0.034443 0.021306
0.465339 -0.021472 0.034002
0.465339 -0.083929 0.043093
0.465339 0.003833 -0.050859
0.465339 -0.078073 -0.057680
0.465339 -0.054140 0.026021
0.465339 -0.025686 -0.024912
0.465339 0.021521 0.089175
0.465339 0.039582 0.074647
0.465339 -0.028535 0.068492
0.465339 0.007418 0.008532
0.465339 0.042071 0.039526
0.465339 0.052795 0.064146
0.465339 -0.052706 -0.019099
0.465339 -0.040126 -0.028259
0.465339 -0.000195 0.081518
0.465339 0.032596 0.031000
0.465339 0.059703 -0.018865
0.465339 0.050523 0.024523
0.465339 0.035247 0.009184
0.465339 0.028693 0.015473
0.465339 -0.068917 -0.052565
0.465339 -0.071871 0.039312
0.465339 -0.080904 0.034949
0.465339 0.044491 -0.024825
0.465339 0.079290 0.031815
0.465339 0.096650 -0.004173
0.465339 -0.093790 -0.018601
0.465339 -0.008365 0.059996
0.465339 -0.043247 0.009726
0.465339 0.053663 0.065592
0.465339 0.090889 -0.041042
0.465339 -0.054065 0.014874
0.465339 0.027655 0.048444
0.465339 0.084682 -0.001138
0.465339 -0.047740 -0.050237
0.465339 0.022555 -0.089133
0.465339 0.009174 0.005106
0.465339 -0.029269 0.056569
0.465339 0.020145 0.092675
0.465339 0.018818 -0.017561
0.465339 -0.073264 -0.053350
0.465339 0.054457 -0.031494
0.465339 -0.075832 0.062966
0.465339 0.024158 -0.074907
0.465339 0.002086 -0.008905
0.465339 -0.039391 -0.018598
0.465339 0.040962 -0.020914
0.465339 0.089348 0.020805
0.465339 -0.021554 -0.096752
0.465339 -0.083329 -0.021005
0.465339 0.025860 0.026386
0.465339 -0.017695 -0.057488
0.465339 0.084295 0.037310
0.465339 0.085506 -0.014100
0.465339 -0.012371 0.024707
0.465339 -0.081938 -0.001588
0.465339 0.006445 0.020372
0.465339 0.069414 -0.071633
0.465339 0.068452 -0.043955
0.465339 0.030278 -0.009193
0.465339 -0.080634 -0.046690
0.465339 -0.001677 0.021656
0.465339 -0.062328 -0.045665
0.465339 -0.018556 0.062889
0.465339 -0.019631 -0.034926
0.465339 0.033228 -0.076131
0.465339 0.017823 -0.037179
0.465339 -0.054383 0.052985
0.465339 0.059097 0.036812
0.465339 0.002639 0.000174
0.465339 0.002785 0.064187
0.465339 0.046815 -0.005146
0.465339 -0.052569 -0.010224
0.465339 -0.059985 -0.076608
0.465339 0.066307 -0.037630
0.465339 -0.061333 -0.054576
0.465339 0.078623 -0.039375
0.465339 -0.057314 -0.037211
0.465339 -0.056131 0.017819
0.465339 -0.073128 0.028163
0.465339 0.045403 -0.003073
0.465339 0.020440 -0.044361
0.465339 -0.023454 0.044163
0.465339 0.002760 -0.041413
0.465339 0.095552 0.003756
0.465339 0.010614 0.096226
0.465339 0.002363 -0.081166
0.465339 0.078266 -0.046456
0.465339 -0.094370 -0.031929
0.465339 -0.081434 -0.040574
0.465339 -0.043592 -0.033603
0.465339 -0.051504 0.081986
0.465339 -0.050614 0.046718
0.465339 -0.082311 0.034880
0.465339 -0.071027 0.052795
0.465339 -0.053577 -0.007474
0.465339 -0.002516 0.099953
0.465339 0.037838 -0.061164
0.465339 0.001651 0.089766
0.465339 0.058354 -0.030028
0.465339 -0.019434 0.073813
0.465339 -0.011314 0.003532
0.465339 0.073804 -0.044426
0.465339 -0.013098 0.028138
0.465339 -0.010774 -0.009954
0.465339 0.006221 0.033490
0.465339 -0.069135 0.063433
0.465339 -0.006250 -0.044535
0.465339 0.032274 -0.009775
0.465339 -0.026752 0.074372
0.465339 0.025163 0.051067
0.465339 -0.035168 -0.024577
0.465339 0.050411 -0.001465
0.465339 0.001972 -0.026745
0.465339 -0.038825 -0.025992
0.465339 -0.070432 0.046353
0.465339 0.031150 0.072304
0.465339 -0.079614 0.009452
0.465339 -0.076072 -0.055488
0.465339 -0.087174 0.043487
0.465339 0.011535 -0.083546
0.465339 0.036702 -0.051113
0.465339 -0.024305 0.005109
0.465339 0.065905 -0.074595
0.465339 0.028268 -0.043000
0.465339 0.017847 0.072413
0.465339 -0.043943 0.055680
0.465339 0.009376 0.088316
0.465339 -0.020072 -0.089332
0.465339 -0.076524 0.018636
0.465339 -0.055204 -0.053154
0.465339 0.055929 0.035854
0.465339 0.000131 0.057260
0.465339 0.041345 -0.027363
0.465339 -0.019767 -0.097435
0.465339 0.025030 -0.024472
0.465339 -0.010362 -0.076460
0.465339 -0.032547 -0.048115
0.465339 -0.060849 0.044318
0.465339 0.026481 0.038436
0.465339 0.042791 0.054456
0.465339 0.039706 0.019414
0.465339 0.025710 -0.041397
0.465339 0.012776 0.060020
0.465339 0.001542 -0.035936
0.465339 0.020637 0.011966
0.465339 0.021726 -0.085792
0.465339 -0.007922 -0.024754
0.465339 -0.040467 0.023456
0.465339 -0.083279 -0.052322
0.465339 0.042621 -0.083000
0.465339 0.050708 0.036688
0.465339 0.023699 -0.058137
0.465339 0.036987 -0.036991
0.465339 0.035349 -0.012840
0.465339 0.050308 -0.007412
0.465339 0.030519 -0.025398
0.465339 -0.051206 -0.057058
0.465339 0.023818 0.017581
0.465339 -0.012245 -0.089564
0.465339 0.082020 0.015900
0.465339 0.094087 0.003601
0.465339 0.043881 -0.085857
0.465339 0.077344 -0.008611
0.465339 0.020197 0.003039
0.465339 0.002965 -0.088797
0.465339 0.091688 -0.023142
0.465339 -0.013127 -0.018128
0.465339 0.011119 -0.026920
0.465339 -0.079330 0.037172
0.465339 -0.017792 -0.051361
0.465339 -0.007668 0.000019
0.465339 0.064656 -0.005069
0.465339 0.010478 -0.007442
0.465339 0.083649 0.005417
0.465339 0.075008 0.017087
0.465339 0.043237 -0.017598
0.465339 0.020191 0.040057
0.465339 0.000372 -0.087765
0.465339 0.018572 -0.097775
0.465339 0.029774 0.068437
0.465339 0.033827 -0.008889
0.465339 0.035471 0.041331
0.465339 -0.071571 -0.016584
0.465339 0.012144 -0.052393
0.465339 -0.060335 0.055759
0.465339 0.047361 0.034829
0.465339 -0.087645 0.040408
0.465339 0.091390 0.008406
0.465339 0.042517 0.050802
0.465339 -0.012838 0.036813
0.465339 -0.035727 -0.037705
0.465339 -0.047203 0.014706
0.465339 0.080058 0.020728
0.465339 -0.010402 -0.032745
0.465339 -0.005761 -0.049341
0.465339 -0.062864 -0.057202
0.465339 0.008380 0.026611
0.465339 -0.035894 -0.030199
0.465339 -0.023908 -0.015309
0.465339 -0.011632 -0.056079
0.465339 -0.006145 0.035546
0.465339 -0.007084 0.023686
0.465339 0.042431 -0.068548
0.465339 -0.041038 -0.087691
0.465339 0.088589 -0.002208
0.465339 0.081946 -0.049534
0.465339 0.083627 0.054394
0.465339 -0.076989 0.022668
0.465339 0.056898 -0.024599
0.465339 0.088322 0.016269
0.465339 -0.084499 -0.042010
0.465339 0.033973 -0.079983
0.465339 -0.010003 -0.003449
0.465339 0.058404 -0.069272
0.465339 0.055502 -0.070927
0.465339 -0.076736 0.059879
0.465339 -0.091280 -0.039877
0.465339 0.083810 -0.041960
0.465339 0.043028 0.026343
0.465339 0.052452 0.042130
0.465339 0.005936 -0.025622
0.465339 0.075877 0.058820
0.465339 0.067481 -0.005043
0.465339 0.049817 -0.011815
0.465339 0.035224 -0.071291
0.465339 -0.095680 -0.018609
0.465339 -0.041014 0.057792
0.465339 0.068381 0.067206
0.465339 0.069323 0.043698
0.465339 0.087304 -0.044961
0.465339 0.082846 0.028500
0.465339 0.014175 0.086305
0.465339 0.012393 0.047602
0.465339 -0.016315 -0.029430
0.465339 0.017503 0.016233
0.465339 -0.033467 0.083480
0.465339 -0.000772 0.036621
0.465339 0.039588 -0.021924
0.465339 -0.057211 -0.070775
0.465339 0.064889 -0.053879
0.465339 -0.020448 -0.016083
0.465339 -0.016749 0.027859
0.465339 0.029896 -0.062629
0.465339 -0.091737 -0.016902
0.465339 -0.002581 -0.088047
0.465339 -0.047240 -0.037565
0.465339 0.062360 0.016816
0.465339 -0.092310 -0.012901
0.465339 0.050755 0.074173
0.465339 0.052664 0.039554
0.465339 -0.002256 -0.092115
0.465339 -0.007592 0.093904
0.465339 -0.084180 0.012683
0.465339 -0.001276 0.051909
0.465339 -0.032915 -0.051542
0.465339 0.060116 -0.047047
0.465339 0.067359 0.027164
0.465339 -0.078695 0.051058
0.465339 -0.061624 -0.041027
0.465339 -0.073170 -0.029854
0.465339 0.011747 -0.044058
0.465339 0.007605 -0.088372
0.465339 -0.077886 0.049793
0.465339 -0.070531 -0.020947
0.465339 0.033509 0.067803
0.465339 0.076648 0.047292
0.465339 0.056753 0.025309
0.465339 0.056030 -0.055204
0.465339 -0.032956 0.058871
0.465339 -0.032562 -0.030553
0.465339 0.092933 0.008903
0.465339 -0.034867 -0.042613
0.465339 0.005359 -0.059193
0.465339 -0.049699 0.035224
0.465339 -0.026054 0.016219
0.465339 0.006786 0.074370
0.465339 0.021761 0.073474
0.465339 -0.096323 0.024202
0.465339 0.030257 -0.021427
0.465339 0.090131 -0.015254
0.465339 -0.037687 -0.080929
0.465339 -0.022579 0.028395
0.465339 -0.020504 -0.005771
0.465339 -0.084394 -0.018774
0.465339 0.002602 0.027602
0.465339 0.012815 0.082832
0.465339 -0.039153 -0.032958
0.465339 -0.040226 -0.067786
0.465339 0.069213 0.054143
0.465339 0.079428 0.048036
0.465339 0.017267 0.058060
0.465339 -0.018228 -0.048554
0.465339 0.037874 0.000190
0.465339 -0.042032 -0.037925
0.465339 0.073691 0.026748
0.465339 -0.023406 0.066720
0.465339 0.013396 0.071742
0.465339 0.012706 -0.084189
0.465339 0.013277 -0.056445
0.465339 -0.066003 0.013595
0.465339 -0.025726 -0.087922
0.465339 0.053547 -0.002707
0.465339 0.021312 -0.011833
0.465339 0.007485 -0.026311
0.465339 -0.010653 -0.023781
0.465339 0.051505 0.078659
0.465339 -0.003602 -0.054984
0.465339 -0.032123 0.089937
0.465339 -0.043551 0.040431
0.465339 0.029610 0.039367
0.465339 -0.009176 0.075709
0.465339 0.020030 0.049932
0.465339 -0.059883 0.041467
0.465339 -0.063209 0.015668
0.465339 -0.026474 0.072180
0.465339 0.047746 0.086253
0.465339 0.062047 0.057174
0.465339 0.070440 -0.005561
0.465339 0.056266 -0.077112
0.465339 -0.086877 -0.031575
0.465339 0.081838 -0.041581
0.465339 -0.074078 -0.051826
0.465339 0.040189 0.038016
0.465339 0.055780 -0.029528
0.465339 -0.000285 -0.029178
0.465339 0.043617 -0.044497
0.465339 -0.042210 -0.025900
0.465339 -0.020512 -0.092427
0.465339 -0.030776 0.034690
0.465339 -0.082434 -0.032188
0.465339 -0.048000 -0.029152
0.465339 -0.048981 -0.071835
0.465339 -0.037539 -0.033719
0.465339 0.040613 -0.002897
0.465339 0.039030 0.010261
0.465339 -0.035002 -0.075685
0.465339 -0.010289 0.051995
0.465339 -0.008437 -0.040280
0.465339 -0.042959 0.054463
0.465339 -0.015061 0.006531
0.465339 -0.002833 0.089361
0.465339 0.017279 0.012945
0.465339 0.053010 -0.075575
0.465339 -0.013809 0.017980
0.465339 0.004196 -0.043641
0.465339 0.047000 -0.026856
0.465339 0.043607 0.006993
0.465339 0.008192 -0.043178
0.465339 -0.029075 -0.092012
0.465339 0.026170 0.062965
0.465339 0.051954 0.076082
0.465339 0.020161 0.013449
0.465339 0.056091 0.045253
0.465339 0.059721 -0.034103
0.465339 0.026249 -0.053871
0.465339 -0.064132 -0.044316
0.465339 -0.055892 0.025519
0.465339 -0.047928 -0.061528
0.465339 -0.055958 -0.028978
0.465339 -0.042887 0.069017
0.465339 0.015472 0.017757
0.465339 0.063107 0.002530
0.465339 0.007644 -0.046516
0.465339 0.034254 0.093547
0.465339 -0.029794 0.030023
0.465339 -0.006291 0.087334
0.465339 -0.090446 -0.017479
0.465339 -0.020933 0.004239
0.465339 0.056757 0.034516
0.465339 -0.051930 -0.069811
0.465339 -0.026095 0.004883
0.465339 0.063757 0.043963
0.465339 0.090075 0.006626
0.465339 -0.075170 -0.057259
0.465339 0.043447 -0.069495
0.465339 -0.027766 -0.092624
0.465339 0.037445 -0.054467
0.465339 -0.074840 -0.044077
0.465339 -0.060216 -0.035480
0.465339 0.033370 -0.083491
0.465339 -0.003655 0.050192
0.465339 0.059419 0.076065
0.465339 -0.066287 0.036125
0.465339 0.064573 0.058524
0.465339 0.013571 0.056569
0.465339 -0.035132 -0.006348
0.465339 -0.013148 -0.073198
0.465339 0.026596 0.084691
0.465339 0.072111 -0.031238
0.465339 0.019350 -0.020062
0.465339 -0.014702 0.012072
0.465339 -0.067389 -0.069239
0.465339 -0.053081 -0.078738
0.465339 0.045583 0.010281
0.465339 0.040522 -0.034013
0.465339 -0.071732 0.028283
0.465339 -0.050874 0.037053
0.465339 -0.039242 0.041657
0.465339 -0.033460 -0.081323
0.465339 -0.021083 -0.039765
0.465339 -0.090430 -0.012874
0.465339 0.058941 -0.075159
0.465339 -0.017131 0.003796
0.465339 -0.020170 -0.076082
0.465339 -0.093691 -0.030427
0.465339 -0.016387 -0.063872
0.465339 -0.042320 0.030968
0.465339 0.066292 0.063877
0.465339 0.083501 -0.050025
0.465339 -0.007726 0.049153
0.465339 -0.035582 0.043245
0.465339 -0.069786 -0.019177
0.465339 0.055470 -0.056936
0.465339 -0.027355 -0.036595
0.465339 -0.020881 -0.090768
0.465339 -0.058458 0.071889
0.465339 0.008886 -0.023716
0.465339 -0.048000 0.077401
0.465339 0.061550 0.012029
0.465339 -0.001575 0.040291
0.465339 -0.003043 -0.085929
0.465339 0.015647 -0.003041
0.465339 -0.008803 0.063074
0.465339 0.038881 -0.076683
0.465339 -0.084963 0.018795
0.465339 -0.054250 0.008907
0.465339 -0.081960 -0.056131
0.465339 -0.085647 -0.049986
0.465339 -0.052611 0.025940
0.465339 0.022453 0.014216
0.465339 0.054155 -0.034911
0.465339 0.035030 0.065809
0.465339 0.084278 0.048205
0.465339 -0.089587 -0.037343
0.465339 -0.053563 0.020417
0.465339 0.005234 -0.002734
0.465339 0.052902 0.056074
0.465339 0.055279 -0.061997
0.465339 0.079918 0.059632
0.465339 0.074790 -0.062073
0.465339 0.010605 -0.096535
0.465339 -0.051391 0.049044
0.465339 0.099365 0.004369
0.465339 -0.045889 0.005727
0.465339 -0.018139 -0.066846
0.465339 0.020617 -0.038935
0.465339 -0.034390 -0.028608
0.465339 -0.038770 -0.055159
0.465339 -0.001455 0.020225
0.465339 0.086273 0.032664
0.465339 0.031106 0.009674
0.465339 -0.051353 -0.047617
0.465339 0.005987 -0.017874
0.465339 0.051093 -0.032471
0.465339 -0.049680 -0.074790
0.465339 -0.039183 0.048200
0.465339 -0.056875 -0.017257
0.465339 0.052126 -0.071315
0.465339 0.027083 0.040336
0.465339 0.079885 0.010619
0.465339 -0.027246 0.034314
0.465339 0.064808 0.015844
0.465339 -0.054176 -0.055782
0.465339 -0.053113 -0.040091
0.465339 -0.069835 -0.047574
0.465339 0.043515 -0.005404
0.465339 0.009008 0.025134
0.465339 0.064752 0.042800
0.465339 -0.078864 -0.018435
0.465339 0.062538 -0.002698
0.465339 0.072949 0.018054
0.465339 0.006262 0.085174
0.465339 -0.062043 0.010202
0.465339 0.033843 -0.042481
0.465339 -0.063615 -0.002881
0.465339 -0.037322 0.042808
0.465339 -0.075990 0.030364
0.465339 -0.009730 0.040667
0.465339 0.064167 0.050413
0.465339 0.043176 -0.048520
0.465339 0.072529 0.001997
0.465339 -0.006354 0.014310
0.465339 -0.092114 0.019535
0.465339 -0.002963 0.042789
0.465339 0.017495 -0.021030
0.465339 0.047236 0.087850
0.465339 -0.084937 -0.031967
0.465339 -0.087291 -0.033638
0.465339 0.062587 0.015110
0.465339 0.016264 0.078879
0.465339 0.062867 0.070493
0.465339 0.048557 0.005078
0.465339 0.009232 -0.090839
0.465339 0.071246 0.064998
0.465339 -0.008516 -0.016030
0.465339 0.018946 0.027839
0.465339 0.058175 -0.058924
0.465339 0.006322 0.047071
0.465339 -0.058238 0.064837
0.465339 0.074988 -0.033171
0.465339 0.086791 -0.032592
0.465339 -0.027078 -0.007733
0.465339 -0.006741 -0.025521
0.465339 -0.038308 -0.022431
0.465339 -0.079805 -0.040129
0.465339 0.017079 0.008342
0.465339 -0.019272 0.046050
0.465339 -0.047866 0.013085
0.465339 0.096211 -0.009798
0.465339 0.003084 0.042686
0.465339 -0.000667 -0.056551
0.465339 -0.035771 -0.061760
0.465339 0.090777 -0.025191
0.465339 0.051621 -0.020636
0.465339 -0.075507 -0.051039
0.465339 0.046400 -0.024159
0.465339 0.049647 -0.066495
0.465339 0.020115 -0.013649
0.465339 0.052898 0.005295
0.465339 0.033100 0.025004
0.465339 0.063038 -0.057741
0.465339 0.009408 -0.075066
0.465339 0.027869 -0.018312
0.465339 0.048130 0.032883
0.465339 -0.063167 -0.020610
0.465339 -0.073884 -0.028341
0.465339 0.065431 0.062589
0.465339 0.071335 0.032258
0.465339 0.085415 0.030496
0.465339 0.045719 -0.041915
0.465339 -0.072451 0.057720
0.465339 0.008188 0.057587
0.465339 -0.044775 0.039400
0.465339 -0.026373 0.076027
0.465339 0.019577 -0.001675
0.465339 0.060036 0.057121
0.465339 -0.013123 0.083406
0.465339 -0.065040 -0.007219
0.465339 -0.040992 -0.030991
0.465339 0.050130 0.062846
0.465339 0.010951 0.001028
0.465339 -0.017987 0.083022
0.465339 0.040631 0.056143
0.465339 -0.019790 0.035263
0.465339 0.026335 -0.077310
0.465339 0.086512 0.040712
0.465339 0.021573 0.069275
0.465339 0.025918 -0.051586
0.465339 0.054735 0.009671
0.465339 -0.045521 -0.077430
0.465339 -0.004708 -0.033836
0.465339 0.068822 0.049182
0.465339 0.005463 -0.063295
0.465339 0.061567 -0.052505
0.465339 0.022502 0.049396
0.465339 0.048655 0.062436
0.465339 -0.088809 -0.035431
0.465339 -0.019395 0.094288
0.465339 -0.057985 0.010801
0.465339 -0.077931 0.019439
0.465339 -0.074700 0.025632
0.465339 -0.066122 0.016518
0.465339 0.048944 0.084112
0.465339 0.020155 -0.049940
0.465339 0.059932 -0.053564
0.465339 0.034984 -0.039069
0.465339 -0.066429 0.000483
0.465339 0.089439 -0.037845
0.465339 -0.004283 0.015450
0.465339 0.022586 -0.069572
0.465339 -0.032129 0.088424
0.465339 -0.042724 -0.030128
0.465339 -0.098928 0.011474
0.465339 0.086913 -0.047311
0.465339 -0.023128 -0.003951
0.465339 -0.026999 0.027306
0.465339 0.063377 -0.021701
0.465339 0.084439 -0.019524
0.465339 0.052707 0.006699
0.465339 0.019926 -0.043001
0.465339 0.067029 -0.025571
0.465339 -0.009161 -0.058404
0.465339 -0.060713 0.039921
0.465339 -0.068611 -0.001152
0.465339 -0.065650 0.029901
0.465339 0.032588 0.060813
0.465339 0.087549 -0.011444
0.465339 -0.057842 -0.078417
0.465339 -0.062901 -0.010013
0.465339 -0.078015 -0.024092
0.465339 0.052101 0.023209
0.465339 0.010577 -0.017893
0.465339 0.020926 0.018956
0.465339 0.073610 0.016149
0.465339 -0.089979 0.023154
0.465339 0.009987 0.034474
0.465339 0.042039 -0.052779
0.465339 0.023738 0.039750
0.465339 -0.070637 -0.005371
0.465339 -0.028780 -0.012946
0.465339 0.014526 0.096880
0.465339 -0.044935 0.058589
0.465339 0.070999 0.042962
0.465339 -0.089103 0.021330
0.465339 -0.046917 -0.040094
0.465339 -0.045800 -0.052777
0.465339 0.063465 0.030183
0.465339 0.005274 -0.073247
0.465339 -0.011687 -0.049342
0.465339 -0.048746 -0.008925
0.465339 -0.045869 -0.032069
0.465339 -0.056057 -0.014616
0.465339 -0.007054 -0.002835
0.465339 -0.049185 0.005817
0.465339 -0.016147 -0.003079
0.465339 0.021165 -0.087856
0.465339 -0.010109 0.048487
0.465339 0.091291 -0.006364
0.465339 0.029081 0.080754
0.465339 0.036810 0.042500
0.465339 0.000315 0.090073
0.465339 0.070212 -0.029474
0.465339 0.050228 -0.025918
0.465339 0.024588 0.057056
0.465339 -0.068995 0.033574
0.465339 -0.076019 0.055201
0.465339 0.063823 -0.023083
0.465339 0.031717 0.029615
0.465339 -0.069516 -0.068721
0.465339 0.060048 0.000936
0.465339 0.078240 -0.025259
0.465339 -0.079589 -0.037886
0.465339 0.014485 0.014402
0.465339 -0.046146 0.011173
0.465339 0.008604 0.090859
0.465339 0.011077 0.009384
0.465339 0.058492 -0.079451
0.465339 0.003961 -0.042032
0.465339 -0.011239 0.020437
0.465339 -0.035719 0.040913
0.465339 0.029728 -0.084663
0.465339 0.060392 -0.072990
0.465339 -0.042384 0.090572
0.465339 0.085363 -0.051747
0.465339 -0.030724 0.089904
0.465339 0.040945 -0.035524
0.465339 -0.067007 -0.060655
0.465339 -0.002825 0.039779
0.465339 0.033011 0.094209
0.465339 0.005607 -0.041429
0.465339 0.035210 0.006337
0.465339 0.071331 0.039943
0.465339 -0.018423 -0.062053
0.465339 -0.031169 0.013374
0.465339 0.000139 -0.070506
0.465339 0.069074 0.003490
0.465339 0.044543 0.073184
0.465339 -0.019113 -0.043374
0.465339 0.006245 -0.009097
0.465339 -0.000999 0.055920
0.465339 -0.072758 0.000851
0.465339 0.010596 0.081956
0.465339 0.024254 0.002912
0.465339 -0.047267 0.082455
0.465339 -0.042140 -0.041731
0.465339 -0.008696 -0.055028
0.465339 0.007773 -0.080582
0.465339 0.006519 0.001073
0.465339 -0.012067 0.019185
0.465339 0.045273 -0.052164
0.465339 0.021255 0.051035
0.465339 -0.046241 -0.046142
0.465339 -0.060955 -0.066700
0.465339 -0.086816 0.006955
0.465339 -0.095229 0.015802
0.465339 0.019470 -0.036398
0.465339 0.082187 0.009785
0.465339 0.019229 0.004665
0.465339 -0.041540 -0.007544
0.465339 0.020693 -0.072538
0.465339 0.080963 -0.003294
0.465339 0.007078 -0.064770
0.465339 -0.065248 0.058485
0.465339 -0.038940 -0.046249
0.465339 -0.031923 -0.032099
0.465339 0.092870 0.014977
0.465339 0.079470 -0.009983
0.465339 0.082188 0.025447
0.465339 0.010227 -0.060105
0.465339 -0.081645 -0.021308
0.465339 -0.070587 0.020545
0.465339 0.010967 0.089026
0.465339 0.041973 -0.085501
0.465339 -0.086121 0.004515
0.465339 0.031860 -0.075784
0.465339 -0.037869 -0.019213
0.465339 -0.038315 -0.083798
0.465339 0.010295 -0.049654
0.465339 0.046502 0.053831
0.465339 -0.042538 -0.077129
0.465339 0.045506 -0.019905
0.465339 -0.018940 -0.006278
0.465339 -0.060286 0.011604
0.465339 -0.049621 -0.029324
0.465339 0.077855 -0.054186
0.465339 -0.076853 0.041705
0.465339 -0.020161 0.051462
0.465339 0.075393 -0.029219
0.465339 0.069977 0.031794
0.465339 0.053471 -0.046462
0.465339 0.078073 0.045444
0.465339 0.060014 -0.050793
0.465339 0.046511 0.005569
0.465339 0.001385 0.049605
0.465339 -0.011541 0.083325
0.465339 -0.044101 0.059698
0.465339 -0.050681 -0.077785
0.465339 -0.047649 0.059384
0.465339 0.061225 -0.009120
0.465339 -0.076887 -0.018197
0.465339 0.042914 -0.043159
0.465339 0.028789 0.063993
0.465339 0.011537 0.083520
0.465339 0.033099 0.015177
0.465339 -0.085972 -0.033143
0.465339 0.036830 0.074678
0.465339 -0.039434 -0.034572
0.465339 0.064348 0.037827
0.465339 0.077845 -0.044383
0.465339 -0.056550 -0.041317
0.465339 -0.044867 0.009787
0.465339 0.073199 -0.057240
0.465339 -0.050976 -0.055416
0.465339 -0.067503 -0.041524
0.465339 -0.026373 -0.047240
0.465339 -0.072424 -0.017879
0.465339 -0.066468 0.065040
0.465339 0.050874 0.059330
0.465339 -0.075045 0.003304
0.465339 0.048776 0.023743
0.465339 0.088668 0.002824
0.465339 -0.015509 0.090888
0.465339 -0.063503 0.020719
0.465339 0.078292 0.035023
0.465339 0.048928 -0.014119
0.465339 0.013285 -0.022548
0.465339 -0.044563 0.067140
0.465339 0.002475 0.057109
0.465339 0.020671 -0.029047
0.465339 -0.034051 -0.020133
0.465339 0.020528 -0.096882
0.465339 -0.060181 -0.026179
0.465339 -0.087924 -0.007368
0.465339 0.084217 0.045012
0.465339 0.036637 0.065337
0.465339 -0.002808 -0.071155
0.465339 -0.055565 -0.076624
0.465339 0.021720 -0.001724
0.465339 0.081572 -0.021667
0.465339 -0.065125 0.064149
0.465339 -0.083705 -0.001317
0.465339 0.060530 -0.030326
0.465339 -0.062739 -0.066946
0.465339 0.074624 0.014995
0.465339 -0.091378 0.034422
0.465339 0.079665 0.042773
0.465339 0.026805 -0.030525
0.465339 -0.016466 0.002098
0.465339 -0.083938 0.020838
0.465339 0.055340 0.023773
0.465339 -0.013832 0.097443
0.465339 0.009449 -0.085862
0.465339 -0.039710 0.033855
0.465339 0.080903 0.054108
0.465339 -0.000509 -0.030614
0.465339 0.054359 -0.041865
0.465339 -0.000255 -0.042121
0.465339 -0.034881 -0.014627
0.465339 -0.090686 -0.008997
0.465339 -0.055339 0.049320
0.465339 0.011486 0.053086
0.465339 0.071975 0.051366
0.465339 -0.040849 -0.029673
0.465339 0.035309 0.017405
0.465339 -0.076451 0.003582
0.465339 -0.022281 -0.018108
0.465339 -0.042096 -0.066395
0.465339 0.003176 -0.029364
0.465339 0.000808 -0.080179
0.465339 0.088738 -0.036266
0.465339 -0.067860 0.014681
0.465339 -0.011114 0.029219
0.465339 0.003440 -0.058950
0.465339 -0.039196 -0.089157
0.465339 -0.050818 0.083431
0.465339 0.011345 0.067255
0.465339 -0.038489 0.026142
0.465339 -0.022450 -0.026040
0.465339 -0.030364 0.058120
0.465339 -0.050132 -0.004604
0.465339 0.045850 0.039308
0.465339 -0.013467 -0.088827
0.465339 -0.029048 -0.045286
0.465339 0.087719 0.022183
0.465339 0.036608 0.000693
0.465339 -0.010622 0.013445
0.465339 -0.012107 0.032343
0.465339 0.076818 0.060115
0.465339 -0.027254 0.067973
0.465339 0.040446 -0.047669
0.465339 0.007297 -0.066216
0.465339 -0.034855 -0.072369
0.465339 0.011467 0.092810
0.465339 0.052318 -0.033080
0.465339 0.049796 -0.061209
0.465339 0.079121 0.030295
0.465339 -0.049475 0.072748
0.465339 -0.050170 -0.026326
0.465339 -0.010813 -0.000491
0.465339 0.068620 -0.050606
0.465339 -0.035699 -0.050233
0.465339 0.051183 0.030434
0.465339 -0.028877 0.061065
0.465339 -0.085045 0.046817
0.465339 0.027418 -0.068894
0.465339 -0.057737 0.019603
0.465339 -0.048679 0.060799
0.465339 -0.071841 0.066345
0.465339 0.069405 0.069895
0.465339 -0.070795 -0.064933
0.465339 0.028723 -0.053556
0.465339 -0.053238 0.003601
0.465339 0.001941 -0.086865
0.465339 -0.088706 0.018496
0.465339 -0.023666 -0.095297
0.465339 0.071828 -0.056178
0.465339 -0.078839 0.021001
0.465339 0.053134 -0.065697
0.465339 -0.013876 -0.086702
0.465339 0.032842 -0.050043
0.465339 -0.012984 -0.062863
0.465339 -0.057269 0.006099
0.465339 -0.015644 -0.057857
0.465339 -0.072361 -0.039057
0.465339 -0.027483 0.016468
0.465339 -0.083012 -0.007973
0.465339 -0.028707 -0.088272
0.465339 -0.002622 -0.002586
0.465339 0.020426 -0.094228
0.465339 -0.064555 0.060931
0.465339 -0.009588 -0.098824
0.465339 0.019574 0.094053
0.465339 0.021529 -0.018021
0.465339 0.034994 -0.077727
0.465339 0.045618 0.052742
0.465339 -0.070074 -0.012181
0.465339 -0.088931 0.004247
0.465339 0.064013 0.034583
0.465339 0.037629 -0.092105
0.465339 -0.038989 -0.091640
0.465339 0.018654 0.092443
0.465339 0.004349 0.027773
0.465339 -0.068233 0.010228
0.465339 -0.087587 -0.041544
0.465339 -0.025641 -0.037947
0.465339 0.078098 0.058746
0.465339 -0.040493 -0.090956
0.465339 -0.015063 -0.067919
0.465339 0.018269 0.098250
0.465339 -0.027845 -0.068288
0.465339 0.070422 -0.070263
0.465339 0.082642 -0.053684
0.465339 -0.042732 0.056369
0.465339 -0.030844 -0.025331
0.465339 -0.058838 -0.043409
0.465339 0.073906 0.048073
0.465339 -0.021214 0.012324
0.465339 -0.014637 0.007960
0.465339 -0.023161 -0.087931
0.465339 0.030789 -0.089862
0.465339 0.036648 0.040427
0.465339 0.034218 -0.032775
0.465339 0.002304 -0.044836
0.465339 -0.008882 -0.036622
0.465339 -0.028316 0.007580
0.465339 0.056500 -0.032152
0.465339 -0.054730 -0.046755
0.465339 0.018135 -0.009988
0.465339 0.019763 0.043683
0.465339 -0.087501 0.003421
0.465339 0.011424 -0.030060
0.465339 0.066474 0.005253
0.465339 0.006606 0.006996
0.465339 -0.043424 -0.063766
0.465339 -0.044145 -0.049728
0.465339 0.043372 0.008837
0.465339 -0.025160 -0.026356
0.465339 0.033550 -0.070642
0.465339 -0.044788 -0.004338
0.465339 0.016502 0.096131
0.465339 0.048044 -0.061568
0.465339 -0.017504 -0.044343
0.465339 -0.007421 0.021273
0.465339 0.015881 0.015427
0.465339 -0.067063 0.030737
0.465339 0.075942 0.018374
0.465339 -0.033976 0.086548
0.465339 -0.036073 -0.018257
0.465339 -0.077067 0.034073
0.465339 -0.029794 0.013329
0.465339 -0.006382 -0.068091
0.465339 -0.017773 -0.065434
0.465339 -0.094582 -0.006252
0.465339 0.032157 0.007805
0.465339 -0.099360 -0.008015
0.465339 0.054721 0.076587
0.465339 0.071401 0.022376
0.465339 -0.000038 0.020838
0.465339 0.028243 0.029453
0.465339 -0.033327 0.010790
0.465339 0.042095 0.020758
0.465339 -0.075877 0.021695
0.465339 -0.001113 -0.060323
0.465339 0.093502 -0.009838
0.465339 -0.030126 0.062604
0.465339 0.002765 0.077549
0.465339 -0.065705 0.074037
0.465339 0.022774 -0.045425
0.465339 0.066479 0.074407
0.465339 -0.004128 -0.029214
0.465339 -0.018040 0.035349
0.465339 0.073761 0.062054
0.465339 0.012535 -0.097318
0.465339 -0.056553 0.009096
0.465339 0.040069 -0.028530
0.465339 0.041847 -0.072643
0.465339 0.037139 0.056834
0.465339 -0.061323 0.052445
0.465339 -0.037683 0.053739
0.465339 0.010040 0.031466
0.465339 -0.081547 -0.016015
0.465339 -0.096227 0.019114
0.465339 -0.055044 0.033045
0.465339 -0.046202 0.078490
0.465339 -0.070494 -0.040698
0.465339 0.033439 0.027757
0.465339 -0.038939 0.055556
0.465339 0.017803 -0.048691
0.465339 -0.083841 -0.026779
0.465339 0.058844 -0.035913
0.465339 0.042460 0.044526
0.465339 0.032091 -0.060030
0.465339 -0.048493 0.046195
0.465339 0.024825 0.021725
0.465339 0.048895 0.078252
0.465339 -0.047216 -0.041551
0.465339 -0.005182 -0.036152
0.465339 0.039768 0.026804
0.465339 0.051765 0.000425
0.465339 -0.004620 0.027344
0.465339 0.019918 -0.057956
0.465339 -0.019616 -0.019687
0.465339 0.037814 -0.033564
0.465339 0.067187 0.060471
0.465339 0.095434 0.029577
0.465339 0.048745 -0.053068
0.465339 0.026680 -0.012674
0.465339 -0.003829 0.093913
0.465339 0.057048 0.058085
0.465339 -0.035251 0.066619
0.465339 0.012356 0.044517
0.465339 -0.013953 -0.030861
0.465339 -0.029575 -0.010357
0.465339 0.058504 -0.041170
0.465339 -0.054514 0.010976
0.465339 0.085264 0.005490
0.465339 0.074320 0.013394
0.465339 -0.072997 0.017099
0.465339 -0.013332 -0.022926
0.465339 -0.011950 0.048019
0.465339 0.010207 0.028313
0.465339 0.003534 0.015944
0.465339 0.058084 0.079529
0.465339 0.043529 -0.058141
0.465339 0.052481 -0.035095
0.465339 0.019126 -0.030889
0.465339 -0.056102 0.058802
0.465339 0.049951 0.006253
0.465339 0.066668 0.054929
0.465339 -0.023433 0.024791
0.465339 0.026044 -0.038282
0.465339 0.051458 0.004315
0.465339 0.022404 0.028555
0.465339 0.057206 0.009477
0.465339 0.062854 0.073503
0.465339 -0.063639 0.058062
0.465339 -0.050194 -0.046712
0.465339 0.048065 0.010604
0.465339 0.013071 0.094991
0.465339 -0.075991 -0.002284
0.465339 -0.032382 -0.026527
0.465339 0.013272 0.023717
0.465339 -0.078601 0.026908
0.465339 0.041200 0.046432
0.465339 0.072838 0.041982
0.465339 0.072071 -0.002974
0.465339 -0.027746 -0.052991
0.465339 -0.029879 -0.082880
0.465339 -0.034970 -0.065087
0.465339 0.033282 0.038962
0.465339 -0.040601 -0.045157
0.465339 0.034548 -0.061661
0.465339 -0.021669 -0.085962
0.465339 -0.021760 0.007058
0.465339 0.056894 0.053095
0.465339 -0.049519 -0.007292
0.465339 0.054886 0.061982
0.465339 -0.043281 -0.009333
0.465339 -0.026190 -0.054117
0.465339 -0.038441 -0.065286
0.465339 0.067791 -0.055100
0.465339 -0.064572 0.051324
0.465339 0.005301 -0.048163
0.465339 -0.047764 -0.034693
0.465339 0.035200 -0.029127
0.465339 -0.020104 0.014329
0.465339 0.013968 -0.082894
0.465339 -0.005168 -0.054950
0.465339 -0.032904 -0.041323
0.465339 0.063182 -0.001454
0.465339 0.005701 0.002881
0.465339 0.071442 -0.034143
0.465339 0.053323 -0.038837
0.465339 -0.015337 0.024796
0.465339 0.067827 -0.069419
0.465339 -0.078638 0.014101
0.465339 0.071555 0.061288
0.465339 -0.074573 0.012054
0.465339 0.005270 0.072083
0.465339 -0.007182 -0.090662
0.465339 -0.026029 -0.027941
0.465339 -0.026146 -0.069452
0.465339 -0.020661 0.066444
0.465339 -0.003851 -0.091503
0.465339 0.082256 -0.026362
0.465339 -0.044930 -0.007051
0.465339 0.047894 -0.081938
0.465339 0.087679 -0.033751
0.465339 -0.056110 0.044685
0.465339 0.040282 -0.049406
0.465339 0.005849 0.005684
0.465339 -0.034441 -0.034130
0.465339 -0.060791 -0.046005
0.465339 -0.009456 -0.017356
0.465339 -0.025880 0.018157
0.465339 0.024847 -0.026164
0.465339 -0.095068 -0.013619
0.465339 -0.090582 -0.035441
0.465339 -0.014515 0.093339
0.465339 0.024642 0.044894
0.465339 -0.028148 0.084485
0.465339 0.063336 0.077495
0.465339 -0.085693 -0.014932
0.465339 -0.023136 -0.057191
0.465339 -0.038448 0.039744
0.465339 0.020630 0.016581
0.465339 0.026981 -0.048480
0.465339 0.059764 0.043505
0.465339 -0.045176 -0.058040
0.465339 -0.067555 0.039184
0.465339 0.028051 -0.002589
0.465339 0.031759 -0.003178
0.465339 0.004849 0.019296
0.465339 0.033503 0.078425
0.465339 -0.087512 0.008385
0.465339 -0.012201 0.074451
0.465339 -0.064474 -0.020166
0.465339 0.017588 -0.025846
0.465339 -0.027353 -0.056855
0.465339 -0.087947 0.005864
0.465339 -0.075444 -0.040005
0.465339 0.059737 -0.049200
0.465339 0.013897 -0.026379
0.465339 0.059863 -0.076361
0.465339 0.034973 0.067619
0.465339 -0.042261 -0.022941
0.465339 0.057077 0.050067
0.465339 0.015772 0.071037
0.465339 -0.053232 0.075050
0.465339 0.011236 -0.008764
0.465339 -0.031065 -0.009023
0.465339 0.036980 -0.001194
0.465339 -0.021535 0.069438
0.465339 -0.086263 0.013104
0.465339 -0.048009 0.008709
0.465339 0.044526 0.003495
0.465339 -0.031381 0.051263
0.465339 0.058364 0.040216
0.465339 -0.046847 -0.083891
0.465339 0.006370 0.066426
0.465339 -0.036020 0.069299
0.465339 -0.080789 0.003478
0.465339 -0.071768 -0.045277
0.465339 0.051014 -0.055876
0.465339 -0.067591 0.037561
0.465339 -0.050866 0.032817
0.465339 -0.069426 0.071744
0.465339 0.028224 0.088022
0.465339 0.078729 -0.015861
0.465339 0.021836 -0.027790
0.465339 -0.010965 0.097235
0.465339 0.096029 -0.020143
0.465339 -0.031497 0.003936
0.465339 -0.045760 -0.030688
0.465339 -0.036913 0.061973
0.465339 -0.005995 -0.005664
0.465339 -0.050496 -0.082031
0.465339 0.016443 0.081842
0.465339 0.066184 -0.008795
0.465339 0.035061 0.039400
0.465339 0.019642 0.083188
0.465339 -0.021434 0.060044
0.465339 0.036657 0.005992
0.465339 0.079243 -0.029451
0.465339 0.099647 -0.004894
0.465339 -0.007845 -0.079814
0.465339 -0.019328 -0.007876
0.465339 -0.051363 -0.064641
0.465339 -0.068412 0.000264
0.465339 -0.028079 0.086071
0.465339 -0.047323 0.065672
0.465339 0.083420 0.032636
0.465339 0.034192 0.058763
0.465339 0.016054 0.063823
0.465339 0.012067 0.040281
0.465339 -0.011144 0.053517
0.465339 -0.017478 0.052292
0.465339 0.008270 0.081233
0.465339 -0.036183 0.077051
0.465339 0.054344 0.045382
0.465339 -0.042075 0.043477
0.465339 0.039528 -0.067741
0.465339 -0.069558 0.068163
0.465339 -0.039466 0.066263
0.465339 0.044499 -0.041009
0.465339 -0.039005 0.060235
0.465339 -0.006326 0.085662
0.465339 -0.073061 -0.033728
0.465339 0.043382 -0.084497
0.465339 -0.010651 0.066776
0.465339 0.055907 0.073337
0.465339 0.080653 0.046887
0.465339 0.085480 -0.041425
0.465339 0.075103 0.031485
0.465339 0.073773 0.056920
0.465339 0.033742 -0.088490
0.465339 -0.064319 -0.032756
0.465339 -0.042814 -0.012575
0.465339 0.095979 0.019231
0.465339 -0.055780 -0.036009
0.465339 -0.040701 0.060915
0.465339 0.056938 0.039513
0.465339 0.032818 0.023595
0.465339 -0.030676 -0.071344
0.465339 0.066970 0.066576
0.465339 0.059239 -0.020262
0.465339 0.087568 0.024294
0.465339 -0.017109 -0.030968
0.465339 -0.068823 -0.054867
0.465339 0.044942 -0.022079
0.465339 -0.014937 0.039089
0.465339 0.018614 0.012039
0.465339 -0.066827 -0.070712
0.465339 -0.013562 0.066505
0.465339 -0.081388 0.022832
0.465339 0.008368 -0.094452
0.465339 0.028642 0.083462
0.465339 0.041480 0.016440
0.465339 -0.014177 -0.082641
0.465339 0.034227 -0.021986
0.465339 0.072398 0.045176
0.465339 0.081546 -0.027771
0.465339 0.033097 -0.023479
0.465339 0.025096 0.018544
0.465339 0.040210 -0.016985
0.465339 -0.000484 -0.075638
0.465339 0.006275 0.070358
0.465339 -0.004554 -0.094933
0.465339 -0.053171 0.049266
0.465339 0.077221 0.024661
0.465339 -0.091974 -0.036562
0.465339 0.041594 -0.028906
0.465339 -0.031454 -0.023926
0.465339 -0.006683 -0.041755
0.465339 0.056087 0.031896
0.465339 0.070884 -0.019325
0.465339 -0.002187 0.030547
0.465339 -0.022546 0.078325
0.465339 0.075243 -0.027581
0.465339 0.001335 0.086584
0.465339 -0.017802 -0.063382
0.465339 -0.060614 0.002342
0.465339 0.086257 0.034139
0.465339 -0.006634 0.076463
0.465339 -0.014105 -0.071551
0.465339 -0.032094 -0.010194
0.465339 -0.001828 -0.009734
0.465339 -0.019658 0.031286
0.465339 -0.064770 -0.067326
0.465339 0.062845 0.050822
0.465339 -0.043591 0.027877
0.465339 -0.011020 -0.005246
0.465339 0.026462 0.033933
0.465339 -0.024141 0.012591
0.465339 -0.032790 -0.066250
0.465339 0.028195 -0.047287
0.465339 0.007916 0.047424
0.465339 -0.004827 0.018493
0.465339 -0.084872 0.013950
0.465339 -0.042722 0.016978
0.465339 -0.038750 0.010874
0.465339 -0.026339 -0.003293
0.465339 -0.047955 -0.056418
0.465339 0.061574 0.078045
0.465339 0.035500 -0.053715
0.465339 0.006582 -0.042894
0.465339 0.075860 0.006269
0.465339 -0.045989 0.030229
0.465339 -0.099543 -0.000629
0.465339 0.064373 -0.010748
0.465339 -0.038247 -0.052526
0.465339 0.062674 -0.017594
0.465339 0.056063 0.030063
0.465339 -0.056277 0.074156
0.465339 -0.083573 0.015659
0.465339 0.051111 0.043820
0.465339 -0.043152 -0.024363
0.465339 -0.042763 -0.027293
0.465339 0.036089 -0.004057
0.465339 -0.055969 -0.004487
0.465339 -0.071904 -0.020823
0.465339 -0.081603 0.007985
0.465339 0.052174 0.071040
0.465339 -0.030401 -0.034494
0.465339 0.013912 -0.010533
0.465339 0.076974 0.012079
0.465339 -0.074414 0.061722
0.465339 -0.046694 0.009663
0.465339 -0.001551 0.059968
0.465339 0.035181 0.020326
0.465339 0.062819 0.021157
0.465339 0.059168 0.049114
0.465339 -0.001210 -0.015298
0.465339 0.001203 -0.088946
0.465339 0.072712 -0.018672
0.465339 0.013789 -0.047907
0.465339 -0.071620 0.001786
0.465339 -0.023408 0.062151
0.465339 -0.040647 0.006275
0.465339 -0.025372 -0.040878
0.465339 -0.046562 0.061134
0.465339 -0.009808 -0.060089
0.465339 0.053589 -0.060875
0.465339 0.033902 -0.091645
0.465339 -0.082522 0.030242
0.465339 -0.040825 0.032718
0.465339 -0.018858 -0.083497
0.465339 0.035997 -0.091272
0.465339 0.032164 0.040347
0.465339 0.023478 0.019336
0.465339 -0.040771 -0.035218
0.465339 0.034857 -0.004940
0.465339 0.084105 0.000630
0.465339 -0.043809 0.047171
0.465339 0.063186 -0.041289
0.465339 -0.004490 0.022238
0.465339 0.010708 -0.038156
0.465339 0.037531 0.071105
0.465339 -0.096591 -0.016737
0.465339 0.081688 0.022145
0.465339 0.023454 0.065109
0.465339 -0.024530 -0.008452
0.465339 0.037996 0.080008
0.465339 0.015858 0.022402
0.465339 0.035265 0.001963
0.465339 0.002571 -0.002737
0.465339 0.032997 -0.031428
0.465339 0.048457 -0.001075
0.465339 -0.044525 -0.084943
0.465339 -0.078441 0.038520
0.465339 -0.033440 0.032985
0.465339 0.025261 0.032503
0.465339 -0.027087 -0.023908
0.465339 -0.037721 0.041350
0.465339 0.018896 0.079841
0.465339 -0.041487 0.074688
0.465339 0.007418 0.062706
0.465339 0.073857 -0.051848
0.465339 -0.043572 0.065778
0.465339 0.068272 0.065443
0.465339 -0.046355 -0.048906
0.465339 -0.012543 -0.010315
0.465339 0.011397 -0.022877
0.465339 -0.027213 0.031891
0.465339 -0.007520 -0.071677
0.465339 -0.068789 -0.046646
0.465339 0.082803 0.043836
0.465339 0.051972 -0.050457
0.465339 0.049777 0.043136
0.465339 -0.085115 -0.036974
0.465339 -0.087562 -0.010964
0.465339 -0.072608 -0.067080
0.465339 -0.046857 0.018220
0.465339 0.033473 0.064990
0.465339 0.011963 0.097347
0.465339 0.060930 0.028077
0.465339 -0.002977 0.001607
0.465339 -0.050753 0.080721
0.465339 0.042004 0.052191
0.465339 -0.004952 0.063248
0.465339 -0.080382 -0.041595
0.465339 0.088470 -0.007908
0.465339 0.016611 -0.096929
0.465339 -0.032516 0.021128
0.465339 0.065876 0.032026
0.465339 -0.090130 0.032495
0.465339 0.021951 -0.050299
0.465339 -0.075732 -0.030710
0.465339 -0.065128 -0.010087
0.465339 0.009010 -0.017057
0.465339 -0.064334 0.039575
0.465339 0.029856 -0.040827
0.465339 0.057461 -0.043746
0.465339 0.074297 -0.016109
0.465339 -0.063018 0.009024
0.465339 0.055002 -0.072682
0.465339 -0.072037 0.004814
0.465339 -0.057275 -0.061478
0.465339 0.013422 -0.077963
0.465339 0.056665 -0.047295
0.465339 -0.074598 -0.021563
0.465339 0.049215 0.013736
0.465339 -0.056779 -0.002769
0.465339 0.046976 -0.048592
0.465339 -0.001072 -0.011502
0.465339 -0.007450 -0.067111
0.465339 -0.022033 0.095082
0.465339 -0.049145 0.000435
0.465339 -0.010870 -0.078056
0.465339 0.053606 -0.005752
0.465339 -0.000755 0.043588
0.465339 0.031404 -0.038203
0.465339 -0.064023 -0.063126
0.465339 -0.072855 0.047176
0.465339 0.075445 0.033481
0.465339 0.068325 -0.063965
0.465339 -0.086689 -0.006033
0.465339 -0.024688 0.010726
0.465339 -0.034269 0.015422
0.465339 -0.005685 -0.091328
0.465339 0.076227 -0.048807
0.465339 -0.015656 -0.030945
0.465339 0.005050 0.086098
0.465339 -0.024799 -0.071210
0.465339 0.053611 0.057534
0.465339 0.074055 -0.005878
0.465339 -0.022424 -0.069470
0.465339 0.068692 0.011378
0.465339 -0.015782 -0.056433
0.465339 0.027424 -0.095534
0.465339 -0.024393 0.054727
0.465339 0.031215 0.075912
0.465339 -0.032953 0.009387
0.465339 0.071741 -0.013135
0.465339 0.002524 -0.061081
0.465339 0.005534 0.051109
0.465339 -0.020022 -0.013632
0.465339 0.024290 0.078213
0.465339 0.078433 -0.018905
0.465339 -0.031702 0.001900
0.465339 0.026894 -0.082301
0.465339 0.033637 -0.029485
0.465339 0.021283 -0.070242
0.465339 -0.002669 0.012276
0.465339 -0.019964 -0.026348
0.465339 0.000430 0.034549
0.465339 -0.046827 0.021264
0.465339 -0.020474 0.015944
0.465339 -0.013887 0.052600
0.465339 0.015116 0.065321
0.465339 -0.024179 0.028144
0.465339 0.003976 -0.037221
0.465339 0.072470 0.010541
0.465339 0.060033 0.014692
0.465339 -0.042243 -0.003912
0.465339 0.004690 -0.057760
0.465339 -0.046874 -0.059998
0.465339 -0.015062 -0.043090
0.465339 0.095842 0.014369
0.465339 -0.070285 0.066307
0.465339 0.071774 -0.040783
0.465339 0.054732 -0.050400
0.465339 -0.036137 -0.088538
0.465339 0.086737 -0.027933
0.465339 0.095302 -0.027962
0.465339 0.016102 0.028226
0.465339 0.059287 0.030659
0.465339 0.032010 0.026555
0.465339 0.016913 0.018798
0.465339 0.028270 -0.049132
0.465339 0.064026 0.047420
0.465339 0.005733 -0.075175
0.465339 -0.019176 -0.091464
0.465339 -0.014649 -0.023410
0.465339 -0.061395 0.024462
0.465339 0.054801 0.016150
0.465339 -0.074588 -0.012760
0.465339 -0.004865 0.038772
0.465339 0.007061 -0.033340
0.465339 -0.071689 0.045322
0.465339 -0.019044 -0.016876
0.465339 0.059472 0.027221
0.465339 0.029664 -0.065768
0.465339 0.023906 -0.067899
0.465339 0.036733 0.068884
0.465339 -0.044677 0.015800
0.465339 0.078259 -0.032808
0.465339 0.031271 -0.087469
0.465339 -0.029251 0.042955
0.465339 0.055661 -0.074249
0.465339 -0.055273 0.042990
0.465339 0.004749 -0.079098
0.465339 -0.000981 0.046754
0.465339 -0.021362 0.077326
0.465339 -0.067337 -0.046220
0.465339 -0.086449 0.000811
0.465339 0.060378 0.007581
0.465339 -0.051396 -0.062390
0.465339 0.039034 0.085674
0.465339 -0.054462 -0.064570
0.465339 0.099920 -0.000856
0.465339 -0.010132 0.074539
0.465339 -0.025004 0.024475
0.465339 0.058271 0.058719
0.465339 0.046962 0.062983
0.465339 0.024071 0.036081
0.465339 0.003873 -0.003711
0.465339 -0.086732 -0.036313
0.465339 0.031940 -0.067870
0.465339 0.032791 0.054741
0.465339 -0.008814 -0.056840
0.465339 -0.092397 -0.027802
0.465339 -0.070820 -0.017766
0.465339 0.056777 0.011097
0.465339 -0.076523 -0.047187
0.465339 0.047822 0.029377
0.465339 -0.079374 0.019710
0.465339 -0.020029 -0.045183
0.465339 0.026362 0.025110
0.465339 -0.048412 0.002807
0.465339 -0.006413 0.096614
0.465339 0.043163 -0.030487
0.465339 -0.075857 0.064667
0.465339 -0.022100 0.075948
0.465339 -0.066093 -0.024203
0.465339 -0.002164 -0.073035
0.465339 0.061400 0.025673
0.465339 -0.026364 0.082194
0.465339 -0.005296 -0.075846
0.465339 -0.013790 0.082166
0.465339 0.011596 -0.065498
0.465339 -0.043307 -0.075683
0.465339 -0.002077 0.080825
0.465339 -0.083661 -0.002856
0.465339 -0.040503 -0.073881
0.465339 -0.050911 -0.020609
0.465339 0.051581 0.049624
0.465339 -0.012466 0.017280
0.465339 0.064604 -0.058723
0.465339 0.012290 0.078162
0.465339 0.092716 -0.003027
0.465339 0.037631 0.026811
0.465339 0.041259 -0.063554
0.465339 0.015374 -0.077212
0.465339 -0.053682 -0.034385
0.465339 -0.037723 -0.060300
0.465339 0.019799 -0.069661
0.465339 0.026465 -0.001097
0.465339 0.082154 -0.012082
0.465339 0.080870 0.012592
0.465339 -0.072821 0.022396
0.465339 -0.036407 0.083479
0.465339 -0.069565 0.036365
0.465339 0.045616 0.014317
0.465339 0.072607 -0.038656
0.465339 -0.077191 0.032106
0.465339 -0.039980 0.058814
0.465339 0.020116 -0.088834
0.465339 -0.018198 0.030041
0.465339 -0.043189 0.008368
0.465339 -0.002490 0.064149
0.465339 -0.079721 -0.008664
0.465339 -0.004091 -0.002749
0.465339 -0.050181 0.077985
0.465339 0.002703 -0.043113
0.465339 0.071987 -0.037317
0.465339 -0.027197 -0.006188
0.465339 -0.094015 -0.028420
0.465339 -0.034430 -0.001961
0.465339 -0.018264 -0.015513
0.465339 -0.036684 0.079250
0.465339 -0.001103 0.089944
0.465339 0.018995 0.016902
0.465339 -0.065709 0.028372
0.465339 0.009859 0.073410
0.465339 0.095607 0.027655
0.465339 -0.086530 0.046589
0.465339 -0.034431 -0.025795
0.465339 0.096968 0.015290
0.465339 0.018680 0.061625
0.465339 -0.055349 -0.065663
0.465339 -0.022712 0.000995
0.465339 -0.076646 0.027158
0.465339 -0.002483 -0.054145
0.465339 -0.083360 -0.035405
0.465339 0.015024 0.056291
0.465339 -0.093390 0.005448
0.465339 0.065805 -0.040715
0.465339 -0.043793 0.057514
0.465339 -0.049202 -0.066452
0.465339 -0.032978 0.054435
0.465339 0.011802 0.031397
0.465339 0.051444 -0.066811
0.465339 -0.001187 -0.069683
0.465339 0.093962 -0.032920
0.465339 0.044876 0.030174
0.465339 -0.033870 0.073050
0.465339 -0.066747 0.004490
0.465339 -0.055928 0.013816
0.465339 0.096521 0.022427
0.465339 0.077225 0.036378
0.465339 0.011681 0.038004
0.465339 -0.021259 -0.051638
0.465339 -0.038153 -0.079349
0.465339 0.002062 0.016490
0.465339 -0.074830 -0.038510
0.465339 -0.025573 0.031091
0.465339 0.035515 0.031801
0.465339 -0.037043 0.039083
0.465339 0.070488 -0.058633
0.465339 -0.034215 -0.030140
0.465339 0.004330 -0.035428
0.465339 0.070319 -0.009905
0.465339 -0.079856 0.022824
0.465339 -0.065036 -0.029990
0.465339 0.046582 0.003174
0.465339 0.021825 -0.079230
0.465339 0.026173 0.069791
0.465339 -0.041648 0.033843
0.465339 -0.013440 -0.093041
0.465339 0.026548 -0.094408
0.465339 0.049388 0.075585
0.465339 0.036256 -0.042765
0.465339 0.080825 0.003382
0.465339 -0.040958 -0.033553
0.465339 0.070558 -0.051460
0.465339 -0.032054 -0.082356
0.465339 0.018159 0.068674
0.465339 0.071835 -0.066345
0.465339 -0.015307 0.078115
0.465339 -0.003344 0.017225
0.465339 -0.070891 -0.067102
0.465339 -0.015039 0.014839
0.465339 -0.064898 -0.004165
0.465339 -0.052215 0.083772
0.465339 0.043843 0.071229
0.465339 -0.083785 0.022646
0.465339 0.035241 -0.074416
0.465339 -0.032562 -0.053114
0.465339 -0.000068 -0.026226
0.465339 0.048233 -0.086853
0.465339 0.045186 0.031567
0.465339 0.080310 -0.056445
0.465339 -0.023310 -0.091050
0.465339 -0.066482 0.072480
0.465339 -0.090731 0.003915
0.465339 0.012448 0.033572
0.465339 0.040993 -0.087897
0.465339 0.031925 0.018386
0.465339 0.053573 -0.057366
0.465339 0.022954 0.026971
0.465339 0.048654 0.087373
0.465339 -0.080436 -0.029294
0.465339 0.040333 0.047889
0.465339 -0.026016 0.002907
0.465339 0.044252 -0.016238
0.465339 0.069233 -0.021766
0.465339 0.097123 -0.002819
0.465339 0.063842 -0.076679
0.465339 -0.095006 0.029847
0.465339 -0.046172 0.055646
0.465339 -0.069398 0.014300
0.465339 -0.046931 0.033764
0.465339 0.024392 0.069558
0.465339 0.016947 -0.001019
0.465339 -0.043595 -0.028680
0.465339 -0.006700 0.080878
0.465339 -0.051038 0.069437
0.465339 0.019309 -0.045793
0.465339 0.010746 0.061877
0.465339 0.065053 0.002691
0.465339 -0.061607 0.021153
0.465339 0.072121 0.056887
0.465339 0.002670 -0.049524
0.465339 0.015916 -0.064045
0.465339 -0.084837 -0.051669
0.465339 0.047119 -0.055383
0.465339 0.096722 -0.000357
0.465339 -0.021977 -0.091821
0.465339 -0.081775 -0.019764
0.465339 0.028907 0.057169
0.465339 0.066612 -0.033095
0.465339 0.017896 0.053055
0.465339 0.091828 0.012032
0.465339 0.029495 -0.031660
