-0.366411 0.099572 0.008951
-0.389405 0.072173 -0.068957
0.122653 0.099578 0.008889
0.041309 -0.056885 -0.081794
0.343746 -0.098310 -0.016592
-0.063348 0.020116 -0.097651
-0.309769 0.069146 0.072346
0.375679 0.077094 0.063837
0.114047 -0.084463 0.053297
0.010824 0.098056 0.019704
-0.044296 0.015898 0.098766
0.167363 0.053744 0.084449
-0.358162 0.060720 -0.079164
-0.042767 -0.034617 0.093789
0.381516 -0.041090 -0.090773
-0.019984 0.000141 0.100069
0.329959 -0.009211 0.099584
-0.422077 0.077414 0.063425
-0.289959 0.095379 0.030145
0.178155 -0.009229 -0.099220
-0.289766 -0.098221 0.017519
-0.147159 0.083963 -0.054067
-0.016339 -0.052593 0.085001
-0.041771 0.070144 0.071349
0.138577 0.037586 0.092754
-0.149298 -0.091814 0.039132
0.060587 -0.082026 0.056936
0.318663 0.064177 0.076804
0.085597 -0.061739 -0.078193
0.326720 -0.082697 -0.055585
-0.227368 -0.098054 0.018575
0.401174 -0.056397 0.082488
-0.194209 -0.099111 0.011357
0.302721 0.058467 -0.080877
-0.353346 -0.091159 -0.040285
0.077676 0.096288 0.027015
-0.085835 0.097528 -0.021704
0.178134 -0.067152 0.073976
-0.137763 -0.099649 0.004087
0.449563 -0.032094 -0.094334
-0.048192 -0.073685 0.067441
-0.315601 0.023449 -0.096906
0.342224 -0.084666 0.052953
-0.064683 0.039482 0.091933
0.009348 0.062890 0.077843
-0.173592 0.039016 -0.091772
-0.148417 -0.057330 0.081854
0.248325 0.043268 -0.089884
-0.461745 0.005737 -0.099531
-0.391389 0.059064 -0.080448
-0.463125 0.094306 -0.032937
0.039742 -0.077457 -0.062706
-0.457398 -0.046026 0.088723
-0.410550 0.022313 -0.097160
-0.213905 0.085949 0.051179
0.114821 0.071556 -0.069573
0.385909 -0.059005 0.080676
0.208387 -0.050333 0.086338
-0.073685 0.094819 -0.031513
0.390162 -0.055206 0.083297
0.229866 -0.053022 -0.084385
0.072716 0.085746 0.051522
0.108205 0.043002 -0.090020
-0.206636 0.072003 -0.069127
0.450990 0.044343 -0.089336
-0.464686 0.098958 -0.013979
-0.458173 -0.080528 -0.058747
0.185924 -0.052789 0.084885
0.156704 0.060491 -0.079341
-0.215819 -0.088653 -0.045512
0.064193 -0.008555 -0.099283
-0.403827 -0.037843 -0.092178
-0.103368 -0.027040 -0.095896
0.183754 0.094558 0.032599
0.223493 0.000350 -0.099700
-0.028309 -0.042134 -0.090321
0.143472 -0.062892 0.077661
-0.048938 0.069973 -0.071156
0.030703 0.097991 -0.019634
-0.007161 0.014778 -0.098580
-0.091958 -0.058048 -0.081003
-0.195468 -0.050856 -0.085666
0.128753 -0.094265 -0.032403
-0.055435 0.092813 -0.037000
-0.373572 0.044386 0.089677
-0.165643 0.080346 -0.059283
-0.108441 -0.091949 0.038820
0.149703 -0.042860 -0.089973
-0.179684 0.096923 0.024772
-0.172428 0.021582 0.097686
0.118599 -0.091157 0.040650
0.187045 0.092858 -0.036897
-0.438241 -0.099562 -0.006228
0.030863 0.077560 -0.062874
-0.217724 0.053321 0.084708
0.103360 0.059342 0.080595
0.256387 -0.073986 0.067100
-0.401037 0.017277 0.098547
-0.464853 0.084974 0.052828
-0.253086 -0.089329 0.044549
-0.340955 -0.067818 -0.073026
0.382342 -0.000335 0.100056
0.175602 0.024234 0.097094
0.417378 -0.040414 0.091429
0.440738 -0.041822 0.090820
-0.440480 -0.028394 -0.095503
0.283206 -0.026621 0.096381
-0.014869 -0.099736 0.001319
-0.130587 -0.003982 -0.099578
-0.109763 -0.087336 -0.048077
0.356229 0.093047 -0.036433
0.202941 -0.062331 -0.077733
-0.099559 -0.009646 -0.099180
-0.056576 -0.022287 -0.097114
0.251939 0.069343 -0.071786
0.445013 0.099851 0.005091
0.146214 -0.098461 0.016004
-0.201129 0.015411 0.098843
0.040033 0.091258 0.040956
0.442919 0.087704 0.048197
-0.124018 -0.099590 -0.005592
0.040151 -0.096584 -0.024832
-0.059829 -0.051808 -0.085103
0.314267 0.082616 -0.056048
0.401891 -0.095429 0.029170
0.459964 0.096523 -0.025844
0.068485 0.099254 -0.011956
0.397356 -0.067914 0.073304
0.462671 0.057738 -0.081372
-0.338369 -0.030224 0.095334
-0.395913 -0.099592 0.005909
0.374281 0.097893 0.020433
-0.094220 -0.068168 0.073080
0.425400 0.010946 -0.099079
-0.402969 0.033666 0.094215
0.041049 -0.099706 -0.001908
0.268561 0.018954 -0.097911
0.089447 -0.099112 -0.010990
0.028881 0.087931 0.047751
-0.309382 -0.070830 -0.070066
0.303659 -0.009075 -0.099234
-0.035295 -0.039674 -0.091386
-0.204828 -0.052839 0.084856
-0.105900 -0.095410 -0.028870
0.390553 0.082984 0.055869
-0.152638 -0.093739 -0.033864
0.010065 -0.086189 -0.050016
0.327264 0.099998 -0.000064
-0.169839 0.085716 -0.051210
0.230462 0.068209 -0.072886
-0.005405 -0.025290 -0.096405
0.242250 0.022583 -0.097100
-0.358851 0.016926 -0.098240
0.141096 0.069943 0.071549
-0.324657 0.066473 -0.074417
0.097027 0.057932 -0.081240
0.035529 -0.051265 -0.085424
-0.121765 0.063176 0.077621
0.294710 0.094052 -0.033642
-0.064264 -0.043319 -0.089739
-0.283442 0.004424 0.099935
-0.162921 -0.053930 -0.083802
0.302465 -0.099649 -0.003740
0.318841 -0.081074 0.058337
0.109271 0.060712 -0.079170
0.143103 -0.043010 -0.089897
-0.160894 -0.007487 -0.099384
-0.112722 -0.073102 0.068102
-0.032972 0.014793 0.098941
0.019454 -0.088145 -0.046511
-0.090997 0.094420 -0.032621
-0.333729 -0.095529 -0.028462
-0.074677 0.098495 -0.016903
0.375799 0.099913 0.003101
-0.349039 0.031379 0.095039
0.283363 -0.074506 -0.066148
0.151108 -0.077743 -0.062337
-0.285928 -0.009829 0.099526
-0.106795 0.033600 0.094239
0.435880 -0.093106 -0.035622
0.014278 -0.062699 -0.077448
-0.150066 -0.099137 0.011087
-0.170370 0.099377 0.011019
-0.309641 0.089742 -0.043834
0.013537 -0.094392 -0.032049
0.445164 0.040642 0.091431
-0.188613 0.032898 -0.094129
0.214538 0.009237 0.099604
0.313226 0.068084 -0.072997
-0.265544 -0.060048 -0.079504
-0.283720 -0.049607 0.086767
0.353857 0.060604 -0.079254
0.307137 -0.013711 -0.098712
0.175856 0.097540 0.022010
-0.430776 -0.028180 0.095928
0.146013 0.084329 -0.053527
0.370071 -0.079578 -0.059971
0.240158 -0.032151 0.094677
0.154131 0.096894 0.024901
-0.465154 -0.091665 0.039476
-0.200304 -0.043461 0.090030
-0.187240 0.044880 -0.089063
-0.238260 -0.005802 -0.099521
0.301965 -0.098832 0.013660
-0.269462 0.026016 0.096624
0.294182 0.099554 -0.008775
0.201786 -0.097784 0.019876
-0.387110 -0.097520 0.021056
0.347808 0.045016 0.089356
0.110080 -0.062216 0.078185
-0.079531 -0.089066 -0.044703
-0.311108 0.072109 -0.069020
0.336711 -0.099694 0.002671
0.128096 -0.098805 -0.013470
-0.095759 0.020025 -0.097672
-0.169523 0.053966 -0.083935
0.309472 -0.096001 -0.026837
-0.413557 0.070524 -0.070605
0.166468 -0.068793 0.072466
0.103021 -0.081181 0.058179
-0.219262 -0.085392 -0.051364
0.109637 0.091621 0.040118
0.121784 -0.094093 -0.032881
-0.171940 -0.077047 0.063598
-0.327797 0.099593 0.008731
0.028612 -0.060033 -0.079516
-0.456758 -0.093068 -0.035726
-0.309659 0.031610 0.094956
0.437680 0.073052 0.068424
-0.234525 0.076429 0.064594
-0.005015 0.073085 0.068387
-0.105837 -0.007240 -0.099408
-0.083498 -0.060157 -0.079419
0.335913 -0.044148 0.089680
-0.233455 0.090920 0.041739
0.073978 -0.097997 -0.018558
-0.159056 -0.015165 0.098845
0.060645 0.034886 -0.093413
-0.044421 -0.099542 -0.006434
-0.430286 0.091988 0.039270
-0.209512 0.098226 -0.018580
-0.358581 0.098448 -0.017198
0.111553 0.050796 0.086202
0.392349 -0.097867 -0.019140
-0.056268 -0.091298 -0.039963
-0.184924 -0.007560 0.099740
0.140170 0.094725 -0.031773
-0.320019 -0.011603 -0.098995
0.105370 0.099621 0.008435
-0.054912 -0.063734 0.076989
-0.134999 -0.045075 0.089207
0.264784 0.043251 -0.089893
0.116459 0.099101 0.013439
-0.348742 -0.074805 0.066171
-0.371589 0.057143 0.082139
-0.018787 -0.088766 -0.045291
-0.348315 0.023916 0.097165
-0.213291 -0.096064 -0.026620
0.449804 -0.084540 0.053168
0.351920 0.097557 0.021937
-0.264746 0.066159 -0.074694
0.238291 0.088703 -0.045872
-0.302771 0.081318 0.058321
-0.154458 0.032449 -0.094291
0.462633 0.090128 0.043439
0.116281 -0.058633 -0.080602
-0.248994 -0.034120 0.093968
0.113833 0.023885 -0.096809
0.356943 -0.067838 0.073371
0.195021 -0.042305 0.090610
-0.259931 0.009987 -0.099170
-0.305877 -0.008821 -0.099258
0.104143 -0.093734 0.034241
-0.113457 -0.001185 0.100029
-0.380548 -0.059835 -0.079669
-0.082322 0.068174 -0.072918
0.145979 0.096063 0.027790
0.068760 0.015669 -0.098439
-0.332372 0.070475 -0.070655
-0.301982 -0.060680 0.079376
-0.443235 -0.097149 0.022715
0.404343 -0.093607 0.034593
-0.256556 0.040102 0.091665
-0.222930 0.028716 0.095840
-0.258622 0.099398 0.010791
0.030940 0.059492 0.080479
-0.040897 0.031331 0.095056
0.106238 0.021981 -0.097234
0.239788 -0.060584 -0.079088
0.255127 -0.098283 -0.016766
0.271512 0.099840 0.005427
0.399488 -0.030935 0.095115
0.310187 0.090752 0.042127
-0.236235 -0.082206 -0.056308
0.024094 0.076929 -0.063664
-0.167998 -0.099746 -0.000655
0.283120 0.100002 0.000300
-0.274106 -0.055326 -0.082853
-0.084383 -0.099359 -0.008371
-0.050597 0.049061 -0.086865
0.270925 -0.083423 -0.054517
-0.095745 -0.020556 0.097864
0.386705 -0.006662 0.099825
0.087720 -0.086186 -0.050020
0.011456 -0.074564 -0.066082
0.044430 -0.073403 -0.067399
-0.095507 0.041543 0.091041
-0.113467 -0.020291 0.097923
-0.288277 0.064497 -0.076159
-0.117502 -0.011552 0.099363
-0.300451 -0.093186 0.035763
0.279989 0.033461 0.094289
0.153238 0.065968 0.075225
-0.022783 -0.046403 -0.088168
-0.202493 0.096019 0.027942
-0.228192 -0.096148 -0.026333
-0.324941 0.040608 0.091446
-0.281675 0.092536 0.038004
-0.344491 0.079947 0.060159
-0.391417 -0.099732 0.001468
-0.351410 0.096759 0.025395
-0.446479 0.076949 -0.063641
0.049805 -0.081832 0.057221
0.017665 0.090807 -0.041636
0.207663 0.003076 -0.099614
-0.035720 -0.099519 -0.006682
0.409022 0.010221 0.099511
0.124335 0.088344 0.046940
0.118983 -0.084732 -0.052479
-0.135431 -0.051977 0.085365
-0.080341 0.078972 -0.061054
0.225093 -0.060091 0.079833
-0.216848 -0.080701 -0.058523
0.228985 0.094680 0.032260
-0.086125 0.092963 -0.036653
-0.349204 -0.059083 0.080616
-0.032670 0.093824 0.034638
-0.255756 -0.023914 0.097113
0.154921 0.094573 -0.032195
-0.353613 -0.050971 -0.085598
0.374500 0.093596 -0.034908
-0.047081 -0.097980 0.018998
0.290598 -0.084926 -0.052151
-0.214945 0.081826 -0.057211
0.064886 0.084800 -0.052759
0.213597 -0.098594 -0.014801
-0.447104 0.021244 0.097762
0.361033 0.099477 0.009961
-0.096605 -0.034066 0.093987
0.401108 -0.001705 0.100013
-0.421207 -0.016072 -0.098338
0.429315 0.066130 -0.074720
-0.460372 0.082299 0.056878
-0.395579 0.024756 -0.096614
-0.237671 0.017985 -0.098072
-0.141152 0.088329 -0.046607
0.350983 -0.045813 0.088831
-0.348944 -0.009024 -0.099239
0.386245 -0.024210 0.097047
-0.186118 0.098497 -0.016888
-0.000022 -0.044488 0.089506
0.141410 -0.053364 0.084545
0.060996 0.095449 0.029905
0.274116 0.061534 0.078895
0.413599 0.099937 -0.002005
0.363635 -0.027065 0.096252
-0.197053 -0.098162 0.017890
0.255960 -0.002624 -0.099621
-0.213153 -0.029546 -0.095168
0.304167 0.096142 -0.027154
0.448908 -0.037757 0.092578
-0.188271 0.075025 -0.065823
-0.171875 0.098030 0.019819
-0.426268 -0.034596 -0.093434
-0.112072 -0.009095 -0.099232
-0.104797 0.010723 0.099463
-0.456640 -0.072112 -0.068784
-0.449158 -0.086176 -0.050038
-0.418272 0.085046 -0.052343
-0.192203 0.096642 -0.025434
-0.260523 -0.090221 0.042799
0.311910 0.097601 0.021741
0.422495 -0.095123 0.030224
-0.205209 0.043174 0.090295
0.432565 -0.087287 0.048522
-0.132483 0.045812 0.088951
0.259273 0.074392 0.066904
0.461016 0.099452 -0.009860
-0.264820 -0.099722 0.001779
0.108259 -0.076225 -0.064197
0.034059 -0.089225 -0.044390
0.162667 0.099234 -0.012162
-0.298347 0.094326 -0.032882
0.266247 -0.009892 -0.099157
0.186862 -0.005854 0.099882
0.079728 -0.098320 0.016894
-0.060991 0.012219 0.099322
0.201112 0.009242 -0.099240
-0.438056 0.098610 -0.016173
-0.347656 -0.049458 0.086855
-0.331895 -0.001412 0.100022
-0.258202 0.029891 -0.095136
-0.452575 0.075371 -0.065431
-0.382195 -0.068172 -0.072713
0.437544 -0.057133 -0.081624
0.092295 0.098998 0.014084
0.238143 -0.028089 -0.095592
0.141029 0.053988 0.084283
0.318241 0.052160 -0.085033
-0.411862 -0.078800 -0.060974
0.019836 0.097255 -0.022924
0.176271 0.069735 0.071757
0.078317 0.004325 -0.099575
-0.310178 -0.079706 -0.059807
-0.357346 0.000485 -0.099696
0.185137 0.081500 -0.057691
0.029983 -0.008112 0.099688
0.248538 -0.066371 -0.074301
0.403289 0.072050 0.069443
0.239529 -0.065837 -0.074772
0.085371 -0.089670 0.043881
0.367340 -0.090504 -0.041796
-0.059599 -0.062113 -0.077902
-0.269803 0.086600 -0.049716
0.301592 -0.098072 -0.018097
-0.237889 -0.094712 0.031524
-0.412153 -0.098079 0.018418
0.087534 0.085483 -0.051604
-0.069382 -0.071101 -0.069795
0.278426 0.065740 0.075426
-0.047165 0.041035 0.091261
-0.305008 0.097008 0.024392
0.222930 0.038737 -0.091893
0.233837 -0.096512 0.025443
0.460192 0.039069 -0.091749
-0.085732 0.073337 0.068101
0.465146 -0.014116 0.099011
0.161514 0.090545 -0.042243
0.032212 -0.085904 -0.050497
0.084368 0.002270 -0.099640
0.123873 0.099813 -0.005927
-0.445538 -0.039633 0.091766
0.225730 0.056951 0.082270
0.339629 -0.066499 0.074551
0.035247 -0.040514 -0.091022
0.158900 0.087344 -0.048457
-0.364646 -0.072837 0.068404
0.098362 0.099833 -0.005313
-0.209036 0.094426 0.032965
0.381035 0.099758 0.006986
-0.388952 -0.068892 -0.072004
0.365506 -0.064797 0.076052
-0.373834 -0.099179 -0.010279
-0.267317 -0.087789 0.047572
-0.381930 0.092562 -0.037582
0.352524 -0.089227 -0.044387
0.031643 0.067696 -0.073339
-0.169075 -0.022248 -0.097123
-0.104996 -0.096524 0.025400
0.252776 0.064127 -0.076486
0.144895 -0.058688 -0.080559
0.303370 -0.031028 0.095081
0.113163 -0.004248 -0.099570
0.079299 0.034734 0.093831
-0.418297 0.064456 -0.076195
-0.148716 0.046238 0.088733
0.160115 -0.099344 -0.008530
-0.178801 -0.068911 0.072348
-0.277567 0.035551 -0.093174
-0.085517 -0.061547 0.078704
0.126088 0.005728 -0.099531
-0.368790 0.098434 0.017650
-0.396154 0.081435 -0.057785
-0.349511 -0.094214 0.032906
-0.063134 0.004270 -0.099577
-0.074707 -0.084665 -0.052593
-0.445494 -0.014622 -0.098568
-0.054861 0.087313 0.048872
-0.268248 0.049593 -0.086550
-0.329852 0.051408 0.085840
0.406272 -0.006708 0.099821
0.261766 0.049079 -0.086854
-0.030751 -0.025378 0.096742
0.102810 0.029850 0.095511
-0.466637 -0.086091 0.050544
0.277502 0.097101 -0.023612
-0.003839 0.035415 -0.093223
-0.314383 0.092965 0.037012
0.119149 -0.098312 -0.016581
-0.083468 -0.094712 -0.031161
0.322206 0.000858 -0.099684
-0.380021 -0.073186 -0.067645
0.136065 -0.081794 0.057277
-0.242975 -0.097312 -0.021624
0.087269 0.080180 0.059859
0.184278 -0.063329 0.077322
0.237800 0.039867 -0.091403
0.254234 -0.069479 0.071780
-0.239847 0.090026 0.043640
0.010946 -0.085064 0.052280
-0.167456 0.043048 0.090359
0.085676 -0.082942 -0.055226
0.074448 0.054237 -0.083752
0.130544 -0.096240 -0.026016
0.338142 0.007785 0.099741
0.385532 -0.082534 -0.055826
0.262838 0.093728 0.034905
0.452340 -0.059918 -0.079605
0.168028 0.052574 -0.084788
0.312741 -0.093033 0.036186
0.129512 0.022000 -0.097230
-0.153598 0.080372 -0.059248
-0.348881 0.096296 -0.026627
0.455809 0.099878 -0.003879
0.150765 0.056631 0.082487
-0.066618 0.079622 -0.060215
0.351544 0.080459 0.059499
-0.051766 0.081459 -0.057751
-0.252706 -0.027367 -0.095801
0.018701 -0.061548 0.078703
0.261329 -0.078982 -0.060740
0.222866 0.061490 -0.078567
0.108233 0.045709 0.089003
-0.305437 0.099942 -0.001839
-0.265006 0.096162 0.027450
-0.204021 -0.082909 -0.055274
-0.074824 0.039299 0.092012
0.020887 -0.056449 0.082452
0.445224 0.080946 0.058869
-0.058455 0.080532 -0.059043
0.368102 0.060486 -0.079345
0.426126 0.090467 0.042774
0.393916 0.076531 -0.064116
-0.339779 0.069660 0.071832
0.251406 -0.064719 0.076120
-0.438652 -0.092287 -0.037677
-0.170708 0.038553 0.092335
-0.021390 -0.098518 0.015646
0.111390 -0.095811 0.027854
0.433614 -0.087012 -0.048623
0.000316 0.031208 -0.094738
-0.163555 -0.003482 0.099957
0.300323 -0.096431 0.025720
-0.367318 -0.097528 -0.020657
-0.436141 -0.076077 -0.064365
0.318387 -0.079495 -0.060079
0.286460 -0.086935 0.049117
0.197862 -0.025371 0.096744
-0.154031 0.020341 -0.097601
0.206474 0.026265 -0.096189
-0.466801 -0.060904 -0.078840
0.019741 -0.048745 -0.086914
0.201172 -0.012923 -0.098837
0.366545 0.084724 0.053251
0.062242 -0.094759 -0.031032
-0.421723 -0.070112 0.071147
-0.222475 0.032767 -0.094176
-0.319601 0.098974 -0.013878
-0.435690 -0.040581 0.091356
0.277666 -0.070136 0.071123
-0.353804 0.080619 -0.058931
-0.360116 -0.017718 0.098440
0.357076 -0.099178 -0.010289
0.347625 -0.076833 0.063871
-0.288657 -0.024527 0.096976
0.338586 0.082953 -0.055553
0.387934 -0.071636 0.069623
0.225872 -0.066464 0.074582
0.143599 -0.023002 -0.096954
0.406788 -0.090925 0.041186
0.292751 0.095518 0.029667
0.326689 -0.035069 -0.093264
0.351421 0.095155 -0.030552
0.300564 0.094700 0.032207
0.335047 0.090044 -0.043242
0.215547 0.085120 0.052581
0.228408 -0.023539 0.097197
0.236592 -0.020340 -0.097549
-0.459185 0.062571 -0.077728
-0.240130 -0.098183 0.017756
-0.225344 0.026962 -0.095987
-0.135293 0.053788 -0.084057
0.005128 0.067479 -0.073530
0.294870 0.019924 -0.097694
-0.217726 0.098111 0.019456
0.352466 0.089524 0.044625
-0.351057 0.099141 -0.012819
0.272119 0.094842 -0.031448
-0.028256 -0.097285 -0.021745
0.346987 0.098593 -0.016284
-0.171463 0.073298 -0.067782
-0.328329 -0.067654 -0.073170
-0.356062 0.039986 -0.091352
-0.360589 -0.042124 -0.090326
-0.043762 0.042385 -0.090314
0.398864 0.023780 -0.096832
-0.169328 0.095018 0.031323
-0.244396 -0.094018 -0.033089
-0.072108 -0.075824 -0.064652
-0.228853 -0.084216 0.053714
0.153141 -0.069145 -0.071751
0.465320 0.085028 0.052736
-0.405233 -0.078361 -0.061540
0.360248 -0.076448 0.064308
-0.295710 0.053393 -0.084303
0.366285 -0.097312 0.021990
-0.234783 0.067605 0.073782
0.411196 0.050153 0.086582
0.442342 -0.092442 0.037683
0.418917 0.010353 0.099498
0.419184 -0.097911 0.019309
0.031385 0.099159 -0.012705
-0.080965 0.058978 -0.080515
-0.176621 0.057978 -0.081209
0.292526 0.048568 0.087519
0.259907 -0.084960 -0.052094
-0.015803 -0.099159 0.010848
0.148119 -0.065173 -0.075357
0.057370 -0.096654 -0.024569
-0.150222 -0.061855 0.078465
0.304833 0.004718 0.099925
0.334587 -0.072492 0.068766
-0.248297 0.053461 0.084626
0.050718 0.073128 -0.067975
0.254540 0.096489 -0.025960
0.092443 -0.042398 0.090570
0.050850 -0.031633 0.094863
0.177224 -0.073304 0.067873
-0.120439 0.097172 0.023660
0.189116 0.052571 -0.084789
-0.418343 -0.095819 -0.027464
-0.327360 0.093525 -0.035105
-0.277083 0.084829 0.053072
0.431043 0.008631 -0.099298
-0.012147 0.009473 0.099581
-0.291304 0.083166 -0.055239
-0.325367 0.061618 -0.078467
-0.097585 0.007155 -0.099438
0.030660 -0.095785 0.027946
0.044801 0.019301 0.098196
-0.048361 -0.087888 0.047378
-0.178011 0.064467 0.076548
0.137499 -0.035485 0.093476
0.145109 0.074095 0.067241
-0.101514 0.071054 0.070438
0.419923 0.090074 0.043546
-0.347844 -0.024422 -0.096637
-0.387428 0.099892 -0.003425
-0.049977 0.001353 0.100031
0.338015 -0.019708 -0.097690
-0.074590 -0.060034 -0.079515
-0.046547 0.095893 0.028377
0.099953 0.084063 0.054282
0.181990 0.089659 -0.043996
0.004201 0.036463 -0.092846
-0.452030 -0.077789 -0.062278
0.322127 -0.052672 -0.084592
-0.446233 0.097951 0.020173
0.237824 -0.050173 0.086433
0.155366 -0.069380 0.071879
0.201071 0.074631 0.066634
-0.225368 -0.014152 -0.098642
-0.358317 -0.094076 -0.032926
-0.360222 -0.060483 0.079530
0.263354 0.024019 -0.096779
0.278036 0.056673 0.082459
0.040775 -0.069633 -0.071263
0.115967 -0.096759 -0.024099
-0.014097 0.096823 -0.024812
-0.291772 -0.097411 -0.021184
0.360738 0.041193 -0.090830
-0.000663 -0.038242 -0.092006
0.447196 -0.043881 0.089816
-0.273043 -0.084045 -0.053602
0.314703 0.097374 -0.022394
-0.338186 0.095505 -0.029348
0.067419 0.094275 -0.033022
-0.418533 -0.054820 -0.083196
0.093914 0.097312 -0.022670
0.007463 -0.045712 0.088883
-0.332795 0.043746 -0.089641
-0.228355 0.073283 -0.067799
0.191279 0.020943 0.097829
0.368339 -0.099520 0.007038
0.245651 -0.097530 -0.020648
-0.155858 0.048927 -0.086944
0.321034 -0.090740 -0.041251
-0.210786 0.099930 -0.002201
-0.083477 -0.038720 0.092162
-0.043845 0.087675 -0.047890
0.093081 -0.036120 -0.092885
0.360534 -0.096533 0.025370
0.408293 0.031160 -0.094755
-0.231395 0.039239 -0.091675
0.150653 0.041328 0.091134
-0.445111 -0.032405 0.094585
-0.413425 0.099866 -0.004244
0.255952 0.065966 0.075226
-0.101774 -0.067415 -0.073381
-0.361162 0.071953 -0.069176
0.371272 0.000865 -0.099684
-0.224010 0.051745 -0.085278
0.019191 0.091840 0.039612
0.282549 -0.074373 0.066661
-0.385788 -0.043362 -0.089717
-0.205149 -0.074426 -0.066239
0.372878 0.045670 -0.088660
0.216890 0.094264 -0.033054
0.022753 0.094092 0.033895
0.125182 0.079842 -0.059932
-0.234092 0.079255 -0.060689
0.024635 0.044040 -0.089491
-0.376074 -0.002057 0.100002
0.368072 -0.054867 -0.083164
0.117733 -0.087628 -0.047525
0.042585 -0.076414 0.064346
-0.114088 -0.049559 -0.086433
0.220350 0.052989 0.084905
0.300064 -0.094474 -0.031822
0.082702 0.087460 -0.048262
-0.219883 0.085154 -0.052160
-0.151625 -0.022972 -0.096961
-0.290137 -0.004887 0.099913
0.123268 -0.027050 -0.095893
-0.181989 -0.099604 -0.005174
-0.281039 0.095974 0.028097
-0.352381 0.063965 -0.076628
-0.449468 -0.077299 0.063272
0.014318 -0.045836 0.088819
-0.018997 -0.010005 0.099509
0.165469 -0.094280 0.032724
-0.162175 -0.023528 0.097199
0.438977 -0.034373 -0.093514
-0.402006 -0.063107 -0.077131
-0.023422 -0.067248 -0.073528
-0.402151 -0.097391 -0.021271
-0.037013 -0.096991 -0.023060
-0.281991 0.005504 -0.099538
0.112947 0.091240 -0.040637
-0.198898 0.099937 -0.001996
0.223290 0.075469 0.065683
0.050642 0.043172 -0.089933
0.244967 0.092600 -0.037494
0.178515 0.082005 -0.056948
-0.466576 -0.096477 0.025561
-0.013796 0.047728 -0.087612
-0.340986 -0.092982 -0.035967
0.355723 -0.045953 -0.088397
-0.047473 0.083940 -0.054099
-0.436965 0.074299 0.067009
-0.226350 -0.006016 -0.099514
-0.038545 0.057307 -0.081665
0.313136 -0.079376 0.060595
0.402691 0.098776 0.015487
-0.006471 0.022177 0.097553
-0.131085 0.089065 0.045525
0.425828 0.014663 0.098961
-0.222765 0.020823 -0.097493
-0.243395 0.092532 0.038013
0.219610 -0.088703 0.045778
-0.258674 -0.059399 -0.080007
0.051012 0.016198 -0.098355
0.449001 0.063409 0.077441
-0.035452 0.075818 -0.064924
-0.265130 0.099783 0.006723
0.297707 0.049661 -0.086510
-0.430193 -0.019333 -0.097774
0.246219 0.096040 0.027868
-0.051048 -0.087880 -0.047031
0.319076 -0.031526 -0.094539
0.432561 -0.065044 0.075834
-0.310305 -0.084606 0.053055
-0.283003 -0.063636 -0.076712
-0.001654 0.068742 0.072750
-0.336223 -0.008172 -0.099319
-0.345012 -0.000648 -0.099683
0.370919 0.065095 0.075994
0.023555 -0.089009 0.045177
0.346098 0.087664 0.048274
0.096707 -0.099734 -0.001024
0.118600 0.009329 -0.099232
0.430992 0.062530 0.078123
-0.164717 -0.012009 0.099320
0.324820 0.075087 0.066116
-0.056441 0.084112 -0.053847
0.000767 -0.057399 -0.081444
-0.294613 -0.090809 -0.041091
-0.349580 0.058929 0.080916
-0.106491 -0.080738 -0.058468
-0.018289 -0.086847 0.049265
-0.097503 0.070217 -0.070912
-0.332246 -0.073096 0.068109
-0.091997 0.090791 0.042037
-0.140842 0.046620 0.088539
-0.248430 -0.057862 -0.081129
-0.444768 0.099875 -0.003970
0.437584 0.039799 -0.091433
-0.334720 -0.063692 0.077025
-0.193080 0.097306 0.023059
0.341341 0.047572 -0.087691
0.034246 0.043164 -0.089937
0.018350 0.067188 -0.073787
-0.220734 -0.095025 -0.030198
0.202467 0.052395 0.085256
-0.330171 -0.047500 0.087972
0.011258 0.094628 0.032405
0.183014 -0.047399 0.088023
-0.174169 0.066661 -0.074251
-0.087727 -0.038466 -0.091909
-0.239013 0.090826 -0.041593
0.430430 -0.098781 0.013984
-0.252164 -0.093813 0.034021
-0.240038 -0.077404 0.063137
0.056712 -0.089044 -0.044746
-0.009118 0.076595 -0.064042
0.145611 -0.049420 0.086877
0.038258 0.066037 0.075165
-0.008611 0.098985 -0.013806
-0.076608 -0.099370 0.008619
0.280988 -0.078468 0.061766
-0.276937 -0.025860 0.096602
0.172526 0.084625 0.053418
-0.035954 0.061543 0.078888
-0.013572 -0.027838 0.096027
-0.203797 0.091211 0.041067
-0.364450 -0.064576 0.076246
0.419381 0.075940 -0.064786
-0.119463 -0.072580 -0.068316
0.068557 -0.050398 -0.085937
0.358974 -0.037163 0.092836
-0.110473 -0.014036 0.099024
0.073703 -0.020674 -0.097474
-0.315872 -0.063955 0.076794
0.215635 -0.099750 0.000871
-0.150302 0.099974 0.001168
-0.340482 -0.080035 -0.059383
-0.427994 -0.006596 0.099831
-0.395709 -0.033035 -0.093996
-0.324643 0.083699 0.054818
-0.049459 0.099613 -0.008151
-0.025291 0.076097 0.064970
0.197461 0.012788 0.099258
-0.146553 -0.083980 0.054061
0.064284 -0.008966 0.099607
0.458604 -0.014590 -0.098573
-0.443113 -0.035990 -0.092932
0.238044 0.016370 -0.098328
0.093315 0.083741 -0.054394
0.340071 0.099090 0.013508
0.168501 0.071395 0.070098
-0.266163 -0.010913 0.099423
-0.196431 0.091494 -0.040050
-0.316200 0.065303 0.075811
-0.374936 0.099039 0.013830
-0.003111 -0.071099 -0.069797
-0.362131 0.030133 0.095428
-0.291007 -0.083098 -0.054996
0.337095 -0.062242 -0.077802
0.069142 0.087202 -0.048698
0.313157 0.019184 -0.097860
0.072983 0.084331 -0.053524
0.111024 0.039996 0.091711
-0.065725 -0.049874 -0.086246
-0.354746 -0.021375 0.097681
0.456710 -0.044643 -0.089065
0.289555 -0.060282 0.079685
-0.144009 -0.035019 0.093644
-0.121018 -0.099553 0.006688
0.129924 -0.057767 -0.081194
-0.382386 0.086115 -0.050536
-0.299699 -0.099386 0.008455
0.324109 -0.085529 0.051495
-0.226654 0.052179 0.085384
0.289505 -0.077034 0.063614
-0.107897 -0.092895 -0.036207
-0.239203 -0.099114 0.011328
-0.128199 -0.035724 0.093390
0.312010 -0.089987 0.043257
0.174549 -0.011646 0.099354
-0.027501 0.055385 -0.082972
-0.176149 0.018926 -0.097917
-0.362620 -0.092586 0.037349
0.214382 -0.053947 -0.083790
-0.428224 0.088356 0.046918
-0.055781 0.099255 -0.011943
-0.456108 0.092970 0.037000
0.434290 -0.043554 0.089982
-0.250427 0.036797 0.093088
-0.272644 -0.098529 -0.015215
-0.192645 -0.087282 0.048531
-0.413898 -0.092945 0.036432
0.017582 0.095695 0.029057
-0.085849 0.010332 -0.099137
0.451271 0.099809 0.006425
-0.269698 -0.023608 0.097181
0.043493 0.063538 0.077340
-0.384073 -0.001660 0.100014
0.082998 -0.063085 0.077512
0.395566 0.098773 0.015509
0.128178 -0.075477 -0.065046
0.122089 -0.019739 -0.097683
-0.418730 -0.081875 0.057158
-0.252641 0.089299 -0.044703
-0.077645 0.082183 0.057048
0.121341 0.022601 0.097459
-0.168554 -0.099371 -0.008243
0.094551 -0.075493 0.065391
-0.223921 -0.034019 0.094004
0.324486 -0.016092 0.098698
0.090234 -0.065433 0.075491
-0.446414 -0.099593 -0.005499
-0.400940 -0.073039 -0.067811
-0.300133 -0.040314 0.091472
0.181906 -0.066381 -0.074292
0.454313 -0.098974 -0.012401
0.250253 -0.087464 0.048210
-0.401552 -0.031958 -0.094384
0.444327 -0.085296 -0.051526
0.388771 -0.095186 0.030005
0.045559 0.070684 -0.070445
-0.431877 -0.054260 -0.083577
0.360470 0.040978 0.091286
-0.465625 -0.099235 0.010047
0.029161 0.030816 -0.094867
0.066308 0.062244 -0.077981
0.185969 -0.079902 -0.059554
0.054938 0.070926 0.070566
0.238244 0.028943 -0.095411
0.392913 0.040917 -0.090949
0.255208 0.070519 0.070973
-0.402261 0.026149 -0.096223
0.102515 0.081582 -0.057570
0.334667 0.042226 0.090746
-0.186957 0.090166 -0.043001
0.089237 0.048762 0.087405
0.249237 0.098842 -0.014711
0.304918 -0.054214 0.083971
0.097080 0.066698 -0.074218
0.162829 0.060174 -0.079588
-0.090983 0.024660 -0.096636
0.349029 0.020852 0.097850
-0.069393 -0.098020 0.018785
0.126665 -0.097245 0.022288
0.283641 0.075833 0.065269
0.198013 -0.034208 -0.093574
-0.138490 -0.094204 0.032934
0.377497 0.061324 0.079058
0.415144 -0.065988 -0.074639
-0.330791 -0.097774 0.019922
-0.112693 0.016137 -0.098365
0.207752 -0.041613 0.090910
0.007100 0.097050 -0.023840
0.102754 -0.098117 -0.017812
-0.223120 0.096358 0.026775
-0.148657 0.093349 0.035957
0.426356 -0.064663 0.076170
-0.428605 -0.064296 -0.076131
-0.039158 -0.056932 0.082124
-0.229297 0.003780 0.099955
0.099259 -0.018261 0.098355
-0.381391 0.080635 0.059273
-0.305192 -0.044939 0.089277
-0.041894 -0.099729 0.001549
0.246027 0.065193 -0.075545
0.028321 0.070857 0.070636
-0.114799 -0.058874 -0.080415
-0.285134 -0.098078 -0.018059
0.007579 -0.021081 -0.097383
0.156213 0.082506 -0.056210
0.351966 -0.037787 0.092566
0.262475 -0.003972 -0.099579
0.256466 -0.016737 0.098596
0.363030 0.074327 -0.066615
0.376870 0.099183 0.012922
-0.357215 0.024359 -0.096703
0.072224 -0.030990 0.095095
-0.060632 -0.099693 0.002695
-0.188193 0.064206 -0.076416
0.268301 0.056110 -0.082478
-0.054749 -0.052226 0.085218
0.240769 0.077683 0.063078
-0.265927 -0.037935 0.092502
0.221002 -0.071906 -0.068990
0.366491 -0.025344 -0.096389
0.327018 -0.060573 -0.079097
0.462513 0.081851 0.057536
-0.071713 -0.012612 -0.098886
0.440050 0.087097 -0.048875
0.409670 -0.062696 -0.077450
-0.402970 -0.098451 0.016070
-0.193876 0.014192 0.099036
0.237427 -0.042087 -0.090342
-0.273497 -0.006089 0.099875
-0.170706 -0.090472 0.042233
0.028130 -0.054483 0.083788
0.016121 -0.090581 -0.041620
-0.120146 -0.022953 0.097328
-0.275059 -0.035833 -0.092989
-0.145323 -0.015898 0.098729
0.283554 0.065685 -0.075112
0.049100 -0.067365 -0.073425
0.041174 0.045140 -0.088930
-0.070949 -0.039314 -0.091542
0.390286 0.099250 0.012354
-0.114277 -0.070113 -0.070784
-0.389603 0.007561 0.099762
0.210355 0.021006 -0.097452
0.376189 -0.029805 0.095456
0.076444 0.024166 -0.096746
-0.386983 -0.030136 -0.094997
0.179735 -0.088668 0.045847
-0.168818 0.096064 -0.027424
0.213176 0.069027 -0.072102
0.339487 -0.056245 -0.082228
-0.208408 -0.063541 0.077158
0.457619 0.099861 0.004766
-0.342811 -0.012446 -0.098913
0.424934 -0.072325 -0.068571
-0.281700 0.097930 0.020270
0.395404 -0.017308 -0.098143
-0.292135 0.091299 0.040863
0.019588 0.046982 0.088355
0.059925 -0.098019 -0.018434
-0.178440 -0.088900 0.045392
-0.033522 0.080016 -0.059708
0.001834 0.098797 -0.014992
-0.211784 0.092646 0.037750
0.175771 -0.098323 -0.016513
-0.078512 -0.081687 0.057434
0.371036 -0.080459 0.059198
0.115005 -0.010844 -0.099067
-0.217594 -0.046479 0.088492
-0.303221 0.093600 0.035261
-0.261832 -0.094636 -0.031372
-0.124234 -0.075636 0.065229
0.085962 -0.086257 0.050264
0.331398 0.008504 -0.099310
0.326867 0.003760 0.099956
-0.018765 0.056442 0.082616
0.048373 0.047921 -0.087513
0.209883 0.094281 -0.033007
-0.065765 -0.088168 -0.046464
-0.108343 0.065112 0.075979
-0.079238 0.017232 -0.098192
-0.265610 0.031156 0.095119
0.143988 0.076137 -0.064562
0.327971 -0.002040 -0.099639
0.204298 0.017711 -0.098116
-0.374864 0.096335 -0.026492
-0.099745 -0.099640 0.004377
0.042321 -0.093090 -0.035667
0.438195 0.096459 -0.026064
-0.027516 0.074490 -0.066431
-0.022504 0.094304 0.033305
-0.240413 0.042940 0.090414
-0.223596 0.094034 -0.033693
-0.294072 0.012499 -0.098933
-0.054867 -0.084943 -0.052122
0.278073 0.040038 -0.091330
-0.372433 -0.044997 0.089247
0.261235 -0.025283 -0.096407
0.126999 0.044848 0.089442
0.394665 -0.095086 0.030349
0.458912 0.067438 0.073929
0.297793 0.092578 0.037907
-0.050749 -0.080993 -0.058092
-0.254639 -0.080959 -0.058144
0.308473 0.026396 0.096514
0.319472 0.014527 0.098983
0.175948 -0.095134 -0.029823
0.419493 0.050400 0.086436
0.192686 0.087845 0.047920
0.364961 -0.076095 -0.064345
-0.263668 0.044384 -0.089315
-0.410226 -0.055019 0.083424
0.094749 0.042223 0.090747
-0.167259 0.092568 0.037930
0.452831 -0.002643 -0.099620
0.402698 0.096990 0.024474
-0.407945 -0.045216 0.089136
-0.183155 0.097042 -0.023878
-0.317136 -0.089236 0.044731
-0.058814 0.099890 0.003849
0.211693 0.097209 -0.023129
0.246011 -0.035721 0.093392
-0.355338 -0.063251 -0.077020
-0.402651 0.098257 0.018768
-0.009386 0.028820 0.095810
-0.312076 0.040381 0.091544
-0.290140 -0.099585 0.006134
0.042531 -0.066486 0.074563
0.425084 0.008461 0.099677
-0.215649 -0.072906 0.068325
0.237169 -0.075428 0.065465
-0.239351 0.093505 -0.035162
-0.422284 -0.092771 0.036916
-0.389131 0.086530 -0.049834
0.427217 0.080033 -0.059686
-0.198670 0.076503 0.064510
0.281213 -0.010685 0.099445
0.033439 -0.075198 -0.065363
0.269161 0.098590 -0.016301
-0.436212 -0.060451 0.079555
-0.221510 -0.059124 -0.080221
-0.450399 -0.041194 -0.090729
0.061006 0.025284 -0.096474
-0.110984 0.056803 0.082370
-0.120030 0.069652 0.071840
0.271085 -0.099636 0.004520
-0.252133 0.099478 0.009948
0.054468 -0.083908 0.054166
-0.415586 -0.096604 0.025124
0.396708 -0.096593 -0.024801
0.339697 0.087233 0.049008
-0.435715 -0.048400 0.087481
-0.270351 0.037219 0.092912
0.175078 -0.003722 0.099949
0.258780 -0.099714 -0.001674
0.028950 -0.049865 -0.086252
-0.087172 -0.029452 -0.095196
-0.184298 -0.096983 0.023459
0.182727 -0.075215 -0.065343
0.288812 -0.024099 -0.096709
-0.414550 -0.098923 -0.012726
0.064989 -0.055423 -0.082786
0.434829 -0.093421 0.035109
0.341474 -0.018470 0.098321
-0.415719 -0.073007 0.068210
0.004244 -0.099645 0.004230
0.064130 -0.021807 0.097584
0.452952 0.083003 -0.055479
-0.183644 0.087595 -0.048034
0.349010 -0.029845 -0.095081
-0.209155 -0.006418 0.099848
-0.236443 -0.030903 0.095126
0.311390 -0.051028 0.085927
0.310193 0.087545 0.048481
0.346810 -0.082311 0.056516
-0.096137 0.062229 0.078356
0.215591 -0.074485 0.066534
0.218166 -0.099213 -0.009920
-0.248859 -0.091105 0.040771
0.361093 -0.021920 -0.097196
-0.191118 0.099191 -0.012503
-0.101643 -0.043024 -0.089889
0.136718 -0.087969 -0.046855
0.229036 0.001099 0.100039
-0.315038 -0.058837 0.080806
-0.133482 -0.070432 0.070827
-0.429820 -0.087452 0.048233
0.220138 0.050532 -0.085995
0.099243 -0.003410 -0.099596
0.108572 -0.078578 0.061624
-0.448138 0.058474 -0.080872
-0.309295 -0.003486 0.099957
-0.042905 -0.009355 -0.099208
0.390697 0.031236 -0.094728
-0.349514 0.058637 -0.080761
0.302715 0.030489 0.095325
-0.418144 -0.029507 0.095542
0.296325 -0.056035 -0.082371
0.399085 -0.062685 0.077822
0.128220 -0.064788 0.076060
-0.463201 0.071074 0.070418
-0.379910 -0.093292 0.035467
-0.388288 0.099456 0.010183
-0.375872 0.052752 0.085045
-0.086001 0.007956 0.099725
-0.062844 0.097631 0.021606
-0.244869 0.092085 -0.038683
-0.170674 -0.013004 -0.098824
0.213598 0.045955 -0.088515
0.016980 -0.020810 0.097807
0.098526 -0.055423 0.083150
-0.454902 -0.098734 0.014282
-0.382182 0.005455 -0.099539
0.312246 0.098903 0.014685
0.096979 -0.032772 0.094453
0.196648 0.088716 -0.045848
-0.130099 -0.094595 -0.031486
0.375706 -0.095742 0.028091
-0.041911 0.098893 -0.014385
-0.360407 0.010496 0.099485
0.336188 -0.035741 -0.093022
0.006561 -0.038022 0.092464
-0.102106 0.050518 -0.086003
-0.005757 -0.010944 0.099420
-0.338772 -0.045681 -0.088536
-0.351314 0.005443 0.099903
-0.150801 -0.096241 0.026373
-0.312679 -0.015917 0.098726
0.041702 -0.088707 0.045770
0.121756 -0.097036 -0.022861
0.110044 -0.067924 0.073295
0.155389 0.005877 0.099889
0.181678 -0.058167 -0.080922
-0.274854 -0.018940 0.098225
0.446777 0.051261 0.085927
-0.137035 0.091017 0.041514
-0.221691 0.095795 -0.028349
0.196312 -0.079593 -0.059953
-0.047858 0.073676 0.067717
0.031677 -0.079193 -0.060468
-0.402788 0.095846 0.028538
-0.140217 0.076678 -0.063949
-0.460808 0.056206 -0.082413
0.367110 0.061107 0.079226
0.277690 0.009657 -0.099201
0.453889 0.025108 -0.096526
0.167929 -0.084979 -0.052061
-0.388301 -0.088856 -0.045114
0.116201 -0.060510 0.079508
0.405064 -0.048556 -0.087026
0.157716 0.030937 -0.094832
-0.370957 -0.067875 0.073338
0.106187 -0.098868 -0.013071
-0.216885 -0.090215 0.042809
-0.397025 -0.093424 -0.034737
0.112343 -0.033212 0.094295
-0.233291 -0.081400 0.057857
-0.409036 -0.033796 -0.093722
-0.092147 -0.087303 -0.048131
-0.020797 0.030803 0.095234
-0.025931 -0.046132 0.088669
-0.039341 -0.081398 -0.057497
0.337631 0.057279 0.082047
-0.062039 0.019304 0.098196
-0.335592 0.006440 0.099868
-0.215664 -0.065207 -0.075328
-0.357853 -0.083783 0.054351
-0.318849 0.090938 0.041696
-0.436346 0.093885 -0.034106
0.374077 0.026586 -0.096096
0.430916 -0.099038 -0.011767
0.111163 -0.072175 -0.068721
0.219419 0.092126 0.038950
-0.046452 -0.024834 -0.096537
-0.371086 -0.079345 0.060635
0.105824 -0.003087 -0.099607
-0.310061 0.025370 0.096812
-0.041975 0.085661 0.051666
-0.127213 0.042465 -0.090279
-0.206104 0.012423 -0.098940
-0.428278 0.084293 0.053943
0.272302 0.092453 -0.037833
0.386666 0.010802 0.099456
0.107717 -0.096360 -0.025602
-0.121696 0.096342 -0.026468
-0.275710 0.099468 0.010054
-0.407197 0.087923 -0.047403
0.388962 0.099951 -0.001553
-0.438675 -0.009633 0.099544
-0.132317 -0.097210 0.022445
-0.419807 -0.077268 0.063313
0.442761 -0.008912 0.099612
0.029891 0.099411 0.010653
-0.019309 -0.096962 0.023553
-0.159857 -0.021752 -0.097234
-0.353721 0.053335 -0.084338
0.288087 0.086143 -0.050488
0.328053 0.079871 -0.059895
-0.251954 -0.098560 0.015378
0.066528 0.092147 -0.038540
0.261865 0.050486 0.086385
0.065564 0.010193 0.099513
-0.051051 -0.098727 -0.013961
0.319397 -0.099205 0.010362
-0.162992 0.033933 -0.093757
-0.407742 -0.003467 0.099957
0.367741 -0.088732 0.045721
-0.062812 -0.098896 -0.012896
0.394708 -0.068434 -0.072462
-0.079680 0.073862 -0.067142
0.049531 -0.099669 0.003450
0.338358 -0.033206 0.094297
0.220686 0.061951 0.078572
0.418604 -0.044785 -0.088992
0.015558 -0.099656 -0.003506
0.167770 -0.069101 -0.071795
-0.144414 -0.035997 -0.092929
0.227867 -0.081616 -0.057176
0.057860 -0.089366 0.044476
0.456174 0.072324 -0.068806
0.446448 0.084094 -0.053873
-0.438232 -0.097905 -0.018970
0.403126 0.099740 -0.006813
-0.121648 -0.098563 0.015357
-0.173175 -0.097654 -0.020093
0.027399 0.075125 0.066073
0.173783 -0.093571 0.034692
0.194305 -0.098244 0.017373
-0.143062 0.099834 -0.005257
0.353805 0.028200 0.095990
-0.029530 0.079292 0.061004
-0.322742 -0.091353 0.040198
-0.466317 0.066260 -0.074605
-0.018956 0.092434 0.038240
-0.180696 0.052917 0.084947
-0.212957 0.022675 -0.097079
0.279290 -0.057046 0.082046
-0.323850 -0.020852 0.097797
-0.396197 -0.019782 0.098037
0.282440 -0.083985 0.054054
-0.256915 0.023798 -0.096828
-0.388940 -0.068799 0.072460
0.343295 -0.070477 -0.070419
-0.275714 0.055631 -0.082804
-0.107978 -0.048283 -0.087187
0.418207 0.086618 0.050048
-0.452839 0.099351 0.011285
0.310585 0.055634 -0.082802
-0.242319 -0.001300 -0.099663
0.237091 0.062965 -0.077423
0.028395 0.085006 -0.052411
-0.217161 -0.020853 0.097797
-0.141346 -0.092172 0.038305
-0.249850 0.044461 0.089639
0.197651 -0.086822 0.049308
-0.364708 -0.094441 0.032277
-0.345234 0.053080 -0.084488
-0.155296 -0.091451 0.039971
0.073226 0.077200 -0.063338
0.440345 -0.021999 -0.097178
-0.108232 0.084731 0.053238
-0.165658 -0.053623 0.084373
0.381880 0.030671 -0.094909
-0.262445 0.052539 -0.084808
0.044539 0.081606 -0.057535
-0.322724 -0.066079 0.074922
-0.390139 -0.052165 -0.084891
-0.039450 -0.084643 0.052992
-0.461338 0.084135 -0.053813
-0.401302 0.051780 0.085620
0.287165 -0.099691 0.002758
0.270059 0.099564 -0.008671
-0.091007 0.004834 -0.099559
0.093861 0.002882 -0.099620
0.214537 0.064407 -0.076238
-0.048371 -0.064300 0.076490
0.173335 -0.048870 -0.086840
-0.187861 0.026428 -0.096142
-0.333421 0.099999 0.000391
-0.268714 -0.092858 -0.036311
-0.347386 -0.063552 -0.076786
-0.416623 0.020569 0.097913
0.283260 -0.047815 -0.087449
-0.013869 0.080712 -0.058810
0.465321 -0.096378 -0.025540
0.051318 -0.096086 0.026907
0.351046 0.099821 0.006048
-0.158447 0.057187 -0.081747
0.150219 0.062130 -0.078070
0.308321 0.046118 -0.088432
0.212654 -0.088707 0.045770
-0.155461 0.099851 0.005092
-0.040510 -0.001689 -0.099650
-0.337104 0.046729 0.088483
0.171995 0.098872 -0.014523
-0.236535 0.031525 -0.094624
-0.223364 -0.091215 0.040517
-0.301201 0.091829 -0.039275
-0.397284 0.099818 0.006150
-0.448208 0.099858 0.004854
0.260062 0.043320 0.090221
0.407456 0.094297 -0.032962
0.028406 0.017080 0.098579
-0.177152 -0.010382 0.099473
0.283443 0.071008 -0.070122
0.186855 0.067268 -0.073716
-0.146301 0.018551 -0.097983
-0.359155 -0.090426 0.042339
-0.368541 0.031349 0.095050
-0.016799 0.023925 0.097163
-0.099695 -0.093246 0.035596
0.342090 -0.043528 0.089995
0.357199 -0.001575 0.100017
0.263341 -0.091623 -0.039211
-0.399473 -0.091737 0.039311
-0.139438 0.011986 0.099344
0.036640 0.088913 0.045824
-0.137962 0.098480 0.017355
0.194329 0.040478 0.091502
-0.265176 0.099984 -0.000493
-0.379172 0.046457 0.088622
-0.298216 -0.059311 -0.080076
0.047565 -0.046771 -0.087980
0.302455 0.086087 0.050945
-0.217279 -0.099592 0.005899
0.190281 -0.070105 0.071153
0.428004 0.099970 -0.000939
0.008864 -0.099404 0.008265
-0.026192 -0.059157 -0.080195
0.383679 0.075061 0.066146
-0.449230 -0.062654 -0.077483
-0.050988 -0.077872 0.062534
-0.073131 0.045218 -0.088891
0.375391 0.035615 -0.093151
0.216221 -0.060243 -0.079353
-0.226075 0.091624 -0.039748
0.444135 -0.057550 -0.081341
-0.085982 0.032317 -0.094338
-0.153678 0.086468 -0.049939
-0.098855 0.090339 0.043025
0.455756 0.063056 0.077714
-0.020787 0.072263 -0.068866
-0.111748 -0.061103 0.079049
0.171746 -0.062581 0.077903
0.009823 -0.098068 -0.018124
0.082524 0.090658 0.042343
-0.336989 -0.080831 0.058694
-0.018027 -0.031294 -0.094623
0.287374 -0.097059 0.023118
-0.421709 -0.047042 -0.087842
0.013881 0.096653 -0.025397
0.264041 -0.063861 -0.076514
-0.249009 0.002897 0.099983
0.457785 -0.026815 0.096324
-0.092225 -0.090531 -0.041736
0.085903 -0.098426 -0.015865
-0.159127 -0.058758 -0.080505
-0.255430 -0.050766 0.086081
0.426541 -0.090599 -0.041578
0.181700 0.096662 0.025728
0.166777 -0.044094 -0.089345
0.286513 -0.031278 0.094991
-0.174287 -0.040189 -0.091163
0.400782 -0.012769 -0.098862
0.192515 0.008121 -0.099346
-0.120039 0.047526 0.088078
0.255263 0.081257 0.058410
-0.235453 -0.088304 0.046561
0.179986 0.066174 -0.074680
-0.314909 0.086800 -0.049377
-0.296503 -0.090050 0.043133
0.421910 -0.098863 0.013465
-0.387708 0.034412 0.093947
0.226276 0.080003 0.060087
-0.252083 0.012129 0.099330
0.288252 0.096882 0.024957
-0.279763 -0.061385 0.078830
0.312420 0.049769 -0.086446
0.411746 -0.010563 0.099456
-0.328754 0.054089 -0.083852
-0.353432 -0.099729 0.001544
0.000099 0.083337 -0.054988
0.312853 0.033957 -0.093748
-0.020811 0.096318 -0.026550
0.172511 0.013681 0.099117
-0.383172 0.096984 0.024500
0.044460 -0.007785 0.099719
-0.172003 -0.095138 -0.029807
0.123723 0.012582 -0.098925
-0.101784 0.066799 0.074492
-0.221998 0.065398 0.075727
0.069884 -0.070136 0.071123
-0.033794 -0.061270 0.078919
0.012475 -0.081542 0.057647
-0.035793 0.029961 -0.095116
-0.077224 -0.099339 -0.008589
0.331391 0.097434 -0.022126
-0.466496 -0.014349 -0.098611
-0.032987 -0.074508 -0.066145
-0.200506 0.071490 0.070002
0.273761 0.076041 0.065034
0.337015 0.033114 0.094414
0.067147 0.077127 0.063795
0.436695 0.077502 0.063311
-0.369941 0.077354 0.063503
0.128089 0.079227 0.061088
0.402886 0.096030 -0.027540
0.453188 -0.068311 -0.072585
0.060329 0.062541 -0.077751
-0.144419 -0.052779 -0.084528
-0.117801 0.050580 -0.085967
-0.119164 0.058969 -0.080522
0.159372 0.091803 0.039697
0.268084 -0.068362 -0.072534
0.284906 0.055939 0.082957
0.193359 -0.030710 -0.094830
0.316746 -0.025465 -0.096354
0.030095 -0.099772 0.000178
-0.115858 -0.089698 -0.043463
-0.319000 0.035192 0.093666
0.393497 0.092045 0.039139
-0.388852 -0.024751 0.096924
0.416255 -0.078224 0.062080
0.402670 -0.070601 0.070657
-0.350735 0.036823 -0.092716
0.446403 0.076429 -0.064231
-0.355331 0.048954 0.087291
-0.043763 -0.047774 0.087832
0.161893 -0.094166 -0.032678
0.307021 0.099976 -0.000740
0.439073 0.072420 -0.068709
0.248470 0.037410 0.092830
-0.159237 -0.045062 0.089214
-0.180003 0.074366 0.066934
-0.275659 0.085224 -0.052043
-0.466733 0.088002 -0.047250
-0.432852 -0.090744 -0.041242
-0.458878 -0.091425 0.040033
0.314379 -0.075276 0.065637
0.213474 -0.075280 -0.065269
0.160495 -0.041341 0.091027
0.329823 0.064132 0.076844
-0.006065 0.098002 0.019945
-0.447363 -0.069416 -0.071480
-0.404334 0.004528 0.099931
-0.226073 0.044457 0.089641
0.209160 0.081527 0.058014
0.043941 -0.013573 -0.098734
-0.458479 0.066871 0.074429
-0.417964 0.066132 0.075081
-0.183708 -0.027118 0.096236
0.022183 0.086991 0.049416
0.258501 -0.088480 0.046216
0.224604 -0.021011 -0.097399
-0.366360 0.081155 0.058561
-0.031402 -0.099311 0.009241
-0.072883 0.100002 0.000287
-0.410645 -0.089765 0.043693
-0.058318 -0.081598 0.057565
-0.228209 -0.044458 -0.089159
-0.422004 -0.098386 -0.016112
0.105506 -0.014427 0.098962
-0.244222 0.094676 0.032272
-0.415215 0.026730 0.096417
0.242835 0.094950 -0.031147
-0.405358 0.070955 -0.070174
0.219132 -0.034812 -0.093356
-0.283203 0.059939 -0.079770
-0.039627 -0.077727 -0.062357
-0.077964 0.094464 0.032862
0.095038 -0.099337 0.008972
-0.360767 0.072954 0.068535
-0.217528 -0.073512 -0.067275
-0.180683 -0.058635 0.080963
0.221513 0.066715 -0.074204
0.025481 0.025333 0.096823
0.279845 0.095396 -0.029723
0.102056 -0.089451 -0.043946
-0.046188 -0.099319 0.009155
0.218495 0.026599 -0.096092
-0.441370 0.096674 0.025688
0.047006 0.094929 -0.031207
0.215735 -0.058928 0.080735
-0.292718 0.096586 -0.025629
-0.383565 -0.048353 0.087509
-0.194315 -0.028099 -0.095589
0.462396 0.070990 0.070502
-0.238773 -0.095097 -0.029949
-0.204244 0.019783 -0.097726
0.115583 -0.077511 -0.062637
-0.309092 -0.076660 0.064066
0.076008 0.011467 0.099393
0.427493 -0.014023 -0.098663
-0.283716 0.054161 -0.083803
0.209979 0.002215 0.100004
-0.123444 -0.044661 0.089418
-0.262960 -0.022568 0.097414
0.061646 -0.039051 0.092019
-0.197557 -0.020309 0.097919
0.026087 -0.066867 0.074227
-0.323240 0.062213 0.078369
-0.131769 0.099420 -0.010200
-0.106778 0.036035 -0.093000
-0.309226 -0.080960 0.058505
0.032991 0.085087 0.052636
-0.097427 -0.095877 0.027629
0.081873 -0.076789 -0.063558
0.199333 -0.052402 -0.084751
0.405339 -0.064040 0.076719
0.191497 0.060052 -0.079682
-0.290121 0.061437 0.078970
0.182928 0.073324 0.068116
-0.120354 0.017852 0.098456
-0.360223 -0.003328 0.099962
0.312726 -0.029834 -0.095085
0.360551 0.046512 -0.088231
-0.317671 0.048791 -0.087025
0.417084 -0.048249 0.087570
0.055282 0.030940 -0.094831
-0.090497 -0.009314 -0.099211
-0.437738 0.079743 0.060423
0.073464 0.078442 0.062100
0.254839 0.099972 0.001228
0.300558 -0.001422 -0.099659
-0.177801 0.035875 0.093420
0.232389 -0.064147 -0.076262
0.392114 0.025104 -0.096527
0.174217 0.060745 -0.079145
0.176712 -0.049529 0.086813
0.309376 -0.027593 0.096099
0.399168 0.074599 -0.066307
0.251487 -0.070943 -0.069953
-0.021131 -0.097495 -0.020804
0.228585 0.098356 -0.017780
-0.331971 -0.022980 -0.096959
-0.330361 -0.018565 0.098306
0.051662 0.052690 0.085082
-0.375139 0.093910 -0.034036
-0.432809 -0.005513 -0.099530
0.171397 0.095380 -0.029780
-0.108110 -0.031393 -0.094587
0.069832 -0.069391 -0.071505
-0.379743 -0.038504 -0.091893
0.243452 0.085867 0.051318
-0.182210 -0.077292 -0.062919
-0.177340 -0.082677 0.055978
0.105732 0.097073 -0.023737
-0.283819 -0.080206 -0.059162
0.402688 -0.097003 -0.023007
-0.441571 -0.043839 -0.089474
0.378529 -0.078821 0.061311
0.434364 0.098796 -0.015001
-0.115127 -0.031546 -0.094532
-0.301325 0.082790 -0.055792
-0.022375 -0.024719 0.096933
0.118619 -0.041413 -0.090634
0.136942 0.073838 -0.067170
-0.124423 -0.084302 0.053569
0.203876 0.098527 -0.016697
0.068155 -0.030128 -0.094999
0.151203 -0.061127 0.079030
-0.260834 -0.053173 -0.084295
-0.039453 -0.055023 -0.083058
0.148834 -0.024474 0.096988
0.225303 0.097000 -0.024065
-0.322909 -0.073079 0.068129
0.415875 0.021572 -0.097326
-0.353264 -0.098082 0.018395
0.183343 -0.091519 -0.039451
0.255141 0.040308 0.091576
-0.307430 0.058016 -0.081184
-0.030104 -0.007532 0.099743
0.264319 0.097869 -0.020178
-0.321897 -0.065367 -0.075187
0.428942 0.089197 -0.044903
0.101015 0.053975 -0.083929
0.453775 -0.002341 0.099993
-0.092139 0.095071 0.031175
0.448405 -0.043240 -0.089779
-0.358414 -0.098775 0.014022
-0.239884 0.064966 -0.075746
0.431371 -0.099733 0.001426
-0.294561 0.068758 -0.072372
-0.347832 0.086286 -0.050247
0.394149 0.090936 -0.041338
-0.386758 -0.041818 0.090821
-0.122695 -0.008086 0.099690
-0.062033 0.067993 -0.073077
0.069158 0.099970 0.001318
-0.014675 0.095004 -0.030999
0.195879 -0.018528 0.098312
0.327742 -0.098314 0.016930
0.263730 0.022992 0.097371
-0.278225 -0.032762 0.094457
-0.121168 0.073518 -0.067532
0.005551 -0.079517 0.060412
0.063777 -0.095245 0.029801
-0.421315 -0.064729 0.076112
-0.328438 0.083595 -0.054608
-0.067928 -0.084815 -0.052340
0.086071 -0.052986 0.084768
-0.038336 0.084806 -0.052749
0.021520 0.017066 0.098581
0.333463 -0.016902 0.098570
0.085831 0.032254 0.094724
0.223987 0.099993 -0.000195
0.067410 -0.087639 0.047866
0.084188 -0.009686 0.099539
0.067780 -0.097930 0.019221
0.435547 -0.080548 -0.058721
0.391142 -0.061424 0.078800
-0.230423 -0.099129 0.011170
0.166953 -0.038362 0.092317
-0.220502 -0.093843 0.033937
0.189178 -0.035969 0.093302
0.417117 -0.010559 -0.099094
0.426283 0.066531 0.074729
0.100405 -0.096022 0.027128
0.452166 -0.057080 0.082023
0.103691 -0.094693 -0.031214
