0.465339 -0.017329 0.014900
0.465339 -0.043464 0.053212
0.465339 -0.095261 -0.027625
0.465339 -0.002658 -0.092196
0.465339 0.044582 -0.044583
0.465339 0.015225 -0.053436
0.465339 0.021201 -0.052128
0.465339 0.028437 -0.040300
0.465339 -0.041658 0.062290
0.465339 0.096074 0.027461
0.465339 0.030557 -0.026792
0.465339 0.004455 -0.084185
0.465339 -0.041081 -0.006460
0.465339 0.003300 -0.097009
0.465339 0.055793 0.061761
0.465339 -0.038164 -0.017375
0.465339 -0.075727 -0.003659
0.465339 0.007357 -0.076366
0.465339 -0.071576 0.016150
0.465339 -0.017962 -0.064591
0.465339 -0.086523 0.040999
0.465339 -0.033655 0.032879
0.465339 0.023606 0.062111
0.465339 0.005398 -0.045093
0.465339 -0.021527 -0.014486
0.465339 -0.029931 0.048073
0.465339 -0.087532 -0.034176
0.465339 0.061119 -0.054012
0.465339 -0.020021 0.058549
0.465339 -0.055261 -0.045815
0.465339 -0.012044 -0.031418
0.465339 0.032176 0.077660
0.465339 -0.080300 -0.002245
0.465339 0.037797 0.074039
0.465339 0.065076 -0.027244
0.465339 -0.030018 -0.053311
0.465339 -0.000079 0.011261
0.465339 -0.022055 -0.063491
0.465339 -0.049660 -0.026676
0.465339 0.015327 -0.037278
0.465339 0.000234 -0.093760
0.465339 -0.011368 -0.059119
0.465339 -0.048720 -0.021357
0.465339 0.015790 -0.085432
0.465339 0.026672 0.083417
0.465339 0.058902 -0.034681
0.465339 -0.035233 0.044650
0.465339 0.046842 -0.052552
0.465339 -0.082840 0.036446
0.465339 0.010471 -0.062785
0.465339 -0.047551 0.015863
0.465339 0.006172 -0.003849
0.465339 0.080109 -0.010231
0.465339 0.043496 -0.023208
0.465339 -0.021409 -0.037758
0.465339 0.011291 -0.021586
0.465339 -0.023905 -0.070302
0.465339 0.037231 -0.002214
0.465339 0.067018 -0.030159
0.465339 0.016981 0.056553
0.465339 0.017218 0.008002
0.465339 -0.035382 0.062579
0.465339 -0.036821 -0.062526
0.465339 0.054903 0.064951
0.465339 -0.002387 0.094261
0.465339 0.054640 -0.040475
0.465339 0.016097 -0.033587
0.465339 -0.066465 0.048168
0.465339 -0.000357 0.049803
0.465339 0.003662 -0.001828
0.465339 0.006146 -0.022130
0.465339 -0.000885 -0.075106
0.465339 -0.030031 -0.086575
0.465339 0.088111 0.025767
0.465339 -0.033370 -0.065232
0.465339 -0.045236 0.089097
0.465339 0.007416 0.033811
0.465339 0.085494 0.034179
0.465339 -0.056606 0.048135
0.465339 0.030637 0.047764
0.465339 0.035414 0.089626
0.465339 -0.005201 -0.076937
0.465339 0.061292 -0.066427
0.465339 -0.079316 -0.042250
0.465339 -0.018219 -0.025847
0.465339 -0.046740 -0.031011
0.465339 0.061851 0.029078
0.465339 0.036151 -0.051805
0.465339 0.069970 0.043978
0.465339 -0.023947 -0.007189
0.465339 0.082498 -0.000357
0.465339 -0.079628 0.059236
0.465339 -0.006838 -0.061284
0.465339 0.048091 0.073696
0.465339 0.057813 0.038763
0.465339 0.082187 0.006737
0.465339 -0.011344 0.071015
0.465339 -0.094638 0.024228
0.465339 -0.014743 0.013262
0.465339 -0.034340 0.041574
0.465339 0.083063 0.036387
0.465339 -0.056431 0.066699
0.465339 0.032441 -0.076141
0.465339 -0.024476 -0.037505
0.465339 0.035040 -0.063491
0.465339 0.033291 -0.002797
0.465339 -0.076060 -0.005244
0.465339 0.006224 0.012487
0.465339 -0.096676 -0.013349
0.465339 0.054695 0.036374
0.465339 -0.088672 0.009907
0.465339 0.041981 -0.028893
0.465339 0.037436 -0.054985
0.465339 -0.027184 0.066163
0.465339 -0.055880 -0.050522
0.465339 0.016842 -0.056791
0.465339 0.044208 0.089568
0.465339 0.006949 -0.019479
0.465339 -0.050340 0.007976
0.465339 0.077982 0.032328
0.465339 -0.051316 -0.013536
0.465339 -0.031565 0.051326
0.465339 -0.068080 0.071767
0.465339 -0.022097 0.064315
0.465339 0.078758 -0.019341
0.465339 0.000235 -0.004816
0.465339 -0.016393 0.029518
0.465339 0.054035 -0.042141
0.465339 -0.068688 -0.004597
0.465339 -0.002174 -0.097819
0.465339 0.026479 0.065368
0.465339 0.046231 -0.004925
0.465339 -0.016204 0.080139
0.465339 -0.013173 -0.068687
0.465339 -0.088792 -0.022873
0.465339 0.012363 -0.098895
0.465339 -0.029262 0.051717
0.465339 0.062784 0.036567
0.465339 -0.037165 0.092521
0.465339 -0.043530 -0.078885
0.465339 0.001366 0.055820
0.465339 -0.089838 -0.033055
0.465339 -0.076837 -0.006813
0.465339 -0.012856 0.005887
0.465339 -0.039954 -0.002766
0.465339 0.071590 -0.023688
0.465339 -0.083587 0.051715
0.465339 0.018944 -0.008518
0.465339 -0.016915 0.046969
0.465339 -0.035132 0.058562
0.465339 0.009851 0.077717
0.465339 -0.042047 -0.036742
0.465339 -0.059362 -0.008056
0.465339 0.076518 0.053307
0.465339 -0.028936 0.072565
0.465339 -0.060295 0.031265
0.465339 -0.030337 -0.055115
0.465339 -0.059531 -0.027966
0.465339 0.037853 -0.065551
0.465339 0.008791 -0.052067
0.465339 -0.006199 -0.078202
0.465339 0.013230 0.031822
0.465339 -0.073257 0.010988
0.465339 -0.066931 -0.063086
0.465339 0.022472 0.083431
0.465339 -0.017274 0.074848
0.465339 0.081524 -0.029764
0.465339 0.057414 -0.062423
0.465339 0.020478 0.022382
0.465339 -0.029489 -0.014051
0.465339 -0.093791 -0.012830
0.465339 -0.056560 0.030308
0.465339 0.031708 0.087470
0.465339 0.063456 -0.050880
0.465339 0.089302 0.020830
0.465339 -0.000628 -0.025964
0.465339 0.017440 -0.033150
0.465339 0.099786 -0.000577
0.465339 0.061015 0.074877
0.465339 0.006962 -0.069288
0.465339 -0.056004 0.018812
0.465339 -0.077345 -0.010532
0.465339 0.044348 0.039612
0.465339 0.045685 0.030974
0.465339 -0.013926 0.096981
0.465339 -0.027949 -0.012762
0.465339 -0.008298 0.019443
0.465339 0.035358 -0.028801
0.465339 0.041234 -0.025539
0.465339 -0.035250 -0.008335
0.465339 0.099088 0.013180
0.465339 -0.006297 0.075405
0.465339 -0.017424 -0.045203
0.465339 0.022514 0.012239
0.465339 -0.098611 0.013739
0.465339 0.048837 -0.018987
0.465339 -0.014742 -0.000633
0.465339 0.033453 0.086073
0.465339 0.011783 0.047558
0.465339 0.074598 0.011326
0.465339 0.089384 -0.029491
0.465339 -0.044226 -0.084269
0.465339 -0.018919 -0.085437
0.465339 -0.000349 -0.001783
0.465339 0.039251 0.087398
0.465339 0.055454 -0.027062
0.465339 -0.010286 -0.068457
0.465339 -0.009811 0.055139
0.465339 -0.045800 0.049949
0.465339 -0.023242 0.030367
0.465339 -0.078482 -0.025137
0.465339 0.061288 -0.007280
0.465339 0.021168 0.069129
0.465339 0.025679 -0.056293
0.465339 -0.018564 0.087304
0.465339 0.047247 -0.049479
0.465339 0.051620 -0.034165
0.465339 0.079974 0.039231
0.465339 -0.088442 -0.045598
0.465339 0.050437 -0.065876
0.465339 -0.080121 -0.000293
0.465339 -0.088998 0.044722
0.465339 0.054216 -0.033956
0.465339 -0.012298 0.084462
0.465339 0.086531 0.050085
0.465339 0.028956 0.069018
0.465339 -0.028457 -0.093472
0.465339 0.066039 -0.025387
0.465339 -0.044644 -0.021748
0.465339 0.041652 -0.039888
0.465339 0.052867 0.024672
0.465339 -0.074892 -0.052656
0.465339 0.078326 0.021513
0.465339 0.023742 0.052299
0.465339 -0.002094 0.090355
0.465339 0.024717 -0.020795
0.465339 -0.041791 0.074613
0.465339 0.079553 0.054786
0.465339 0.029600 -0.017377
0.465339 0.025869 -0.095216
0.465339 0.037458 -0.041432
0.465339 0.045042 -0.040974
0.465339 -0.065331 0.019305
0.465339 -0.001843 -0.000981
0.465339 -0.050613 -0.011955
0.465339 0.020826 0.012593
0.465339 -0.035487 0.075252
0.465339 0.025678 0.027450
0.465339 -0.049262 -0.068470
0.465339 -0.098258 0.004298
0.465339 0.018490 0.044036
0.465339 0.067171 0.048098
0.465339 0.078470 -0.038382
0.465339 0.003029 -0.058786
0.465339 0.075860 0.043026
0.465339 -0.070812 -0.024863
0.465339 0.034196 -0.069676
0.465339 0.028802 -0.095163
0.465339 -0.022474 0.017799
0.465339 -0.070410 0.008733
0.465339 -0.012853 -0.064760
0.465339 -0.055394 0.059242
0.465339 0.005295 -0.019060
0.465339 0.065148 -0.044256
0.465339 0.024953 0.088651
0.465339 0.059701 -0.029348
0.465339 0.035155 -0.083707
0.465339 0.053387 0.065990
0.465339 -0.072575 -0.003822
0.465339 -0.026432 -0.078481
0.465339 0.030442 0.053192
0.465339 -0.072898 0.015316
0.465339 -0.096592 -0.007300
0.465339 0.020609 -0.077690
0.465339 0.018831 -0.005973
0.465339 0.039771 0.011247
0.465339 -0.022877 0.092974
0.465339 -0.004531 0.030214
0.465339 0.002645 -0.017525
0.465339 0.085146 0.001409
0.465339 0.041892 0.013090
0.465339 -0.032995 0.055394
0.465339 -0.000593 -0.006158
0.465339 0.022741 0.036182
0.465339 0.050183 -0.045191
0.465339 -0.080838 0.040551
0.465339 -0.007124 0.056687
0.465339 0.018657 -0.068289
0.465339 -0.004888 0.099714
0.465339 -0.074111 0.005047
0.465339 -0.015629 -0.041533
0.465339 -0.001632 -0.014626
0.465339 -0.004309 -0.029510
0.465339 -0.004414 -0.060244
0.465339 -0.045179 -0.081913
0.465339 0.020093 -0.017450
0.465339 -0.058312 0.029144
0.465339 0.030842 0.023795
0.465339 -0.049163 -0.053758
0.465339 0.078730 0.019666
0.465339 -0.024877 0.054954
0.465339 -0.076107 -0.001799
0.465339 0.053043 0.067703
0.465339 0.044560 -0.048935
0.465339 -0.052132 0.015277
0.465339 -0.041854 0.083306
0.465339 0.035797 -0.071103
0.465339 -0.049450 0.006242
0.465339 -0.049442 -0.045315
0.465339 -0.095160 0.000942
0.465339 0.077931 -0.061962
0.465339 -0.061276 0.009897
0.465339 -0.057997 0.031073
0.465339 0.078432 0.015564
0.465339 -0.058757 -0.023838
0.465339 0.028311 0.043631
0.465339 -0.060167 0.034656
0.465339 -0.075810 0.029771
0.465339 0.057661 -0.067188
0.465339 -0.056895 -0.011508
0.465339 -0.006022 -0.014796
0.465339 -0.023389 0.085344
0.465339 -0.037004 -0.015658
0.465339 0.033766 -0.062481
0.465339 0.026876 0.025350
0.465339 0.025746 -0.050873
0.465339 0.078119 0.008239
0.465339 -0.071039 0.019002
0.465339 0.066267 0.037306
0.465339 0.022738 0.060575
0.465339 -0.025431 -0.016618
0.465339 0.088910 -0.021329
0.465339 -0.002802 0.066847
0.465339 0.082648 0.013665
0.465339 0.025298 0.046142
0.465339 -0.008805 -0.090524
0.465339 0.065321 0.029640
0.465339 0.068101 0.071933
0.465339 -0.031015 -0.027494
0.465339 -0.005873 -0.051604
0.465339 -0.001491 0.088567
0.465339 -0.034052 -0.029057
0.465339 -0.069891 0.015872
0.465339 0.062074 0.049387
0.465339 -0.065223 0.015944
0.465339 0.084136 -0.053203
0.465339 0.002013 -0.041519
0.465339 0.084403 -0.006405
0.465339 0.073159 0.032001
0.465339 0.012683 -0.033340
0.465339 -0.030547 -0.013002
0.465339 0.038710 -0.023914
0.465339 0.094658 0.010136
0.465339 -0.027030 0.040862
0.465339 -0.055394 -0.029895
0.465339 -0.058881 -0.001787
0.465339 0.037592 0.087147
0.465339 -0.061279 -0.060225
0.465339 0.025699 -0.005184
0.465339 -0.024537 0.012527
0.465339 0.042602 -0.061984
0.465339 -0.054144 0.015718
0.465339 -0.010809 -0.050397
0.465339 -0.093450 -0.031152
0.465339 -0.029836 0.056753
0.465339 0.048771 -0.016025
0.465339 0.021181 -0.067697
0.465339 -0.028422 0.014438
0.465339 0.043391 -0.029595
0.465339 -0.071199 0.052825
0.465339 0.027293 0.091749
0.465339 0.042286 0.000073
0.465339 -0.061464 0.069110
0.465339 -0.073981 0.025172
0.465339 -0.085742 -0.046736
0.465339 0.045157 -0.087956
0.465339 0.003406 -0.008423
0.465339 -0.011610 0.061430
0.465339 -0.047804 0.034029
0.465339 0.029078 0.012177
0.465339 -0.070893 0.058590
0.465339 0.019799 0.005694
0.465339 -0.056477 0.044788
0.465339 0.055377 -0.082532
0.465339 0.066541 0.003096
0.465339 -0.022460 -0.007246
0.465339 0.039164 -0.045626
0.465339 0.087485 -0.000023
0.465339 -0.082377 -0.023912
0.465339 0.017058 0.018766
0.465339 -0.055572 -0.035269
0.465339 -0.019502 0.044707
0.465339 0.045672 -0.072187
0.465339 0.068719 -0.069699
0.465339 -0.034958 -0.033160
0.465339 -0.019958 0.008816
0.465339 0.006817 0.041302
0.465339 0.076031 -0.024134
0.465339 -0.056273 -0.053678
0.465339 -0.001773 -0.048777
0.465339 -0.053120 0.041288
0.465339 0.034410 0.025402
0.465339 0.013651 -0.093636
0.465339 -0.055389 -0.027429
0.465339 -0.035405 -0.037170
0.465339 0.044358 -0.033136
0.465339 0.045087 -0.047136
0.465339 0.002742 -0.075530
0.465339 -0.099634 0.000839
0.465339 0.048886 -0.020891
0.465339 -0.075844 0.055460
0.465339 -0.078619 -0.057913
0.465339 -0.039364 0.090313
0.465339 0.002189 -0.085406
0.465339 -0.018724 -0.072369
0.465339 -0.028581 0.048964
0.465339 -0.059922 0.015184
0.465339 -0.030704 0.073731
0.465339 -0.033871 0.089273
0.465339 -0.067481 0.013079
0.465339 0.056918 0.041931
0.465339 -0.076944 -0.022277
0.465339 0.046420 -0.022051
0.465339 -0.062992 -0.065952
0.465339 0.088690 0.028417
0.465339 -0.022074 0.053436
0.465339 0.001608 0.025539
0.465339 -0.069544 -0.016836
0.465339 0.059122 0.018139
0.465339 0.049772 0.052627
0.465339 0.079375 0.043414
0.465339 -0.061777 0.051509
0.465339 -0.077071 0.011482
0.465339 -0.075366 -0.037790
0.465339 0.025683 -0.036520
0.465339 0.092351 0.002810
0.465339 0.080531 0.004283
0.465339 0.069336 -0.005601
0.465339 -0.043390 -0.016237
0.465339 0.039871 0.068465
0.465339 -0.066123 0.069609
0.465339 0.095903 0.007358
0.465339 -0.049574 -0.078422
0.465339 0.006355 -0.031369
0.465339 -0.029166 0.089529
0.465339 -0.001298 0.082937
0.465339 -0.046609 0.004929
0.465339 -0.068225 0.018799
0.465339 -0.097290 0.002845
0.465339 0.025808 0.039978
0.465339 0.036675 0.038742
0.465339 0.044945 0.076254
0.465339 0.051947 -0.022309
0.465339 0.080567 0.016947
0.465339 -0.036925 -0.066253
0.465339 0.010507 0.008641
0.465339 -0.024768 0.022993
0.465339 0.060353 -0.055419
0.465339 0.020407 0.015840
0.465339 0.026282 -0.014818
0.465339 -0.093671 0.031212
0.465339 -0.009093 -0.033510
0.465339 -0.018712 0.068593
0.465339 -0.019345 0.027888
0.465339 -0.001233 -0.051794
0.465339 0.004188 0.007706
0.465339 0.033942 0.030179
0.465339 -0.003282 0.099755
0.465339 -0.078265 0.037455
0.465339 -0.042986 0.085549
0.465339 0.040181 -0.074484
0.465339 -0.056897 0.007476
0.465339 -0.034310 0.086020
0.465339 -0.013372 -0.023531
0.465339 -0.044162 -0.001547
0.465339 -0.066009 0.017486
0.465339 -0.091467 -0.028259
0.465339 -0.000479 -0.036435
0.465339 -0.063490 0.059268
0.465339 -0.018606 0.013060
0.465339 0.062451 -0.043353
0.465339 0.073455 0.054998
0.465339 0.001783 0.033214
0.465339 -0.055114 -0.043268
0.465339 -0.079658 0.036431
0.465339 -0.069473 0.063875
0.465339 0.085308 -0.017696
0.465339 -0.033306 0.003275
0.465339 0.068313 0.011989
0.465339 0.040170 0.059523
0.465339 -0.065044 -0.043673
0.465339 -0.038807 -0.065935
0.465339 -0.011484 -0.037297
0.465339 -0.076028 -0.043859
0.465339 -0.037694 0.022206
0.465339 -0.015560 -0.074689
0.465339 -0.034735 -0.054952
0.465339 -0.031968 0.070237
0.465339 0.057215 -0.035133
0.465339 -0.099485 -0.003326
0.465339 -0.076209 0.028079
0.465339 0.020836 0.051659
0.465339 0.043996 0.023415
0.465339 0.016595 -0.065691
0.465339 0.037570 -0.074251
0.465339 -0.074448 0.029938
0.465339 0.089363 0.003731
0.465339 0.016463 0.077038
0.465339 0.013098 0.030068
0.465339 -0.065338 0.032240
0.465339 -0.032336 -0.063623
0.465339 0.030956 0.027319
0.465339 -0.078010 -0.051881
0.465339 -0.057031 -0.001724
0.465339 -0.056035 0.036013
0.465339 -0.012348 -0.016741
0.465339 -0.007388 0.088674
0.465339 0.044916 0.025100
0.465339 -0.007433 0.068525
0.465339 -0.014050 -0.014608
0.465339 -0.069125 -0.013722
0.465339 0.035518 0.001826
0.465339 0.020110 -0.031271
0.465339 0.069625 -0.034140
0.465339 -0.004447 -0.055138
0.465339 -0.040450 0.059856
0.465339 0.055251 0.057680
0.465339 0.022693 -0.096741
0.465339 -0.085048 0.039634
0.465339 0.056206 -0.032449
0.465339 -0.085759 -0.027128
0.465339 0.059345 0.058103
0.465339 0.038134 -0.077210
0.465339 0.034424 0.087678
0.465339 -0.049434 0.001476
0.465339 0.069871 -0.013155
0.465339 -0.039001 0.005480
0.465339 -0.077602 -0.043067
0.465339 -0.027436 0.071036
0.465339 0.014137 -0.081822
0.465339 0.046779 0.087826
0.465339 -0.024257 0.066858
0.465339 -0.016443 0.057563
0.465339 0.044015 0.083911
0.465339 0.008847 0.049560
0.465339 0.033840 -0.007301
0.465339 -0.060056 -0.069176
0.465339 -0.047954 0.085832
0.465339 0.052502 0.014119
0.465339 -0.009094 0.039168
0.465339 0.029236 -0.038420
0.465339 -0.058774 -0.063269
0.465339 -0.032852 -0.055951
0.465339 -0.054632 0.050238
0.465339 0.022797 -0.080755
0.465339 -0.052322 0.011180
0.465339 0.060296 -0.063119
0.465339 -0.048251 -0.073079
0.465339 0.030403 -0.090170
0.465339 0.094653 0.032142
0.465339 -0.000814 -0.047412
0.465339 -0.042743 0.002925
0.465339 -0.038843 0.060555
0.465339 -0.019083 0.074620
0.465339 0.008169 -0.000211
0.465339 -0.007042 -0.016144
0.465339 0.038971 -0.073109
0.465339 0.052049 -0.045698
0.465339 -0.047864 -0.087277
0.465339 0.021755 -0.003054
0.465339 -0.090678 -0.008124
0.465339 -0.086044 -0.043716
0.465339 0.001908 -0.009033
0.465339 0.036226 -0.053715
0.465339 0.080089 0.059233
0.465339 0.045186 -0.031690
0.465339 0.018344 -0.072096
0.465339 0.038174 0.044468
0.465339 -0.054176 0.038199
0.465339 0.015340 0.000998
0.465339 0.008814 0.058108
0.465339 -0.025689 -0.082240
0.465339 0.064800 -0.065671
0.465339 0.007350 0.044436
0.465339 0.049167 -0.070053
0.465339 0.049816 -0.084204
0.465339 -0.048338 -0.058806
0.465339 -0.024859 -0.014023
0.465339 -0.016236 0.069573
0.465339 -0.059404 -0.075015
0.465339 0.005077 -0.030678
0.465339 0.079371 0.035191
0.465339 0.056473 -0.016721
0.465339 -0.056292 -0.072828
0.465339 0.005880 -0.083470
0.465339 0.004334 0.039329
0.465339 0.026820 -0.013372
0.465339 -0.031496 0.032167
0.465339 -0.053939 -0.030154
0.465339 0.062005 -0.046135
0.465339 0.044923 -0.003850
0.465339 0.021117 0.088525
0.465339 0.009528 -0.090621
0.465339 0.027472 0.076298
0.465339 -0.055176 0.071443
0.465339 -0.025526 0.080740
0.465339 -0.080835 0.007286
0.465339 0.056250 -0.063906
0.465339 0.024284 0.073021
0.465339 -0.025081 0.060297
0.465339 0.076707 -0.026072
0.465339 -0.060954 -0.008740
0.465339 0.005638 0.048552
0.465339 0.034405 0.073172
0.465339 0.044480 0.080033
0.465339 -0.052430 -0.073832
0.465339 -0.039436 -0.032677
0.465339 0.007068 0.014341
0.465339 -0.019715 -0.005561
0.465339 0.046837 0.060669
0.465339 0.029754 0.095256
0.465339 -0.057263 -0.060016
0.465339 0.066801 -0.032080
0.465339 -0.040711 -0.037085
0.465339 -0.089187 0.008466
0.465339 0.088826 0.024364
0.465339 0.000348 -0.008246
0.465339 -0.021779 -0.091334
0.465339 0.012268 -0.040309
0.465339 -0.021578 0.014393
0.465339 0.058206 0.074868
0.465339 0.059784 0.004873
0.465339 0.041340 0.053263
0.465339 -0.063389 0.046555
0.465339 -0.071413 0.039862
0.465339 -0.015901 0.003029
0.465339 0.025041 0.000245
0.465339 -0.040632 0.055227
0.465339 0.030729 0.040251
0.465339 -0.047140 -0.063562
0.465339 0.073291 0.046443
0.465339 0.014576 0.016757
0.465339 -0.019752 -0.008603
0.465339 -0.053551 0.072435
0.465339 0.011057 -0.053187
0.465339 0.065650 0.044333
0.465339 -0.042120 -0.008618
0.465339 0.000296 -0.084591
0.465339 -0.063394 -0.062236
0.465339 0.083256 -0.015586
0.465339 -0.054651 0.057525
0.465339 0.002537 0.007874
0.465339 0.072763 -0.047378
0.465339 -0.081564 0.012851
0.465339 -0.007200 -0.084574
0.465339 0.010393 -0.081707
0.465339 -0.062035 0.012523
0.465339 -0.052380 0.062656
0.465339 0.045964 -0.012669
0.465339 0.005542 -0.012915
0.465339 0.022566 0.095476
0.465339 -0.060817 0.071381
0.465339 -0.017745 0.037245
0.465339 0.005812 0.033516
0.465339 0.021735 -0.011080
0.465339 0.037146 0.092136
0.465339 -0.040716 0.051021
0.465339 0.025424 -0.092592
0.465339 -0.015243 -0.094314
0.465339 0.002735 0.094382
0.465339 0.020345 -0.087235
0.465339 -0.008703 -0.000616
0.465339 -0.057523 -0.070162
0.465339 0.017008 0.022091
0.465339 -0.015407 -0.068203
0.465339 -0.021889 0.006447
0.465339 0.018688 0.080614
0.465339 0.066822 -0.049470
0.465339 0.023220 -0.026451
0.465339 0.086732 0.044517
0.465339 -0.080853 -0.008548
0.465339 0.010534 0.087963
0.465339 0.091735 -0.015109
0.465339 -0.012148 -0.083380
0.465339 -0.009020 0.021267
0.465339 0.027291 -0.045265
0.465339 0.006366 0.055768
0.465339 0.074199 -0.016127
0.465339 0.047512 0.066520
0.465339 -0.090185 0.002538
0.465339 -0.044999 0.055736
0.465339 0.011132 -0.078876
0.465339 -0.022043 -0.044954
0.465339 0.069985 0.035697
0.465339 -0.061343 -0.054212
0.465339 -0.024937 -0.012639
0.465339 -0.020677 -0.060511
0.465339 0.078445 -0.007533
0.465339 -0.021722 0.043088
0.465339 -0.020075 -0.038723
0.465339 0.081479 -0.014146
0.465339 -0.019470 0.061032
0.465339 -0.046118 0.086550
0.465339 -0.091128 0.005134
0.465339 -0.054226 -0.050071
0.465339 0.042667 0.015668
0.465339 0.021437 -0.056641
0.465339 -0.014074 0.037741
0.465339 0.042008 0.027574
0.465339 -0.027268 0.005243
0.465339 0.042580 0.022233
0.465339 0.049433 -0.013127
0.465339 -0.029288 0.055033
0.465339 -0.030913 -0.066722
0.465339 0.021977 0.023059
0.465339 0.080731 0.044143
0.465339 -0.013518 -0.098667
0.465339 -0.020158 -0.094544
0.465339 0.018015 0.058363
0.465339 -0.012868 0.030291
0.465339 0.002402 -0.055681
0.465339 -0.043579 0.062506
0.465339 -0.089228 0.039436
0.465339 0.038697 -0.006443
0.465339 0.074914 -0.017541
0.465339 0.093916 -0.022566
0.465339 -0.028954 -0.075567
0.465339 0.040649 0.046070
0.465339 -0.075735 -0.015523
0.465339 -0.088538 0.026389
0.465339 0.059984 0.049309
0.465339 0.034784 -0.005324
0.465339 -0.081028 0.056307
0.465339 0.017722 0.072379
0.465339 -0.023631 -0.059162
0.465339 -0.064898 -0.039222
0.465339 -0.068485 0.056942
0.465339 -0.042739 -0.052097
0.465339 0.019709 -0.092262
0.465339 0.001228 -0.083178
0.465339 -0.058077 0.038260
0.465339 0.061137 -0.005889
0.465339 -0.036114 0.018438
0.465339 -0.057459 0.000795
0.465339 0.037164 0.035261
0.465339 0.085210 0.051787
0.465339 0.080598 0.049347
0.465339 -0.020029 0.031505
0.465339 0.083730 0.016286
0.465339 0.040173 -0.041527
0.465339 0.022477 0.037661
0.465339 -0.015330 -0.002210
0.465339 0.002258 0.031697
0.465339 0.028324 0.063147
0.465339 0.025122 0.078186
0.465339 0.068620 -0.039426
0.465339 0.032241 0.052699
0.465339 -0.058278 -0.064933
0.465339 -0.044608 0.045953
0.465339 0.088656 -0.035463
0.465339 0.082169 0.001533
0.465339 -0.020755 0.044105
0.465339 -0.065913 -0.064991
0.465339 0.044135 -0.024508
0.465339 -0.067079 -0.055261
0.465339 -0.052253 -0.036014
0.465339 0.072155 -0.050142
0.465339 0.052604 0.000104
0.465339 -0.053407 -0.070432
0.465339 -0.026332 -0.041404
0.465339 0.090454 -0.038039
0.465339 -0.066166 0.036233
0.465339 -0.042728 -0.075894
0.465339 0.007119 -0.044110
0.465339 0.053868 0.056501
0.465339 0.037052 -0.030717
0.465339 -0.015321 0.093403
0.465339 -0.003299 -0.053769
0.465339 0.071435 0.051333
0.465339 0.074246 -0.048496
0.465339 0.060633 0.010566
0.465339 -0.046359 -0.053308
0.465339 -0.014293 0.005233
0.465339 -0.010945 -0.032431
0.465339 -0.067002 0.023830
0.465339 0.042705 -0.085255
0.465339 -0.097806 -0.017186
0.465339 0.025536 -0.058340
0.465339 -0.027323 -0.046967
0.465339 0.001088 -0.066759
0.465339 -0.023495 0.097032
0.465339 -0.040419 0.032950
0.465339 -0.000141 0.021271
0.465339 0.009861 0.005895
0.465339 0.009448 -0.039154
0.465339 0.054020 -0.013862
0.465339 -0.060424 -0.047592
0.465339 0.037214 0.010829
0.465339 0.019337 0.031479
0.465339 0.075701 0.013397
0.465339 0.036483 -0.032519
0.465339 0.000747 0.080691
0.465339 0.041260 -0.070743
0.465339 -0.017462 0.035903
0.465339 0.002256 0.087826
0.465339 -0.032763 0.035255
0.465339 -0.041349 -0.073315
0.465339 0.027774 -0.069374
0.465339 0.073929 -0.034862
0.465339 0.022275 0.006909
0.465339 0.051275 -0.056085
0.465339 0.032629 0.058671
0.465339 -0.064392 0.048596
0.465339 -0.055559 -0.047587
0.465339 -0.007912 0.005403
0.465339 -0.003160 -0.013908
0.465339 -0.052627 0.051829
0.465339 -0.014607 -0.032801
0.465339 -0.001029 0.008756
0.465339 0.075401 0.057401
0.465339 0.086171 -0.043058
0.465339 -0.043799 0.056945
0.465339 -0.055116 -0.075576
0.465339 -0.013028 0.024211
0.465339 -0.013700 -0.059503
0.465339 -0.042242 -0.065462
0.465339 0.055067 0.028711
0.465339 -0.044365 -0.044126
0.465339 -0.032070 0.049129
0.465339 0.006143 -0.093148
0.465339 0.087857 -0.041074
0.465339 0.062589 0.066470
0.465339 0.073719 -0.052493
0.465339 -0.036805 -0.036221
0.465339 -0.015384 -0.061516
0.465339 -0.067658 -0.041513
0.465339 -0.046148 -0.059244
0.465339 -0.049344 -0.081683
0.465339 -0.051469 0.041229
0.465339 -0.042114 0.090559
0.465339 -0.068147 0.060650
0.465339 0.034188 -0.039329
0.465339 -0.053699 0.063418
0.465339 0.066879 0.059946
0.465339 -0.077521 0.055192
0.465339 0.042290 0.088471
0.465339 -0.056586 0.070746
0.465339 0.014947 0.035077
0.465339 -0.054324 -0.083516
0.465339 0.065769 0.049159
0.465339 -0.097502 -0.020616
0.465339 -0.032132 0.086540
0.465339 0.066038 -0.035079
0.465339 -0.003074 -0.018929
0.465339 -0.064020 0.054776
0.465339 -0.071699 -0.069069
0.465339 -0.042841 -0.017829
0.465339 0.015694 -0.054962
0.465339 0.000250 0.062751
0.465339 -0.033814 -0.062537
0.465339 -0.004085 -0.031600
0.465339 0.011695 -0.055671
0.465339 -0.057878 -0.067144
0.465339 -0.045033 -0.060513
0.465339 -0.012343 -0.049713
0.465339 -0.017377 0.071724
0.465339 -0.022101 0.001471
0.465339 -0.062806 -0.060325
0.465339 -0.014779 -0.023914
0.465339 -0.052291 -0.040128
0.465339 -0.006654 -0.070382
0.465339 -0.030629 -0.033692
0.465339 0.068718 0.043296
0.465339 0.041820 -0.052516
0.465339 0.054511 0.007367
0.465339 0.069924 -0.014906
0.465339 0.075273 -0.004383
0.465339 0.017314 0.023806
0.465339 0.006797 -0.086394
0.465339 0.094304 -0.013460
0.465339 -0.051970 -0.049492
0.465339 -0.061078 0.000769
0.465339 -0.039816 -0.053103
0.465339 -0.029663 0.092179
0.465339 -0.033400 -0.076527
0.465339 -0.005969 0.039094
0.465339 -0.009014 0.035612
0.465339 -0.031402 -0.038494
0.465339 -0.017221 0.006998
0.465339 -0.005370 -0.057362
0.465339 -0.036134 0.001434
0.465339 -0.052449 0.078302
0.465339 0.074095 0.000891
0.465339 0.041303 -0.019782
0.465339 0.049870 -0.017247
0.465339 -0.009708 -0.013832
0.465339 0.044773 0.069827
0.465339 0.010791 0.078940
0.465339 0.041554 0.032615
0.465339 0.026561 -0.042642
0.465339 0.048871 0.044757
0.465339 0.043939 -0.074880
0.465339 -0.052571 -0.055961
0.465339 -0.093256 0.007751
0.465339 0.049433 -0.001209
0.465339 0.027309 -0.024874
0.465339 -0.096718 -0.004966
0.465339 0.003496 -0.054115
0.465339 0.028041 0.001361
0.465339 -0.016284 0.038323
0.465339 0.011218 0.077184
0.465339 -0.096595 0.001340
0.465339 0.043844 -0.071757
0.465339 0.050883 -0.051870
0.465339 -0.010517 0.004934
0.465339 0.024940 -0.024994
0.465339 0.028505 0.071309
0.465339 0.026686 0.021713
0.465339 0.002462 -0.088808
0.465339 0.015496 0.004273
0.465339 -0.033269 0.047981
0.465339 0.043314 0.024999
0.465339 -0.034755 0.047501
0.465339 -0.062320 0.070581
0.465339 0.074585 0.050955
0.465339 -0.051795 -0.066951
0.465339 0.063699 0.047693
0.465339 -0.027441 0.093801
0.465339 0.046432 0.003748
0.465339 -0.045276 0.048264
0.465339 0.023936 -0.019023
0.465339 -0.087027 0.025926
0.465339 -0.067820 0.068443
0.465339 -0.017832 -0.077398
0.465339 -0.083411 0.032898
0.465339 -0.083621 -0.034441
0.465339 0.018580 0.015572
0.465339 -0.030938 -0.018806
0.465339 0.051076 -0.037362
0.465339 -0.060180 0.065311
0.465339 0.044248 -0.025904
0.465339 -0.021448 -0.077036
0.465339 0.039903 0.051115
0.465339 -0.002255 -0.047096
0.465339 0.025391 -0.022107
0.465339 -0.030342 -0.057651
0.465339 -0.004457 -0.039429
0.465339 0.013695 -0.040204
0.465339 0.002732 -0.003211
0.465339 0.010374 -0.030850
0.465339 -0.090843 -0.036855
0.465339 0.034064 -0.010130
0.465339 -0.067985 -0.058121
0.465339 0.009308 0.031893
0.465339 0.024327 0.040843
0.465339 0.097091 0.014088
0.465339 -0.004142 0.091034
0.465339 0.087913 -0.020333
0.465339 0.015242 -0.083110
0.465339 -0.031219 -0.026141
0.465339 0.006803 0.089750
0.465339 0.003916 0.018565
0.465339 0.052900 0.034203
0.465339 0.032100 0.048769
0.465339 0.047596 0.036239
0.465339 -0.026973 -0.016223
0.465339 0.070341 0.070504
0.465339 0.005413 -0.080309
0.465339 -0.009891 0.077466
0.465339 0.040073 -0.090388
0.465339 0.092197 -0.034216
0.465339 0.037172 -0.058643
0.465339 0.055611 0.040349
0.465339 -0.001836 0.080702
0.465339 0.023678 0.024228
0.465339 0.003752 -0.060256
0.465339 -0.039606 -0.007544
0.465339 -0.009838 0.094139
0.465339 -0.077517 -0.044475
0.465339 -0.059540 -0.030772
0.465339 -0.027617 -0.001918
0.465339 0.037131 -0.092561
0.465339 0.077160 -0.048899
0.465339 0.047916 0.075157
0.465339 -0.014487 0.062256
0.465339 0.053925 0.040987
0.465339 -0.070957 0.051211
0.465339 0.021255 -0.075624
0.465339 0.034423 0.074778
0.465339 0.044918 0.055371
0.465339 0.048281 -0.078165
0.465339 0.075836 -0.064411
0.465339 0.004925 -0.085719
0.465339 0.020429 -0.081769
0.465339 0.030032 0.075139
0.465339 0.029357 -0.011147
0.465339 -0.035725 0.041325
0.465339 -0.069583 -0.018539
0.465339 -0.065564 -0.060359
0.465339 0.046785 -0.082731
0.465339 0.009672 0.086088
0.465339 -0.001583 0.044920
0.465339 0.010863 -0.076883
0.465339 -0.063725 0.003373
0.465339 -0.000415 0.007162
0.465339 -0.013735 0.031600
0.465339 -0.005530 -0.062965
0.465339 -0.007932 -0.004769
0.465339 0.048726 -0.049100
0.465339 -0.059091 -0.057910
0.465339 -0.069267 0.011106
0.465339 -0.074972 0.047661
0.465339 -0.026787 -0.034285
0.465339 0.046968 -0.010592
0.465339 0.054165 0.058869
0.465339 0.070836 -0.029647
0.465339 -0.064807 -0.020775
0.465339 0.003843 0.015217
0.465339 0.070793 0.049514
0.465339 -0.005387 0.015273
0.465339 0.048027 0.084996
0.465339 0.070034 -0.026964
0.465339 0.070096 0.037083
0.465339 0.036071 -0.055377
0.465339 0.078232 0.037001
0.465339 0.099857 -0.003580
0.465339 0.026210 0.081493
0.465339 -0.023209 0.046524
0.465339 -0.049076 0.024941
0.465339 0.077661 0.049477
0.465339 -0.092667 -0.003340
0.465339 -0.071635 -0.008414
0.465339 -0.078727 -0.040485
0.465339 0.085908 -0.040748
0.465339 -0.073053 -0.035533
0.465339 -0.025054 -0.058957
0.465339 -0.004611 0.027570
0.465339 -0.084619 -0.028756
0.465339 -0.011717 0.057265
0.465339 -0.029573 -0.072120
0.465339 0.033232 0.024404
0.465339 -0.011188 0.082135
0.465339 -0.042172 -0.077617
0.465339 0.002762 0.085441
0.465339 -0.050023 -0.015119
0.465339 0.034736 0.056614
0.465339 -0.036450 -0.069368
0.465339 0.013145 -0.011914
0.465339 0.012566 0.099277
0.465339 -0.069958 -0.026188
0.465339 -0.070192 0.043782
0.465339 -0.036271 -0.023538
0.465339 0.083892 -0.022523
0.465339 0.023109 -0.028085
0.465339 -0.062333 0.048168
0.465339 -0.014037 0.009509
0.465339 0.024279 0.081180
0.465339 -0.013000 -0.084531
0.465339 -0.015583 0.090438
0.465339 0.041864 -0.022892
0.465339 0.067824 -0.020269
0.465339 -0.002323 0.055063
0.465339 0.089577 -0.027782
0.465339 0.010888 -0.024803
0.465339 -0.034714 0.006264
0.465339 -0.045866 -0.050938
0.465339 0.012522 -0.076675
0.465339 -0.065407 -0.074986
0.465339 -0.054380 0.060332
0.465339 -0.007839 -0.088398
0.465339 -0.034120 0.020806
0.465339 -0.035965 -0.027191
0.465339 0.015538 -0.090979
0.465339 -0.079026 0.018250
0.465339 0.003522 0.078757
0.465339 0.000787 -0.045178
0.465339 -0.016911 -0.060671
0.465339 0.081700 -0.044815
0.465339 -0.038211 0.081622
0.465339 -0.086465 0.048009
0.465339 -0.079435 -0.030324
0.465339 0.063115 0.009075
0.465339 -0.010318 -0.020286
0.465339 -0.053029 -0.063674
0.465339 -0.061270 -0.016912
0.465339 -0.053490 0.070993
0.465339 0.088499 0.041767
0.465339 0.039958 -0.027921
0.465339 -0.043319 -0.045292
0.465339 0.062440 -0.017977
0.465339 -0.077768 -0.028102
0.465339 0.099446 -0.006401
0.465339 -0.033800 0.065186
0.465339 -0.030542 -0.044673
0.465339 -0.055116 -0.013507
0.465339 -0.032549 0.046026
0.465339 0.021091 0.026932
0.465339 0.011359 0.029655
0.465339 0.032068 0.044777
0.465339 -0.054978 0.067551
0.465339 -0.029591 -0.016516
0.465339 0.022561 0.030177
0.465339 0.093947 0.026161
0.465339 -0.006062 -0.026326
0.465339 0.055588 0.013298
0.465339 0.046332 0.067711
0.465339 -0.019891 0.016500
0.465339 0.066493 0.071972
0.465339 0.039059 -0.042509
0.465339 -0.007498 0.079796
0.465339 -0.004317 0.014210
0.465339 -0.016136 -0.021242
0.465339 0.093743 -0.024055
0.465339 0.044316 -0.089040
0.465339 0.027281 -0.077967
0.465339 0.057592 -0.023968
0.465339 0.063710 -0.018808
0.465339 0.084582 -0.010973
0.465339 0.032595 -0.032952
0.465339 -0.003241 0.070011
0.465339 0.065219 -0.032337
0.465339 0.028816 -0.034972
0.465339 0.029042 0.077629
0.465339 0.074646 -0.031155
0.465339 -0.001402 0.024806
0.465339 0.058431 0.041839
0.465339 0.076580 0.046393
0.465339 0.066165 -0.020874
0.465339 0.026171 -0.037988
0.465339 0.013904 0.062359
0.465339 -0.060946 -0.027442
0.465339 0.001674 0.091795
0.465339 -0.007966 -0.051789
0.465339 0.070235 0.007082
0.465339 -0.010240 -0.009246
0.465339 -0.078362 -0.012670
0.465339 -0.039758 0.042273
0.465339 0.035478 -0.091507
0.465339 0.022909 -0.014475
0.465339 0.060030 -0.057023
0.465339 0.077478 0.047847
0.465339 0.052783 -0.065217
0.465339 -0.031599 0.060690
0.465339 0.028170 0.026588
0.465339 -0.079847 -0.032228
0.465339 0.072591 0.005942
0.465339 -0.052694 0.066093
0.465339 -0.014993 -0.021953
0.465339 0.021570 -0.088023
0.465339 0.028734 0.051146
0.465339 -0.048916 0.002879
0.465339 -0.039677 -0.016795
0.465339 -0.094139 0.014800
0.465339 -0.031909 -0.070108
0.465339 0.040454 -0.029318
0.465339 -0.042658 -0.031769
0.465339 0.019935 -0.034945
0.465339 0.058107 -0.076110
0.465339 0.045014 -0.052990
0.465339 -0.011501 0.078788
0.465339 -0.060808 -0.004667
0.465339 -0.058193 0.002483
0.465339 0.063202 0.032574
0.465339 -0.077167 0.031139
0.465339 0.032460 0.012155
0.465339 0.006494 0.010829
0.465339 0.023881 -0.095611
0.465339 0.010503 -0.060460
0.465339 -0.005493 -0.001743
0.465339 0.010010 0.022875
0.465339 -0.029214 -0.029886
0.465339 0.015916 0.032032
0.465339 0.042361 -0.064286
0.465339 -0.026984 -0.057238
0.465339 -0.024264 -0.024738
0.465339 -0.031383 -0.023739
0.465339 0.035225 0.060064
0.465339 -0.017826 -0.074940
0.465339 0.037592 -0.037362
0.465339 0.059914 0.052252
0.465339 -0.033655 -0.040997
0.465339 0.017815 -0.081988
0.465339 -0.027171 -0.048961
0.465339 0.032924 0.022977
0.465339 0.002965 -0.090209
0.465339 -0.004852 -0.021954
0.465339 0.074823 -0.000503
0.465339 -0.029580 -0.059485
0.465339 -0.051513 0.009761
0.465339 -0.056186 -0.031357
0.465339 0.072590 -0.057149
0.465339 0.089762 -0.016951
0.465339 0.026471 -0.091152
0.465339 -0.003248 0.025871
0.465339 0.080270 -0.033893
0.465339 0.042234 0.078497
0.465339 -0.046782 -0.073371
0.465339 0.039670 0.090478
0.465339 0.044547 0.011561
0.465339 0.033627 -0.019803
0.465339 0.011417 -0.061643
0.465339 -0.030725 0.017250
0.465339 0.076856 0.020452
0.465339 0.005528 -0.051411
0.465339 -0.043232 0.075047
0.465339 0.068978 0.016630
0.465339 0.041879 0.004793
0.465339 -0.001872 -0.023920
0.465339 -0.020496 0.020539
0.465339 -0.061409 -0.033286
0.465339 0.045841 -0.009515
0.465339 -0.062766 -0.004073
0.465339 0.045567 0.005839
0.465339 -0.057662 -0.050007
0.465339 -0.007982 0.033530
0.465339 0.077037 0.004468
0.465339 -0.038143 -0.031850
0.465339 0.056504 0.012281
0.465339 0.004064 -0.051084
0.465339 0.014780 0.053020
0.465339 -0.023624 0.061277
0.465339 0.058289 -0.030816
0.465339 -0.024295 0.057487
0.465339 0.081593 -0.055943
0.465339 0.040704 0.016779
0.465339 0.047356 -0.064398
0.465339 -0.021559 0.032640
0.465339 -0.062380 -0.043098
0.465339 0.022348 -0.093495
0.465339 -0.034322 0.008963
0.465339 -0.073095 0.039891
0.465339 0.083132 -0.011289
0.465339 -0.054172 -0.028241
0.465339 0.019043 -0.032709
0.465339 -0.000156 -0.048750
0.465339 0.027403 0.038912
0.465339 0.037363 -0.029416
0.465339 0.055601 0.049216
0.465339 0.035115 0.064471
0.465339 -0.030797 -0.061851
0.465339 0.081009 0.028108
0.465339 -0.048313 -0.041620
0.465339 0.001479 0.010658
0.465339 0.015592 -0.008929
0.465339 0.013672 0.084504
0.465339 -0.029788 0.032455
0.465339 0.065970 0.011442
0.465339 -0.019956 0.095448
0.465339 -0.045565 0.069313
0.465339 0.047655 -0.001729
0.465339 -0.045566 -0.067827
0.465339 -0.074190 0.019213
0.465339 0.054063 0.054893
0.465339 -0.054105 0.044902
0.465339 0.056780 0.029508
0.465339 -0.042748 -0.021650
0.465339 0.062321 -0.059561
0.465339 -0.045951 0.070676
0.465339 -0.013097 -0.022043
0.465339 -0.092135 0.008681
0.465339 -0.033971 0.024054
0.465339 -0.086766 0.003515
0.465339 -0.017401 -0.033268
0.465339 0.060624 -0.052342
0.465339 -0.018797 0.035443
0.465339 0.011858 0.031175
0.465339 0.011929 0.052153
0.465339 0.062085 0.015815
0.465339 -0.038435 0.026300
0.465339 -0.017084 -0.058391
0.465339 0.055649 0.070171
0.465339 0.049789 0.025558
0.465339 -0.024748 0.072073
0.465339 -0.060450 -0.058503
0.465339 -0.039264 0.062240
0.465339 -0.030684 0.039411
0.465339 0.062851 0.055532
0.465339 0.077054 0.038092
0.465339 -0.076847 0.004117
0.465339 0.043676 0.074951
0.465339 0.029330 -0.093228
0.465339 0.005829 0.088725
0.465339 0.084668 -0.014367
0.465339 -0.088953 -0.007726
0.465339 0.035420 -0.092941
0.465339 0.011810 0.005714
0.465339 -0.011251 -0.052307
0.465339 -0.066773 -0.009571
0.465339 0.032826 -0.026180
0.465339 0.051106 0.064672
0.465339 -0.035192 0.070178
0.465339 -0.039205 -0.039793
0.465339 -0.065348 -0.063147
0.465339 -0.049754 -0.060867
0.465339 0.043197 0.081223
0.465339 -0.061972 -0.014174
0.465339 -0.080357 -0.058939
0.465339 -0.032797 -0.073608
0.465339 0.019923 0.075791
0.465339 0.038054 0.048734
0.465339 -0.042701 -0.057224
0.465339 0.012689 -0.043632
0.465339 0.018747 -0.040182
0.465339 0.045767 -0.069051
0.465339 0.085181 0.017474
0.465339 -0.078309 0.010502
0.465339 0.081610 0.032787
0.465339 -0.080145 0.050071
0.465339 0.007064 -0.098438
0.465339 0.001055 -0.010791
0.465339 -0.024143 -0.035819
0.465339 0.085021 0.043977
0.465339 -0.031805 -0.091086
0.465339 0.073678 0.027738
0.465339 0.040813 0.041504
0.465339 -0.022914 0.019406
0.465339 0.033764 -0.085151
0.465339 0.051356 -0.017685
0.465339 -0.091937 0.028237
0.465339 0.003574 -0.095141
0.465339 0.090294 -0.033488
0.465339 -0.036063 0.057318
0.465339 0.087286 0.043069
0.465339 0.057221 0.007976
0.465339 0.008899 0.084640
0.465339 0.038314 -0.080502
0.465339 0.090807 -0.008580
0.465339 0.087742 -0.032711
0.465339 -0.000079 0.024019
0.465339 0.058537 0.056390
0.465339 0.016185 -0.019081
0.465339 -0.006455 -0.079887
0.465339 -0.075524 0.025984
0.465339 -0.016331 -0.083298
0.465339 -0.043964 -0.058609
0.465339 -0.009681 -0.022386
0.465339 -0.089260 0.022920
0.465339 -0.078095 0.017218
0.465339 -0.064130 -0.005036
0.465339 -0.024422 0.014404
0.465339 -0.004046 0.077328
0.465339 -0.008284 0.098137
0.465339 0.045532 0.050937
0.465339 -0.086854 -0.000923
0.465339 0.071821 0.022712
0.465339 -0.075274 -0.028429
0.465339 -0.009473 -0.093533
0.465339 0.027670 0.080971
0.465339 0.026365 -0.084108
0.465339 0.073949 -0.049938
0.465339 -0.045342 0.076010
0.465339 -0.011913 -0.020810
0.465339 0.020096 0.019110
0.465339 -0.035113 -0.085641
0.465339 0.004271 -0.011227
0.465339 -0.015476 0.064864
0.465339 0.090618 0.033736
0.465339 0.046451 0.074614
0.465339 0.073740 0.049190
0.465339 -0.089359 -0.038532
0.465339 0.031232 0.013994
0.465339 -0.044089 -0.042789
0.465339 0.025027 0.064741
0.465339 -0.059650 -0.070551
0.465339 -0.017782 0.073200
0.465339 -0.013927 -0.044196
0.465339 0.009962 -0.069340
0.465339 0.046685 -0.078370
0.465339 -0.073306 -0.009603
0.465339 -0.039454 -0.034404
0.465339 0.048836 -0.065719
0.465339 0.067545 0.029913
0.465339 0.004856 -0.006297
0.465339 -0.018581 0.083237
0.465339 0.003908 0.064527
0.465339 -0.008559 0.017775
0.465339 -0.068226 0.038960
0.465339 -0.020308 0.013972
0.465339 0.019026 -0.001405
0.465339 -0.000154 0.095898
0.465339 -0.069909 0.042173
0.465339 -0.035959 -0.056201
0.465339 0.059487 0.031818
0.465339 0.035548 -0.079379
0.465339 -0.033561 -0.009792
0.465339 -0.059620 0.040759
0.465339 0.081681 -0.015634
0.465339 -0.026038 -0.022831
0.465339 0.001096 -0.012204
0.465339 -0.074223 -0.040127
0.465339 0.042488 -0.065880
0.465339 0.065374 0.070379
0.465339 0.004054 0.092600
0.465339 -0.016334 0.019555
0.465339 -0.055947 -0.060897
0.465339 -0.015463 0.009034
0.465339 -0.062776 0.000854
0.465339 0.021093 0.072751
0.465339 0.065981 0.068444
0.465339 -0.038833 0.085989
0.465339 -0.040575 0.065918
0.465339 0.029944 0.018537
0.465339 -0.010258 -0.018643
0.465339 -0.026568 0.036857
0.465339 0.052697 -0.043826
0.465339 -0.041875 0.008968
0.465339 -0.050391 -0.082885
0.465339 0.032741 -0.069231
0.465339 0.015821 0.025768
0.465339 0.025965 -0.053141
0.465339 -0.067594 -0.053794
0.465339 -0.053775 0.056298
0.465339 0.088614 -0.037493
0.465339 -0.040933 0.080688
0.465339 0.029115 0.076265
0.465339 0.052421 0.079835
0.465339 0.014448 0.009203
0.465339 -0.008368 -0.060704
0.465339 0.007849 -0.064357
0.465339 -0.033989 0.062960
0.465339 0.075398 -0.043049
0.465339 0.078257 -0.050066
0.465339 -0.091033 0.006533
0.465339 0.062423 -0.063619
0.465339 -0.038029 -0.060948
0.465339 -0.012841 0.069629
0.465339 0.073896 -0.040023
0.465339 -0.078024 -0.000955
0.465339 -0.018491 0.008872
0.465339 -0.030578 -0.030720
0.465339 -0.037410 0.040753
0.465339 -0.005415 0.011991
0.465339 0.069025 -0.030573
0.465339 0.000617 0.037184
0.465339 -0.034356 -0.072188
0.465339 0.061424 0.017255
0.465339 0.065898 0.030880
0.465339 -0.018749 -0.011102
0.465339 -0.054029 -0.016884
0.465339 -0.083920 -0.053786
0.465339 0.011108 -0.080381
0.465339 -0.003274 0.083404
0.465339 0.058455 0.040399
0.465339 0.062816 0.031068
0.465339 -0.019003 0.043112
0.465339 -0.060316 -0.006158
0.465339 -0.000619 -0.013560
0.465339 0.075719 0.032331
0.465339 -0.090104 0.014467
0.465339 -0.083037 -0.052540
0.465339 0.085591 0.015426
0.465339 -0.071769 0.010521
0.465339 0.013457 -0.034880
0.465339 0.039332 0.074204
0.465339 -0.058286 0.035876
0.465339 0.056828 -0.053511
0.465339 -0.066908 0.044142
0.465339 0.024500 0.085360
0.465339 -0.040914 0.013529
0.465339 -0.030503 0.045941
0.465339 0.011644 0.067547
0.465339 -0.082798 0.055718
0.465339 0.095872 0.008990
0.465339 0.048510 0.061508
0.465339 0.050778 0.000202
0.465339 -0.021532 -0.072652
0.465339 -0.069268 0.024138
0.465339 0.056611 -0.050111
0.465339 0.073468 0.056948
0.465339 -0.037126 0.055366
0.465339 0.046395 0.058116
0.465339 -0.008011 0.081740
0.465339 0.034968 0.046096
0.465339 -0.045410 -0.076676
0.465339 -0.010111 -0.061197
0.465339 0.005098 0.054462
0.465339 -0.061568 -0.030625
0.465339 -0.004626 -0.066195
0.465339 0.022056 -0.033982
0.465339 0.011464 -0.070006
0.465339 -0.061007 -0.024893
0.465339 -0.064191 0.013191
0.465339 0.007815 0.013130
0.465339 0.064146 0.034037
0.465339 -0.047131 -0.066736
0.465339 -0.001768 0.006731
0.465339 -0.031149 -0.064973
0.465339 -0.092555 -0.020302
0.465339 -0.052875 -0.022109
0.465339 0.088066 -0.017185
0.465339 0.058808 -0.011856
0.465339 0.050929 -0.032898
0.465339 -0.046003 0.015816
0.465339 0.088015 0.017218
0.465339 -0.003253 -0.061522
0.465339 0.027364 -0.051774
0.465339 -0.011591 -0.040748
0.465339 -0.068405 0.027074
0.465339 0.036586 -0.056820
0.465339 0.025666 0.049910
0.465339 -0.095256 -0.018598
0.465339 -0.032212 -0.014074
0.465339 0.047817 0.068041
0.465339 0.031684 -0.035262
0.465339 0.063827 0.026142
0.465339 -0.009404 -0.026260
0.465339 0.055450 -0.052917
0.465339 -0.034549 0.066874
0.465339 -0.072036 -0.054353
0.465339 -0.027018 -0.071894
0.465339 0.071081 -0.045087
0.465339 0.055067 0.002224
0.465339 0.097644 0.004623
0.465339 0.021174 0.095924
0.465339 -0.062161 0.072478
0.465339 0.039405 0.012718
0.465339 -0.023462 -0.096822
0.465339 0.015901 0.061408
0.465339 0.043167 0.026640
0.465339 -0.077746 0.025399
0.465339 -0.073399 0.006716
0.465339 0.009707 -0.098785
0.465339 -0.000633 0.051706
0.465339 -0.036561 -0.032389
0.465339 -0.073061 -0.023073
0.465339 0.034268 0.016610
0.465339 0.067265 0.061225
0.465339 -0.017317 -0.052859
0.465339 -0.074777 0.065718
0.465339 -0.042669 -0.063036
0.465339 0.033700 -0.090020
0.465339 -0.065273 -0.024788
0.465339 -0.072713 -0.041050
0.465339 0.012677 0.073097
0.465339 -0.069067 0.000131
0.465339 -0.020832 0.096998
0.465339 -0.000525 0.086298
0.465339 -0.004263 0.004710
0.465339 -0.013985 -0.074489
0.465339 0.062694 -0.053726
0.465339 -0.013373 0.092086
0.465339 -0.022558 0.095260
0.465339 -0.005200 0.006402
0.465339 -0.027610 -0.035684
0.465339 -0.083558 -0.005381
0.465339 -0.085694 -0.036519
0.465339 -0.013947 -0.009230
0.465339 -0.062863 -0.056547
0.465339 0.075859 0.006621
0.465339 0.039769 0.044640
0.465339 -0.009156 -0.015371
0.465339 -0.092762 0.006209
0.465339 0.077810 -0.057346
0.465339 -0.042132 -0.035136
0.465339 0.011379 -0.064128
0.465339 0.041106 0.021837
0.465339 -0.047943 0.087565
0.465339 -0.055621 -0.052447
0.465339 -0.059216 0.045177
0.465339 0.044081 -0.034477
0.465339 0.081377 0.009183
0.465339 -0.041030 -0.060788
0.465339 0.011458 0.002960
0.465339 -0.012826 0.058144
0.465339 -0.086661 0.042486
0.465339 -0.007929 0.053146
0.465339 0.007273 0.048318
0.465339 -0.037434 0.072311
0.465339 0.043322 0.047582
0.465339 0.031621 0.008127
0.465339 -0.068382 0.058509
0.465339 -0.074328 0.034491
0.465339 -0.036086 0.047004
0.465339 -0.041205 0.018781
0.465339 0.041275 0.018883
0.465339 0.004939 0.099864
0.465339 -0.090594 0.030968
0.465339 0.052083 -0.008043
0.465339 -0.034990 -0.082493
0.465339 -0.012674 0.082498
0.465339 -0.062172 -0.011178
0.465339 0.009508 -0.011559
0.465339 0.047612 -0.070371
0.465339 0.037755 -0.085468
0.465339 -0.016124 0.066220
0.465339 -0.050335 0.061468
0.465339 -0.004631 -0.086990
0.465339 -0.020940 0.025308
0.465339 -0.047199 0.058091
0.465339 0.031868 0.003667
0.465339 0.018106 -0.085948
0.465339 0.086380 0.004353
0.465339 -0.077963 0.005159
0.465339 0.049396 0.034715
0.465339 -0.049602 -0.072721
0.465339 -0.029711 -0.070075
0.465339 0.034409 -0.018322
0.465339 0.029350 -0.075465
0.465339 0.073149 0.043702
0.465339 -0.013797 -0.034501
0.465339 -0.012296 -0.051328
0.465339 0.090175 0.036994
0.465339 0.060470 -0.034938
0.465339 -0.049013 -0.048809
0.465339 0.017846 -0.088625
0.465339 0.040222 0.009030
0.465339 -0.018594 0.030915
0.465339 -0.009019 0.063817
0.465339 0.007202 0.066438
0.465339 0.065255 0.018341
0.465339 0.062301 -0.076044
0.465339 -0.012912 -0.075684
0.465339 -0.032796 -0.094046
0.465339 -0.072224 -0.049476
0.465339 0.024744 0.003547
0.465339 -0.070633 0.031251
0.465339 -0.045054 -0.016655
0.465339 -0.049453 -0.035115
0.465339 -0.026497 -0.091699
0.465339 -0.038944 -0.078876
0.465339 0.011064 -0.087019
0.465339 -0.017352 0.022354
0.465339 -0.041634 -0.046000
0.465339 -0.064693 0.008276
0.465339 -0.034430 -0.078714
0.465339 -0.028481 0.066963
0.465339 -0.030979 -0.078328
0.465339 -0.056503 0.002407
0.465339 -0.003649 -0.083838
0.465339 -0.038693 -0.011760
0.465339 -0.069882 -0.053097
0.465339 0.046381 0.055391
0.465339 -0.066139 -0.017057
0.465339 -0.025467 0.009822
0.465339 0.031802 -0.062790
0.465339 0.040839 0.035753
0.465339 0.093891 -0.007214
0.465339 0.028442 0.002668
0.465339 -0.031900 -0.031084
0.465339 0.085684 -0.049192
0.465339 0.049086 -0.042072
0.465339 0.059530 -0.058614
0.465339 -0.081600 -0.048082
0.465339 -0.049180 0.076244
0.465339 0.008994 0.015320
0.465339 0.085182 -0.001548
0.465339 0.031993 -0.023452
0.465339 0.026999 -0.023393
0.465339 -0.030635 -0.046916
0.465339 -0.001126 0.026165
0.465339 -0.024780 -0.076203
0.465339 -0.020610 -0.020907
0.465339 0.022470 -0.089796
0.465339 -0.039687 0.087025
0.465339 -0.088790 -0.014345
0.465339 0.072422 -0.066836
0.465339 0.050189 -0.060273
0.465339 -0.007071 0.055210
0.465339 0.008315 0.099298
0.465339 -0.005439 -0.030374
0.465339 0.045410 -0.026900
0.465339 0.030843 -0.032852
0.465339 -0.004444 0.021898
0.465339 -0.018430 0.053338
0.465339 -0.051353 0.085578
0.465339 -0.035216 -0.083943
0.465339 -0.046661 0.055255
0.465339 -0.044757 -0.053716
0.465339 0.021571 0.081090
0.465339 -0.047640 0.070564
0.465339 -0.085093 0.050086
0.465339 -0.013810 0.052487
0.465339 -0.093008 -0.006392
0.465339 -0.009214 -0.027983
0.465339 0.005070 0.016758
0.465339 0.006836 -0.040961
0.465339 -0.052597 0.044428
0.465339 0.011487 0.057034
0.465339 0.007682 -0.061698
0.465339 0.061986 -0.019459
0.465339 0.002634 0.009704
0.465339 -0.021417 -0.026470
0.465339 0.091041 -0.025351
0.465339 -0.040068 -0.045943
0.465339 0.048281 0.081497
0.465339 -0.037057 0.012513
0.465339 0.064769 -0.071987
0.465339 -0.011550 -0.073078
0.465339 -0.006912 -0.009046
0.465339 0.068902 -0.062560
0.465339 -0.028717 -0.056120
0.465339 0.024151 0.009759
0.465339 0.003045 -0.024636
0.465339 -0.096083 0.022024
0.465339 0.004373 -0.040972
0.465339 -0.087855 0.029807
0.465339 -0.060036 0.049260
0.465339 0.050986 -0.043635
0.465339 0.062347 0.007453
0.465339 -0.058933 -0.068414
0.465339 0.075778 0.025382
0.465339 -0.008330 0.009657
0.465339 0.046341 -0.067099
0.465339 -0.022641 -0.073544
0.465339 -0.055875 0.015295
0.465339 0.066292 0.028604
0.465339 0.047027 0.012327
0.465339 -0.059250 0.073476
0.465339 0.008604 -0.008831
0.465339 0.038238 0.090669
0.465339 0.069782 -0.035750
0.465339 -0.057778 -0.019660
