0.201584 -0.099422 0.008073
0.428580 -0.097365 -0.021388
-0.085687 -0.089840 0.043547
-0.066152 0.075095 0.066107
0.069719 -0.019291 0.098146
-0.143754 -0.031182 -0.094663
0.360692 -0.057620 0.081657
-0.456020 0.043711 0.090021
0.205996 0.057750 -0.081364
0.180079 -0.098340 0.016768
-0.028213 0.062702 0.077989
-0.430682 0.095808 -0.028306
-0.143739 0.002428 0.099997
0.141037 0.073668 -0.067362
-0.106754 -0.075691 0.065166
0.327272 0.032446 0.094655
0.062119 -0.070837 0.070422
-0.142315 0.019763 -0.097730
-0.386254 0.095072 0.031171
0.449947 -0.090190 -0.042496
-0.145265 -0.014389 0.098968
0.215673 0.077143 0.063775
-0.111427 -0.097482 0.021229
-0.173484 0.072900 0.068592
0.398822 -0.068872 0.072387
-0.218183 0.096499 0.026288
-0.345214 -0.025825 -0.096249
0.056239 0.071538 -0.069591
-0.065207 0.089411 0.044847
-0.057752 -0.040749 -0.090921
-0.023741 -0.085069 0.052272
0.334596 -0.095472 -0.028660
-0.355808 0.000741 0.100050
0.331201 -0.061335 -0.078506
0.372007 0.043397 0.090181
0.088612 0.017174 -0.098201
0.147219 -0.026412 0.096442
-0.358919 0.099067 -0.013291
0.235317 0.029998 -0.095105
-0.002084 -0.094814 -0.030878
0.449967 0.008278 -0.099331
-0.010808 -0.070663 -0.070233
0.372087 0.000641 0.100054
-0.129207 0.097122 -0.023520
-0.268990 0.091390 -0.040288
0.078635 0.006915 -0.099460
-0.235326 0.037256 0.092896
0.296919 0.057978 -0.081209
-0.019407 -0.042127 -0.090324
0.192013 -0.099650 0.004056
0.462485 0.099855 0.004954
0.166546 -0.050460 -0.085900
0.437225 0.062465 0.078173
0.087772 0.062875 -0.077492
-0.024769 -0.044532 0.089484
-0.120393 0.042885 -0.090080
0.070089 0.099608 0.008568
-0.000501 0.098973 0.014242
0.031278 0.047633 -0.087660
-0.335846 -0.098024 0.018762
-0.240288 -0.085999 -0.050336
-0.280494 0.097051 -0.023836
-0.200006 -0.000469 -0.099689
-0.372626 -0.079988 0.059806
0.189932 -0.030366 -0.094930
0.339610 -0.099688 0.002851
0.436997 0.083213 0.055533
-0.124648 -0.093690 -0.033998
-0.300467 -0.033422 0.094219
-0.190394 0.098639 0.016357
0.034882 -0.073798 0.067313
-0.183812 0.080704 0.059184
-0.157569 -0.024680 0.096942
-0.410670 0.016882 -0.098247
-0.465394 -0.099598 -0.005357
0.132712 -0.093169 -0.035447
-0.362398 -0.068638 0.072620
-0.161760 0.016918 0.098604
0.039011 -0.089596 -0.043662
-0.238589 0.058235 0.081397
0.010277 0.056852 0.082337
0.417348 -0.093083 -0.035686
0.060845 -0.051160 0.085848
-0.266295 0.097405 -0.022254
-0.244062 0.081029 -0.058384
0.130452 0.053416 0.084653
0.226120 -0.041527 0.090947
-0.379240 -0.051500 -0.085285
0.116812 0.099818 0.006130
-0.214214 -0.096291 -0.025839
-0.227924 0.011100 -0.099065
-0.084679 -0.036945 -0.092567
-0.084693 0.095344 0.030267
0.454727 -0.098683 0.014603
0.313704 0.099909 -0.002878
-0.079557 0.055691 0.083126
0.373056 0.099699 -0.007240
0.289866 -0.003080 -0.099607
-0.215409 -0.070046 0.071212
-0.333170 -0.089613 0.043991
0.458450 0.033951 -0.093750
-0.371327 -0.090184 0.042871
0.341043 -0.007148 0.099779
-0.466839 0.089263 0.045137
0.065467 0.098891 -0.014402
0.083634 -0.083793 -0.053973
-0.357043 -0.081808 -0.056894
-0.049177 -0.099396 0.008349
-0.247090 -0.074462 0.066560
-0.369569 -0.077520 -0.062625
-0.280902 0.088985 0.045682
0.459164 0.010944 -0.099079
0.370202 0.036747 -0.092743
0.379800 0.048341 -0.087291
0.441530 -0.099296 0.009408
-0.215434 -0.017566 0.098465
-0.015654 -0.060844 -0.078887
-0.046242 0.079019 0.061355
0.359833 -0.017278 0.098510
-0.082319 -0.091239 -0.040098
0.314041 -0.035283 -0.093186
-0.231903 -0.017285 0.098509
0.397557 0.082793 -0.055788
-0.439979 0.090853 -0.041530
0.275008 0.093810 0.034678
0.319633 -0.097530 0.021012
0.178383 0.097836 0.020689
-0.083503 -0.025225 0.096787
-0.073956 -0.046131 0.088669
-0.237810 0.099976 -0.000757
0.128182 -0.023167 -0.096917
0.067139 -0.098238 0.017410
0.193472 0.028013 -0.095681
0.278367 -0.099701 0.002430
0.272050 0.029004 0.095756
-0.180744 0.081124 -0.058244
-0.287657 -0.054398 -0.083484
0.285417 -0.080672 -0.058561
0.244436 0.057777 0.081709
-0.207058 -0.093834 -0.033599
-0.286848 -0.021763 -0.097231
0.422808 -0.088333 0.046503
0.210939 -0.011504 -0.099004
-0.362039 0.053705 0.084476
0.247947 0.062694 0.077995
0.256483 0.081031 -0.058380
-0.241162 0.047234 0.088226
-0.177115 -0.026152 -0.096154
-0.425694 -0.096834 0.024127
0.229417 -0.098543 -0.015124
0.284934 0.074923 0.066302
0.136225 0.015913 0.098763
-0.170101 0.093125 0.036579
-0.269771 0.003296 0.099970
-0.156263 0.018513 -0.097989
-0.309775 -0.099674 0.003307
-0.018121 0.054548 0.083903
0.279932 0.049981 -0.086321
-0.334322 0.006704 -0.099480
-0.406702 -0.028686 0.095781
0.388955 -0.094811 0.031250
-0.420100 -0.098236 0.017426
0.025057 0.057739 -0.081371
0.349237 -0.033038 0.094358
-0.129611 -0.036924 0.092939
-0.158210 0.095546 -0.029206
0.299652 -0.094102 -0.032856
0.382706 -0.085450 0.051629
-0.087788 0.001010 -0.099679
-0.176979 0.099128 0.013267
-0.302228 0.026159 0.096583
-0.150481 0.098192 -0.018734
-0.094797 0.087106 0.049222
0.303194 0.065378 0.075745
0.449242 0.095945 0.028196
0.197149 -0.081815 -0.056883
0.375846 0.094742 -0.031726
0.278419 0.018019 0.098430
0.295991 -0.048219 0.087588
-0.230777 0.094056 -0.033630
0.043001 0.071744 -0.069386
0.118050 0.030093 -0.095077
0.136569 0.005154 0.099912
-0.262453 -0.088087 0.046988
-0.328317 -0.092694 0.037098
-0.225364 0.067050 0.074271
0.456363 0.086076 -0.050601
-0.102129 -0.099753 -0.000431
-0.034470 0.056013 0.082907
-0.435069 -0.079467 0.060477
-0.308624 0.077800 0.062928
-0.294046 -0.092880 0.036611
-0.433646 -0.042341 0.090595
0.014726 -0.055490 -0.082741
-0.445403 -0.054882 0.083517
0.342358 0.099809 -0.006071
0.374631 -0.080084 0.059681
-0.028261 -0.094974 -0.030374
0.029455 -0.099129 0.011168
-0.166026 -0.025886 -0.096232
0.451979 0.024140 -0.096752
-0.264950 -0.044055 -0.089364
-0.032808 0.095694 0.029059
0.349999 0.099380 -0.010618
-0.070635 -0.070306 0.070953
-0.466081 0.083541 -0.054687
-0.379944 0.085496 0.051945
-0.334344 0.044818 0.089457
0.308544 0.003460 -0.099602
0.239511 0.044721 0.089507
-0.070826 -0.008771 0.099626
-0.160865 0.067915 0.073509
0.253963 -0.020522 -0.097508
-0.352910 -0.020926 -0.097418
-0.392740 0.097764 -0.020646
-0.397542 0.028061 -0.095667
0.152265 0.019704 0.098106
0.249143 0.089262 0.045139
-0.373487 -0.086775 0.049387
0.252796 0.094907 0.031631
0.223625 -0.099580 -0.005921
-0.211789 0.064146 -0.076468
-0.289254 0.099935 -0.002050
0.389018 -0.060891 0.079213
-0.254862 0.080393 0.059585
-0.266482 0.087034 -0.048981
0.073626 0.099913 0.003105
0.083194 -0.023474 0.097211
0.395166 -0.084770 -0.052415
-0.039515 0.017344 -0.098174
-0.273332 0.033110 0.094415
0.353183 -0.099114 -0.010971
0.210685 0.087664 0.048275
0.365920 -0.049114 -0.086696
0.371041 0.084625 0.053417
0.214833 -0.075151 -0.065415
0.264182 -0.021493 0.097654
-0.112881 0.075946 0.065142
-0.330689 -0.014136 0.099008
0.405259 0.074406 0.066888
0.080608 -0.069619 -0.071277
0.394625 0.048763 0.087404
-0.411567 0.079049 -0.060955
0.190319 -0.064479 -0.075969
-0.300707 -0.065783 0.075182
-0.203371 -0.087070 -0.048526
0.166325 -0.017671 0.098448
0.429150 -0.056509 -0.082049
-0.141717 0.077170 0.063739
-0.148673 -0.092644 0.037214
0.129405 -0.068229 -0.072663
-0.397193 0.003413 0.099966
-0.192326 0.041587 -0.090659
0.455409 0.054706 -0.083432
-0.203377 0.068468 0.073021
-0.261614 -0.050067 0.086495
-0.372791 0.093272 0.036170
0.121169 0.090453 -0.042439
-0.413356 0.097245 -0.022968
-0.283033 0.011226 -0.099053
-0.300287 -0.049091 -0.086709
-0.381579 0.100001 0.000327
0.013565 0.099238 -0.012127
0.285964 -0.056383 -0.082135
-0.107745 0.031172 -0.094751
-0.310813 0.019474 0.098157
-0.092812 -0.088294 0.046581
-0.144047 -0.090964 -0.040734
-0.285289 -0.034331 -0.093529
-0.068909 -0.031046 -0.094712
-0.008805 -0.095426 0.029180
0.068196 0.065199 0.075903
-0.114595 0.085201 -0.052081
-0.027922 0.099977 -0.000708
0.053292 0.032458 0.094650
0.270057 0.022197 0.097549
0.188724 -0.091098 0.040786
-0.154492 0.013249 0.099185
-0.150352 0.057012 -0.081866
-0.042552 0.084071 -0.053907
-0.263672 -0.070965 -0.069931
0.303914 0.029057 -0.095378
-0.256953 -0.030614 0.095221
-0.294641 -0.009145 0.099590
0.381439 0.082398 0.056731
0.066191 -0.076216 0.064571
-0.298119 0.077474 0.063348
-0.436447 0.095614 -0.028974
-0.126205 0.023354 0.097290
0.438100 -0.096423 -0.025384
0.351891 0.000440 0.100060
0.269831 -0.030724 -0.094826
0.083947 -0.098996 -0.012212
-0.172106 -0.076043 -0.064404
-0.034223 0.099864 -0.004302
-0.446483 -0.026100 -0.096169
-0.089068 -0.039979 0.091617
-0.224536 0.017376 -0.098169
-0.307103 -0.032695 0.094481
0.038089 0.069583 0.071909
0.032587 -0.097475 -0.020895
0.101527 0.099993 -0.000196
0.429937 -0.087848 -0.047093
-0.040849 -0.085241 -0.051619
0.137845 0.031484 -0.094638
-0.350243 -0.092476 0.037602
0.459694 -0.074515 -0.066137
-0.408232 -0.064745 -0.075735
0.336019 -0.087654 0.047837
0.080001 0.042509 -0.090260
-0.373694 0.058430 -0.080902
-0.159699 -0.096031 -0.026734
0.076484 0.051949 -0.085157
0.217749 0.017742 -0.098111
0.360385 0.093473 -0.035250
-0.366814 0.087770 -0.047705
0.179012 0.099855 -0.004590
0.152785 -0.077303 0.063267
0.105794 0.089433 -0.044440
-0.409831 -0.052155 0.085260
0.242567 0.009323 -0.099233
0.280177 -0.044707 0.089395
-0.226713 -0.050490 -0.085882
0.171666 0.089470 0.044732
-0.447740 -0.001157 -0.099667
-0.191830 0.020213 0.097992
-0.198287 -0.037433 -0.092356
-0.186884 0.044335 -0.089341
0.142850 -0.092244 0.038138
-0.118408 0.098052 0.019722
-0.113977 0.098747 0.015675
-0.314388 0.023911 -0.096803
-0.264691 -0.029611 0.095512
0.263133 0.099023 0.013930
-0.368444 0.079789 0.060363
-0.466008 -0.045449 0.089017
0.174336 0.099749 0.007084
0.027019 0.065451 0.075681
0.183191 -0.065944 -0.074678
-0.196650 0.099366 0.011136
-0.123995 0.095959 -0.027786
0.208768 -0.081661 0.057473
0.433436 0.091171 -0.040795
-0.143950 0.055190 -0.083104
0.455519 -0.000793 0.100041
-0.110176 0.066596 0.074671
0.200999 -0.066074 -0.074563
-0.352898 0.068803 -0.072327
-0.050274 0.012350 -0.098947
0.126377 0.076432 -0.064228
-0.339060 0.084607 0.053448
0.278234 0.007212 -0.099432
-0.194450 0.075114 0.066085
0.367717 -0.010625 -0.099088
-0.225774 0.052311 0.085306
0.293721 0.092643 0.037755
-0.190283 -0.091533 -0.039418
-0.053217 0.006574 -0.099493
0.308313 -0.078991 -0.060728
0.154497 0.074551 -0.066361
-0.354054 0.062177 0.078396
0.161894 -0.088388 0.046396
0.238192 -0.030472 0.095262
0.354485 -0.097928 0.019234
0.261477 -0.005286 0.099900
0.356979 -0.017138 -0.098170
0.183484 0.077674 0.063090
0.108794 -0.094929 0.030890
-0.258000 -0.042738 0.090398
0.315918 -0.096764 -0.024075
-0.402146 0.022106 0.097569
-0.122276 0.008750 -0.099287
0.221281 0.012206 -0.098960
0.090392 -0.039524 -0.091451
-0.073951 -0.055893 0.082830
0.329202 0.092365 -0.038037
-0.460423 -0.096804 0.024260
0.185763 -0.051020 -0.085569
-0.415986 -0.067207 -0.073565
-0.364046 -0.006132 -0.099511
0.324215 0.031504 -0.094631
-0.249208 -0.047406 -0.087657
-0.405103 -0.059844 -0.079662
-0.263007 0.026278 -0.096186
-0.013312 -0.098919 -0.012752
-0.230266 0.093718 0.034932
0.076093 -0.066365 0.074670
0.407002 0.038814 -0.091859
0.004610 -0.063446 -0.076868
-0.361942 0.096384 0.026685
-0.455114 0.099477 -0.009596
0.384643 0.041278 -0.090793
0.387568 0.093075 -0.036355
0.405325 0.050623 -0.085941
0.063193 -0.003234 -0.099602
-0.208572 0.077295 0.063578
-0.156758 0.007207 0.099796
0.429384 -0.088033 0.047092
0.094073 0.084279 -0.053601
-0.457411 0.054473 0.083954
0.332383 0.053905 -0.083977
-0.331140 0.014186 -0.098674
0.130858 0.065279 0.075833
0.104061 0.081918 -0.057076
-0.136112 0.097027 0.024308
-0.251901 0.045271 -0.088864
0.039353 -0.071486 -0.069410
0.400480 -0.023216 0.097269
0.089925 -0.048293 0.087544
0.408901 0.082915 0.055972
0.248939 -0.093565 0.034708
0.128377 -0.075444 0.065446
0.089574 0.093922 -0.034004
-0.384284 -0.006350 0.099854
0.249402 0.099553 0.009156
0.160948 0.018336 0.098380
-0.283825 -0.050235 -0.086033
0.445099 -0.063684 0.077033
-0.106865 0.055427 0.083305
0.094800 0.025997 -0.096267
-0.191512 -0.038554 -0.091871
-0.088246 0.018153 0.098409
-0.024784 0.099733 0.007244
-0.185063 0.002893 -0.099620
0.310384 -0.074590 -0.066052
0.436942 -0.013826 0.099057
-0.407882 -0.096729 -0.024233
0.426701 0.074720 0.066533
0.115045 0.000745 0.100050
0.338790 0.099930 0.002579
-0.099005 0.057068 0.082190
0.308829 0.044945 0.089392
-0.114589 0.094391 0.033063
0.405078 0.060749 0.079504
-0.202341 0.054503 -0.083570
0.465115 -0.099638 -0.004070
-0.370813 -0.027736 0.096057
0.076751 0.057656 -0.081428
-0.139367 -0.027125 -0.095872
-0.115622 -0.096478 0.025559
0.347348 0.091705 0.039923
0.263275 0.023813 0.097188
-0.464934 0.061539 0.078892
-0.316820 -0.034371 0.093878
0.380045 -0.018090 -0.098019
-0.135756 -0.063495 0.077193
-0.242474 0.002677 -0.099627
-0.436119 -0.006766 -0.099452
-0.320243 -0.097998 -0.018554
-0.302324 0.091675 -0.039631
-0.038958 0.067563 0.073819
0.457804 0.077170 -0.063377
0.456306 -0.017261 -0.098150
0.335575 0.003070 -0.099614
-0.466078 0.044966 0.089382
0.149268 -0.083950 -0.053742
0.320650 -0.034044 0.093995
-0.295770 -0.060302 -0.079307
0.268924 -0.076251 -0.064168
0.331803 -0.072148 0.069111
-0.262328 0.058640 0.081122
-0.179617 -0.097408 -0.021194
-0.356334 -0.034453 -0.093485
0.323732 0.097816 -0.020415
0.161256 0.097580 0.021835
-0.295723 0.096983 0.024502
-0.358218 0.082850 0.056067
-0.283531 0.099816 -0.005828
-0.359915 0.099806 -0.006109
0.433668 -0.048492 -0.087063
-0.351751 0.099919 0.002937
0.003421 0.005901 0.099888
-0.335566 -0.098073 -0.018094
0.321707 -0.041312 0.091040
-0.296057 -0.007353 -0.099397
0.272500 -0.068212 -0.072678
0.150845 -0.072381 0.068878
-0.233299 -0.085000 -0.052027
0.424045 -0.009057 -0.099236
0.208579 -0.061797 0.078511
-0.161843 -0.069899 -0.070997
0.201475 0.039103 0.092097
0.240153 0.099989 0.000690
-0.294912 0.099878 0.004221
-0.050460 -0.011730 -0.098983
-0.435892 0.079958 -0.059783
-0.360190 -0.096819 0.024192
0.002779 0.090325 0.043052
-0.085614 0.053282 0.084732
-0.053347 0.068537 -0.072593
0.324105 -0.003786 0.099947
-0.135197 0.099918 0.002950
0.018880 0.082372 -0.056407
-0.226077 -0.023693 0.097162
-0.431941 -0.062927 -0.077271
-0.290507 -0.032701 0.094479
-0.049315 -0.097846 -0.019236
-0.094342 -0.098778 0.014004
-0.375611 0.098285 -0.018225
-0.445295 -0.073351 0.067820
0.162152 -0.049229 0.086990
0.046864 0.084125 0.054191
-0.464023 0.020092 -0.097657
-0.138049 0.093211 -0.035978
-0.107256 -0.095485 -0.028614
-0.025776 0.031412 -0.094664
0.162240 -0.079443 -0.060145
0.158990 0.099964 0.001492
-0.373285 -0.003076 -0.099607
0.337959 0.098466 0.017445
-0.371170 0.099629 -0.007982
0.021403 -0.094682 0.031607
-0.415983 -0.077482 -0.062674
-0.286045 0.026928 0.096360
-0.457682 -0.018716 -0.097912
-0.173752 -0.068391 0.072868
0.405749 0.099320 0.011613
-0.416574 0.008297 0.099692
-0.315618 -0.087510 -0.047756
0.296652 0.011881 -0.098991
0.093094 0.087225 0.049022
0.312591 0.095581 0.029450
-0.058242 -0.087540 -0.047698
0.417464 0.012666 -0.098915
0.406973 0.068686 0.072806
0.295371 -0.057342 0.081845
0.183489 0.014644 0.098964
0.056976 0.017646 0.098489
0.067954 -0.013227 -0.098789
-0.448669 0.067047 -0.073911
-0.100311 0.026269 -0.096188
-0.116065 -0.099595 0.005799
-0.179705 -0.044481 -0.089147
-0.372675 0.089131 -0.045032
0.149123 -0.099058 -0.011553
-0.441988 0.042276 -0.090361
0.160017 0.002207 0.100004
0.163034 -0.073866 -0.066873
0.354331 -0.036493 -0.092751
-0.397020 0.083098 -0.055338
-0.013786 -0.093962 -0.033244
-0.191961 0.063596 -0.076933
0.256985 -0.026362 -0.096093
0.374216 -0.031915 -0.094399
0.293860 -0.097315 0.021973
0.378085 0.091004 0.041543
0.112009 0.034168 0.094035
-0.443420 0.051324 0.085890
0.315409 0.052587 0.085143
-0.275644 -0.070987 0.070272
0.252792 -0.065514 0.075420
-0.153841 0.092110 0.038988
-0.443136 0.097816 -0.020414
-0.197370 0.065535 0.075606
-0.161624 0.022008 -0.097228
0.039489 0.047419 0.088132
0.331419 0.031717 -0.094554
0.379758 0.099959 0.001663
0.456740 0.043230 -0.089904
-0.368117 -0.057346 0.081843
0.212737 0.057524 -0.081518
-0.353386 0.050479 -0.086027
0.437679 0.001422 -0.099666
-0.234336 -0.047510 -0.087604
0.185779 0.098186 -0.018759
-0.007256 -0.098606 -0.014723
0.180323 0.007587 0.099760
-0.283702 -0.092470 -0.037255
0.334250 0.076104 0.064962
0.025770 -0.088200 0.046764
-0.252520 0.085489 -0.051593
0.112001 -0.068979 -0.071917
-0.120431 -0.025178 -0.096437
-0.092176 0.099299 0.011844
0.083524 0.072335 0.069158
-0.169494 0.005175 0.099911
0.179675 0.074708 -0.066183
0.236147 -0.096416 0.025773
-0.149194 0.050454 0.086404
0.430717 -0.038050 0.092452
0.448733 -0.023982 -0.096735
-0.096689 0.083225 0.055515
-0.354536 0.024815 0.096964
0.275780 -0.098893 0.013276
0.451662 -0.099616 0.005144
-0.363357 -0.007953 0.099703
0.044613 0.047058 -0.087953
-0.350555 -0.099187 -0.010188
0.214844 -0.034982 -0.093295
-0.436085 -0.043555 -0.089619
-0.306341 0.082030 0.057273
-0.295349 -0.099667 0.003508
-0.203823 -0.091741 -0.038938
0.289034 -0.086810 -0.048965
0.163031 -0.043379 -0.089708
-0.460049 -0.057094 0.082014
-0.189476 -0.098553 -0.015059
-0.346299 0.088360 -0.046547
-0.412820 -0.083148 0.055285
-0.263062 0.091047 0.041444
0.007253 -0.052119 -0.084919
-0.046325 0.053919 -0.083968
0.033943 -0.068188 -0.072700
-0.384950 0.096861 0.025044
0.265683 0.068203 -0.072892
0.191364 -0.074238 -0.066452
0.437509 0.023706 -0.096849
-0.360034 0.020148 0.098007
0.036063 0.016601 -0.098292
-0.279801 0.046338 0.088683
-0.376245 -0.083713 0.054453
0.350774 0.060575 0.079639
-0.379050 -0.092471 -0.037252
-0.213465 -0.085378 -0.051388
0.043877 0.094554 -0.032247
0.397583 -0.053893 -0.083827
-0.454073 0.018641 -0.097969
-0.260938 -0.098813 0.013784
-0.391494 -0.095076 0.030383
0.362134 -0.040075 0.091575
0.227902 -0.084729 0.052847
-0.167316 -0.067620 0.073563
0.443692 -0.085016 -0.051999
-0.097992 -0.096847 0.024070
-0.062199 -0.023145 0.097285
-0.078218 0.078675 0.061799
-0.243991 0.093909 -0.034040
0.051614 0.093752 0.034840
-0.419763 0.051584 -0.085373
-0.202907 -0.097079 0.023031
-0.220473 -0.077203 -0.063034
0.033903 -0.084378 -0.053079
0.098685 -0.060539 -0.079123
-0.115347 0.029650 -0.095206
-0.117119 0.098784 -0.015077
0.149623 -0.093099 0.036004
0.046287 -0.072415 0.068844
0.246674 -0.096906 -0.023443
-0.052178 -0.013838 0.099055
0.408662 -0.074131 -0.066573
0.148329 0.063239 0.077572
-0.251395 -0.095875 -0.027272
0.107897 -0.033681 -0.093763
-0.287947 0.096166 -0.027073
0.137833 0.088873 0.045902
0.036359 0.098605 -0.016207
0.056447 0.001872 0.100015
0.366921 -0.097385 0.021663
0.116718 -0.087450 0.048236
0.207948 -0.099743 -0.000727
0.309440 -0.077908 0.062488
0.356436 0.022360 0.097512
0.240872 -0.017635 0.098454
-0.127132 0.054428 0.083984
0.221465 -0.061636 -0.078272
0.192322 0.087667 0.048269
0.339587 -0.072056 0.069203
0.145840 0.098981 -0.013831
-0.353984 -0.064194 0.076583
-0.218105 0.078879 -0.061174
0.236054 -0.098834 -0.013285
0.256673 -0.098878 0.013375
0.198659 -0.095979 -0.026913
0.342994 0.026421 -0.096144
-0.111751 0.017733 0.098475
0.288611 0.036480 0.093203
0.316924 -0.023045 0.097307
0.068953 -0.046624 0.088418
-0.278349 0.029488 0.095616
0.432194 -0.010380 0.099474
0.206058 -0.077983 0.062390
0.284772 -0.099736 -0.000953
-0.423899 -0.009004 -0.099241
0.443380 0.072465 -0.068664
0.374363 -0.092327 -0.037585
-0.275504 -0.082271 -0.056212
0.056999 -0.093033 0.036187
0.142135 -0.096928 -0.023345
0.144534 0.086216 -0.050365
0.019813 -0.040667 -0.090956
-0.376255 -0.031712 0.094835
0.101171 0.068326 -0.072784
0.160473 0.092908 -0.036781
0.042590 0.027685 0.096139
-0.274374 0.013068 0.099214
0.302690 0.023379 -0.096922
-0.449765 -0.012220 -0.098937
0.177183 -0.097046 0.023176
0.108691 0.067048 -0.073910
0.461182 -0.069265 -0.071631
-0.298363 0.070756 0.070736
0.173865 -0.095165 -0.029716
0.139060 -0.039519 0.091816
-0.451792 -0.095707 0.028211
0.300453 0.003787 0.099955
-0.235557 -0.047766 0.087836
0.028282 -0.019540 -0.097728
-0.344377 -0.096783 0.024353
0.326699 -0.099591 -0.005563
0.354968 -0.009292 -0.099214
0.171245 0.042901 -0.090071
0.417490 -0.090585 0.041972
-0.274647 -0.084131 0.053839
-0.051685 0.071969 0.069523
-0.341072 0.031323 -0.094696
-0.231654 0.078955 0.061438
0.291430 -0.090901 -0.040879
-0.045222 -0.017713 0.098441
-0.278318 0.026541 -0.096109
0.171294 0.098530 0.017040
0.059609 -0.070970 -0.069926
-0.407112 0.059902 0.080161
0.060787 0.026213 0.096567
0.016967 0.005645 -0.099533
0.097343 -0.083121 0.055324
-0.328886 -0.082576 0.056126
-0.114633 -0.089540 0.044134
-0.079170 -0.001949 -0.099642
-0.402126 0.079069 0.061291
-0.114997 0.066033 -0.074805
-0.409437 0.031940 0.094837
0.317682 0.078529 0.061988
-0.166084 0.000093 0.100069
-0.436117 -0.058403 -0.080762
0.337168 -0.027025 0.096264
0.218322 -0.099681 0.003073
0.226683 0.089047 -0.045199
0.093810 -0.031304 0.094982
-0.418434 -0.054074 -0.083704
0.107304 -0.024767 -0.096557
0.264355 -0.062602 0.077886
-0.430197 0.030705 0.095262
-0.066391 0.038411 0.092396
-0.094890 0.046530 -0.088222
-0.310120 -0.062910 -0.077284
-0.250114 -0.053743 -0.083929
0.038383 -0.099193 -0.010135
-0.409908 0.042954 0.090407
0.255720 0.009485 -0.099217
-0.395834 0.066449 -0.074438
0.046136 0.046558 0.088570
-0.186873 -0.044098 -0.089342
0.153501 -0.093601 -0.034246
0.175498 -0.042841 -0.089983
0.101738 -0.084606 -0.052692
-0.314487 -0.066947 -0.073793
-0.329281 -0.097407 0.021561
0.067098 -0.032732 0.094468
-0.384911 -0.096126 0.026770
-0.406816 -0.099754 -0.000405
0.243768 -0.023282 -0.096891
0.135162 -0.060457 0.079550
-0.060622 0.098734 0.015757
-0.437586 -0.099655 0.003907
-0.169211 0.095417 -0.029651
-0.176549 -0.090297 -0.042276
0.134848 0.015778 -0.098422
-0.431881 -0.018361 0.098339
-0.289401 0.099321 -0.011244
-0.336104 0.094638 -0.032015
0.185113 0.069109 0.072383
0.173657 0.071693 0.069799
-0.178079 0.065274 -0.075474
-0.272334 0.099928 0.002634
-0.015990 -0.020233 -0.097573
0.317866 0.046816 -0.088076
-0.264082 -0.020713 -0.097466
0.214136 0.082161 -0.056717
0.323181 -0.085030 -0.051975
0.401624 -0.009127 -0.099229
0.303738 -0.062643 -0.077491
0.021371 -0.005786 -0.099522
0.093427 -0.076040 0.064770
0.362083 0.023943 0.097159
-0.404800 0.050908 -0.085773
0.372700 -0.045819 -0.088466
0.271697 0.079544 0.060679
0.430814 0.002059 0.100009
-0.460983 0.003598 0.099961
0.209041 -0.056543 -0.082026
-0.081567 -0.099455 -0.007363
-0.357251 0.092192 -0.038437
-0.199646 -0.084375 0.053446
-0.158707 -0.006570 0.099834
-0.297163 0.051814 0.085600
0.164627 -0.085826 0.050991
0.409907 0.097487 -0.021885
0.148402 0.056993 -0.081879
-0.416472 0.099752 -0.006683
-0.306197 0.088618 -0.046039
-0.156968 0.054363 -0.083666
0.003623 -0.012261 -0.098933
-0.263083 -0.079214 -0.060441
-0.027648 0.099087 0.013523
-0.224660 -0.066818 -0.073907
0.284907 -0.092482 -0.037227
-0.349168 0.073423 0.068003
-0.157625 -0.073604 0.067533
0.053538 -0.021364 -0.097320
-0.284741 -0.095723 -0.027795
-0.317265 -0.008029 0.099696
0.195618 -0.048007 0.087713
-0.066427 0.023258 0.097312
-0.466518 -0.031725 0.094830
0.209720 0.099825 -0.005552
-0.020394 -0.021843 0.097576
0.443491 0.097769 0.020988
-0.144177 -0.016039 -0.098344
-0.325261 0.061598 0.078846
0.033528 -0.049948 0.086565
-0.097349 0.050760 0.086223
-0.370596 0.049739 0.086827
-0.169046 0.018885 0.098289
0.220640 -0.069777 -0.071119
0.347319 -0.039029 -0.091665
-0.050937 -0.064346 0.076449
0.213090 0.004058 -0.099583
0.350601 0.052391 0.085258
-0.051197 0.092446 0.038213
-0.071896 -0.048379 -0.087131
0.403379 -0.034386 0.093872
0.392170 -0.080219 -0.059145
0.335685 -0.092332 -0.037573
-0.246375 -0.097630 0.020564
-0.019701 -0.055690 -0.082605
-0.043436 0.087299 -0.048533
0.459032 0.078204 0.062407
-0.303155 0.099836 -0.005203
0.006035 0.023707 -0.096849
-0.101553 0.080116 -0.059579
-0.291137 0.097671 -0.021063
-0.241855 0.051936 -0.085165
0.298938 0.065670 -0.075125
-0.196753 -0.063002 -0.077213
-0.234882 0.011849 -0.098994
-0.037098 -0.030941 0.095113
0.230740 0.099358 0.011220
-0.019107 -0.085537 -0.051117
0.458779 0.039129 0.092086
-0.369683 0.015713 0.098795
0.405527 0.098491 -0.016927
0.345816 0.024414 0.097053
0.247177 0.080442 -0.059159
-0.076926 -0.072437 0.068822
0.270259 0.047472 -0.087742
-0.049129 -0.082716 0.055921
0.212211 -0.020496 0.097877
0.173998 -0.064412 0.076391
-0.363380 -0.071255 -0.069641
-0.448558 0.084610 0.053443
-0.081688 0.092979 -0.036617
-0.197119 0.006011 -0.099522
0.232574 -0.095148 -0.029772
0.234205 -0.092823 -0.036409
0.290855 0.026710 -0.096060
-0.458880 0.085932 -0.050845
-0.144133 0.080866 0.058975
-0.278812 0.099251 -0.011979
0.448367 0.000729 0.100051
-0.089991 0.099238 -0.012124
-0.370160 -0.021165 0.097728
0.028608 0.009909 0.099540
-0.308923 -0.091994 0.038716
0.363350 -0.034614 -0.093427
-0.257850 0.064335 -0.076302
-0.335558 -0.099597 -0.005378
0.398697 0.098614 -0.016151
0.382871 0.030702 0.095263
-0.137297 0.005882 -0.099526
0.223820 0.096954 0.024635
-0.043705 0.048213 0.087728
-0.180524 0.048744 -0.087053
0.063481 0.099906 -0.002986
-0.218116 -0.043435 0.090043
0.326893 -0.018774 -0.097899
-0.115569 -0.041355 0.091021
0.162325 0.073577 -0.067466
0.063543 0.031771 0.094898
0.368367 -0.091385 0.040124
-0.195167 -0.058738 0.080883
0.246492 -0.099014 0.012385
-0.265994 -0.099634 -0.004202
0.028800 0.024359 -0.096703
0.126752 0.087300 -0.048532
-0.053593 0.060931 0.079363
-0.435963 0.097607 -0.021351
-0.336368 0.034803 -0.093443
0.318360 -0.006130 0.099874
-0.332916 -0.099752 0.000830
0.231312 -0.081007 0.058435
-0.213802 0.011234 -0.099052
0.056271 0.099873 -0.004019
-0.418961 -0.081795 0.057275
0.463499 -0.030127 -0.094999
-0.234127 0.084197 0.054085
-0.003931 -0.086535 -0.049431
0.159018 0.098494 -0.016908
-0.200691 -0.096925 -0.023357
-0.126279 0.095081 0.031148
0.081993 -0.032920 0.094400
0.065010 -0.031592 -0.094515
-0.347565 -0.000780 -0.099679
0.255219 -0.094975 -0.030370
-0.264462 0.033058 0.094434
0.324507 0.002561 0.099993
-0.001557 -0.088795 0.045597
-0.319999 -0.001081 -0.099670
0.033646 -0.085349 0.051798
-0.291078 -0.073778 0.067336
0.094843 0.093357 0.035936
-0.107611 0.099755 -0.006652
-0.348095 0.098602 -0.016225
-0.445166 0.062853 -0.077509
-0.283555 0.079161 -0.060811
-0.379797 0.090234 -0.042869
0.218920 0.056415 -0.082271
-0.189901 -0.052270 -0.084829
-0.465265 0.083896 0.054527
0.300941 -0.019249 -0.097793
-0.120535 -0.091917 0.038895
-0.202170 0.046865 0.088414
-0.218363 -0.054292 -0.083556
0.322295 -0.030997 -0.094729
0.088734 0.057212 -0.081729
0.186471 -0.002122 -0.099637
-0.434451 -0.027001 0.096270
0.449806 -0.004281 -0.099569
0.011439 0.079027 0.061345
0.191611 -0.072674 0.068585
0.339117 0.079748 0.060416
-0.243555 0.099826 -0.005525
-0.449249 -0.005275 0.099901
0.401798 -0.059499 -0.079930
-0.101700 0.034870 0.093782
-0.013785 -0.092362 0.037867
0.320802 0.016022 -0.098383
0.244724 -0.066694 0.074379
0.179379 0.045443 0.089139
0.332828 0.044839 -0.089084
-0.193314 0.098420 -0.017373
-0.342349 -0.092063 -0.038195
-0.212366 0.035402 -0.093228
-0.136669 0.071033 0.070459
-0.002535 0.021299 -0.097387
0.040107 0.038886 -0.091828
-0.465865 -0.037824 0.092549
0.231246 -0.099745 -0.000687
0.213753 -0.095201 0.029954
0.446724 -0.089287 0.044632
0.317548 0.003645 -0.099596
0.193935 -0.045015 -0.088875
0.066531 0.084341 -0.053510
-0.103129 0.020197 -0.097633
-0.314786 -0.078728 0.061429
0.111194 -0.099416 -0.007770
-0.255164 -0.099206 -0.009992
-0.079416 0.004348 -0.099574
0.203616 -0.002941 -0.099611
-0.348820 0.095091 -0.030755
0.166735 0.038293 -0.092085
-0.171552 -0.004674 -0.099557
-0.190186 -0.031105 0.095053
0.195515 0.038103 0.092530
0.214836 0.044165 -0.089427
0.437452 0.098227 0.018940
-0.220573 -0.014229 0.098993
-0.449690 0.026652 -0.096077
0.444159 -0.012371 0.099285
0.193997 0.031342 0.095052
0.082516 -0.058364 0.081151
0.072035 0.091557 0.040266
0.152800 0.099347 -0.010973
0.364820 0.099090 0.013504
0.264386 0.034588 -0.093521
0.234432 0.099283 -0.011647
0.408372 -0.011586 -0.098997
-0.215397 -0.093224 0.035657
0.415522 0.053242 0.084755
-0.132168 -0.079271 -0.060367
-0.096223 -0.093622 0.034552
0.064760 -0.099729 -0.001176
0.298348 0.075150 0.066045
-0.417216 0.028457 0.095915
0.271528 0.035522 -0.093184
0.163646 0.067961 0.073468
0.089857 -0.010713 -0.099079
0.034805 0.099331 0.011501
-0.019170 0.097736 -0.020771
-0.446962 -0.098570 0.015317
-0.203826 0.081491 0.058066
-0.253536 0.050349 0.086466
-0.160763 -0.033234 -0.093924
-0.138430 0.036811 0.093083
0.009684 0.087126 -0.048825
-0.309649 0.073263 -0.067822
0.126408 0.010127 0.099520
0.009882 -0.096356 0.025980
0.439025 0.096607 0.025917
0.290127 -0.074067 -0.066645
0.347202 0.099444 0.010310
-0.124856 0.049416 0.087018
0.218440 -0.054611 -0.083339
-0.021534 0.036512 -0.092828
-0.297742 0.088112 0.047395
0.061322 -0.090225 0.042790
-0.225928 -0.002522 -0.099624
0.267880 0.099497 -0.009384
0.379430 0.015131 -0.098524
-0.195196 -0.026895 0.096301
0.058193 0.089804 0.044075
0.186048 -0.089429 -0.043989
-0.126102 0.082711 -0.055908
0.360414 -0.065109 -0.075414
-0.140741 -0.029371 0.095582
-0.426774 0.094378 0.033100
0.297635 -0.061120 -0.078673
-0.156765 0.097983 -0.019669
-0.090945 -0.015702 -0.098397
0.029423 0.004207 -0.099579
-0.373709 0.076245 -0.064439
0.136193 -0.053613 0.084380
0.456421 -0.016996 0.098555
0.201426 -0.026952 0.096285
0.461192 -0.055262 0.083259
0.108641 0.099988 -0.000353
0.048215 0.060172 -0.079589
-0.329998 0.070634 -0.070496
0.268979 0.017489 -0.098151
0.131843 0.039008 0.092138
0.375782 -0.098205 -0.017257
-0.336273 -0.099595 0.005803
-0.051080 -0.003345 -0.099598
0.000979 -0.083092 -0.055004
0.278707 0.095884 0.028406
0.041249 -0.066231 -0.074425
-0.159167 0.002486 -0.099633
-0.266513 0.094060 -0.033620
0.421074 -0.048570 0.087380
-0.448916 -0.039879 0.091660
-0.104843 0.098594 0.016638
-0.365188 0.070294 0.071198
-0.052526 -0.092557 -0.037053
0.220609 0.051435 -0.085461
0.071824 0.086007 0.051081
-0.101186 -0.099396 0.008342
0.070274 -0.000515 -0.099687
-0.289241 -0.046790 -0.087971
-0.463315 -0.078187 -0.061765
0.343093 -0.083533 -0.054356
0.009886 -0.027933 -0.095637
-0.012871 0.035290 0.093631
-0.284474 0.033417 0.094305
0.440376 0.089727 0.044226
0.452948 0.070387 -0.070742
0.214855 0.085620 -0.051373
0.259386 -0.092562 -0.037040
-0.154438 0.100000 0.000339
-0.458435 -0.098383 -0.016133
-0.310883 0.090828 -0.041588
-0.361810 -0.062457 -0.077636
-0.258413 0.045400 0.089161
0.048670 0.026278 0.096548
0.363027 0.097726 -0.020816
-0.418439 0.097550 0.021966
-0.000363 -0.047486 -0.087616
0.012953 0.086173 0.050800
0.463840 0.067473 0.073898
0.383644 -0.010414 -0.099107
-0.084614 0.077812 0.062912
0.256966 0.001061 -0.099677
0.446096 0.064249 -0.076378
0.181633 -0.074946 -0.065649
-0.235574 -0.098471 -0.015576
0.176312 -0.096797 -0.023931
0.171891 -0.092768 -0.036560
-0.053173 0.081835 -0.057197
-0.424547 0.026618 0.096450
0.045055 0.021536 0.097697
0.377714 0.061479 -0.078575
-0.418940 0.088637 0.046366
0.100838 0.097113 -0.023561
-0.398608 -0.073369 0.067800
-0.169376 -0.017994 0.098397
-0.191372 0.093653 -0.034750
-0.119322 0.076695 0.064292
0.268706 0.071422 0.070070
-0.440555 -0.051156 0.085851
-0.017037 0.064452 -0.076199
0.299320 -0.075727 -0.064763
-0.090315 -0.099265 0.009728
0.164635 0.098880 0.014831
0.335619 -0.046065 -0.088340
0.027719 -0.085244 0.051977
0.387787 -0.091241 -0.040094
-0.135221 0.022666 -0.097081
-0.460044 -0.078482 0.061747
0.112122 0.090520 -0.042301
-0.401678 0.098682 0.016083
-0.364318 -0.046149 -0.088298
-0.124083 -0.089541 -0.043771
-0.117915 0.033855 0.094148
0.054671 0.005275 -0.099545
0.049992 0.097242 0.023344
-0.122348 0.093595 -0.034913
-0.445432 0.079289 -0.060645
-0.402641 0.084894 -0.052601
-0.305312 -0.099168 -0.010398
0.217425 0.096642 0.025796
-0.444864 -0.064791 0.076057
-0.016119 0.096421 -0.026196
0.106511 -0.092277 0.038062
0.078450 -0.037737 0.092587
-0.367717 -0.099673 0.003344
0.277904 -0.092907 -0.036174
-0.244007 0.042238 0.090740
-0.359537 -0.099611 0.005314
0.083606 0.000912 -0.099682
-0.428879 0.062968 -0.077420
0.243486 0.077426 -0.063047
-0.286373 -0.099447 -0.007440
0.427226 0.016892 0.098608
0.392574 -0.070576 -0.070320
0.288995 0.004645 -0.099565
0.232167 0.085257 -0.051987
-0.138290 0.043630 0.090062
-0.117685 -0.094531 0.032027
-0.463828 -0.049968 -0.086191
0.104073 0.077144 0.063773
0.013227 -0.001273 0.100026
-0.186246 -0.099396 -0.007987
-0.278990 -0.064645 0.076186
-0.368511 0.088716 0.046210
-0.351037 0.097317 -0.022649
-0.466899 -0.043291 -0.089754
0.025350 -0.093516 -0.034484
-0.218684 0.095871 -0.028088
-0.297163 -0.089906 0.043416
-0.165978 0.082584 0.056458
-0.006096 -0.053023 0.084747
0.188701 -0.016593 -0.098256
-0.415130 0.074323 0.066983
0.361250 0.006844 -0.099467
0.005590 0.005615 -0.099534
-0.027830 -0.069106 -0.071790
-0.453067 -0.048661 -0.086964
0.232218 0.072341 -0.068788
-0.218769 -0.003046 -0.099608
0.105599 0.069820 0.071673
0.195466 0.099831 0.005720
-0.440735 0.014595 0.098972
0.314354 -0.099746 0.001010
0.171726 -0.099143 -0.010661
0.114750 -0.098522 0.015620
-0.357957 0.012076 0.099335
-0.453486 0.075479 0.065671
0.125963 -0.017016 -0.098189
-0.246564 0.058836 0.080988
-0.168997 0.048984 0.087274
0.235734 -0.057507 -0.081370
0.152899 -0.028424 0.095857
0.353673 -0.098126 -0.017756
0.291199 0.059713 -0.079945
0.126382 -0.093259 0.035558
-0.117639 0.025204 0.096860
-0.213197 0.099106 0.013406
-0.386694 0.000177 0.100068
-0.090199 0.080828 -0.058661
0.193792 -0.050382 -0.085946
-0.256667 -0.099631 0.004658
0.254597 0.099821 0.006053
0.371120 0.088997 0.045660
0.230273 -0.070928 0.070330
0.229288 0.030087 0.095442
-0.043612 0.070127 0.071365
0.289606 -0.063069 -0.077161
-0.458652 -0.036441 0.093132
0.164715 -0.098428 0.016210
-0.408636 -0.099479 0.007463
0.082896 -0.026187 -0.096144
-0.298166 0.099416 -0.010237
-0.290241 -0.003424 -0.099596
0.031630 0.099974 -0.000829
-0.420364 0.077754 0.062987
-0.188210 0.092813 0.037365
-0.121671 0.099946 -0.001718
0.319388 0.025432 -0.096431
-0.345456 0.083519 0.055082
0.427724 0.098370 0.018054
0.423210 -0.017419 0.098488
-0.034704 0.000096 -0.099707
-0.162932 0.099925 0.002730
0.389660 -0.091649 0.039513
0.013679 -0.082541 0.056179
0.258413 0.087900 0.047813
-0.109722 0.010755 0.099460
0.335587 -0.031970 -0.094379
-0.321398 -0.073652 -0.067116
-0.270243 -0.000705 -0.099681
0.303005 -0.092466 -0.037263
0.087749 -0.007990 0.099699
0.238832 -0.095990 -0.026877
-0.391065 0.002582 -0.099630
-0.324147 0.093677 -0.034684
0.342676 0.013628 -0.098762
0.365230 -0.075395 -0.065139
0.147625 0.015483 -0.098469
-0.443307 0.096405 -0.026252
0.242834 0.051978 -0.085140
0.178878 0.099944 0.002143
0.321670 0.081835 -0.057198
0.222002 0.005452 -0.099540
0.073508 -0.092242 0.038144
0.110637 -0.089857 0.043513
-0.032989 -0.080530 -0.058744
0.290099 0.060533 0.079672
0.409451 0.027246 -0.095904
0.258336 -0.092155 0.038344
-0.205445 -0.055580 -0.082680
-0.155422 0.086308 0.050571
-0.199926 -0.080015 0.059770
0.128705 0.098859 0.014965
0.393296 0.015185 -0.098516
0.251895 -0.099359 0.008734
-0.423542 0.024068 -0.096768
-0.089603 0.045264 0.089230
0.001221 0.087037 0.049340
-0.224696 -0.089899 0.043431
-0.048700 -0.084786 -0.052387
-0.375147 -0.017168 0.098528
0.298885 -0.099753 0.000774
0.172608 0.029196 0.095700
-0.201769 -0.026677 0.096364
0.307870 0.099870 -0.004129
0.419795 -0.054798 0.083574
-0.179056 -0.031919 -0.094398
0.035171 0.064218 -0.076405
-0.085142 0.005149 0.099912
0.455466 0.096926 0.024758
-0.194843 -0.043001 0.090264
0.097708 0.048491 0.087565
-0.107859 0.099899 0.003562
-0.214712 0.080466 0.059490
0.040419 0.062036 -0.078143
-0.282467 0.094401 0.033037
0.103097 0.004347 0.099937
-0.132495 -0.093526 -0.034455
0.408709 -0.091800 0.039166
-0.306120 -0.097759 0.019990
-0.375419 0.094986 -0.031047
-0.251565 0.099757 -0.006631
0.192298 0.097622 -0.021281
-0.386062 0.011585 0.099382
-0.307089 0.040494 0.091495
-0.225419 -0.086565 0.049743
-0.343937 0.061312 0.079067
0.152810 0.093822 0.034644
0.053176 -0.094972 0.030744
0.363883 -0.022526 0.097423
-0.429884 -0.099406 -0.007876
0.306914 -0.039940 -0.091271
0.335123 0.059918 -0.079786
0.252326 0.036253 -0.092921
-0.227098 0.098314 0.018403
-0.124331 -0.099586 0.006089
0.444147 0.093228 0.036294
-0.274708 0.064780 0.076272
0.386927 -0.099672 0.003369
-0.309042 -0.039043 0.092022
0.419134 0.094645 0.032358
-0.229434 -0.081845 0.057203
0.260559 -0.070561 0.070697
0.023616 0.089732 -0.043854
0.180181 -0.053056 0.084727
-0.448090 -0.097257 0.022234
0.104841 -0.034003 0.094010
-0.291700 0.004370 0.099936
-0.037659 -0.043644 -0.089574
-0.318363 0.092411 -0.037931
-0.313321 0.064812 0.076244
-0.205254 0.015105 -0.098528
-0.257474 -0.024614 -0.096594
-0.351800 0.057050 -0.081840
0.210183 0.099263 0.012221
0.299256 0.076477 -0.064177
0.413194 -0.065342 0.075571
0.300610 0.092114 0.038979
-0.238822 -0.013678 0.099080
0.278337 0.027799 -0.095744
-0.150747 0.020925 -0.097471
0.363047 -0.033782 0.094090
-0.024819 0.078519 -0.061637
0.051326 0.006398 0.099872
0.440109 0.099891 -0.003469
-0.425635 0.059944 0.080128
0.431773 -0.095600 -0.028218
0.406345 -0.092604 -0.036944
-0.302956 0.054387 0.084012
-0.213304 -0.025948 -0.096214
0.159394 -0.059809 0.080052
0.299787 -0.098444 0.016114
-0.203130 -0.091229 0.040484
-0.435003 0.085167 0.052501
0.180940 -0.038361 -0.091954
0.059950 -0.061366 -0.078482
-0.255398 0.004614 -0.099566
0.296008 0.070826 0.070667
0.273028 0.041548 -0.090676
-0.173114 -0.099585 -0.005768
0.363684 -0.083983 -0.053693
0.310545 0.099012 -0.013637
-0.454889 0.099345 0.011354
-0.225286 -0.041232 0.091075
0.289124 -0.062583 0.077901
-0.370085 0.098002 0.019943
-0.340542 -0.039484 0.091831
-0.170745 -0.098283 0.017130
0.375822 -0.098109 0.018225
-0.160223 0.099262 0.012226
-0.138404 0.051272 -0.085557
0.258906 -0.053785 0.084263
-0.137341 -0.094842 -0.030801
0.006440 0.072177 0.069315
0.358960 0.093470 0.035623
0.373040 0.076793 -0.063818
-0.289806 -0.099722 -0.001403
-0.298025 -0.076071 0.064735
-0.198406 -0.020811 0.097807
-0.078977 0.098774 0.015504
-0.127275 0.074786 0.066458
-0.276306 -0.050592 0.086185
0.202316 0.064374 -0.076267
0.100624 0.019129 0.098235
-0.436816 -0.081276 -0.057676
0.118443 0.070202 0.071290
-0.320634 0.077019 -0.063562
-0.225793 0.061013 -0.078936
0.103685 -0.073951 -0.066777
-0.130892 -0.043378 0.090072
0.443035 0.005207 0.099910
-0.412335 0.085142 0.052544
0.304124 0.025056 0.096903
0.263402 -0.037021 0.092897
-0.028479 0.014167 0.099040
0.189282 -0.077923 -0.062104
0.350559 0.098706 0.015933
0.243447 0.040022 0.091700
-0.219350 -0.088009 -0.046777
-0.296085 -0.096138 -0.026366
0.150037 0.084099 0.054229
-0.046115 0.032475 -0.094281
-0.212227 -0.098484 0.015859
-0.111395 -0.092179 0.038289
0.385763 0.021055 0.097804
0.291767 -0.026694 -0.095997
-0.306992 0.066643 0.074630
0.440550 0.076270 -0.064411
0.267051 -0.087173 0.048715
0.340700 -0.093478 0.034952
0.125501 -0.095990 0.027238
0.212875 -0.026412 0.096442
0.242649 0.071053 0.070439
0.260162 0.052779 -0.084666
0.355994 -0.062527 0.077944
-0.199207 0.060470 0.079721
0.283256 -0.096809 0.024237
-0.090670 -0.056708 0.082276
0.328084 -0.016464 0.098639
0.278306 -0.086501 0.049851
-0.230978 -0.068939 -0.071957
0.269059 0.005975 -0.099523
0.100557 -0.027558 -0.095746
0.421034 -0.067817 -0.073027
0.384140 0.080084 -0.059620
0.213870 -0.093243 0.035603
0.084513 0.043381 0.090189
0.403772 0.074083 -0.066892
-0.312938 -0.028928 0.095711
0.379606 -0.042695 -0.090057
-0.402298 -0.099650 0.004067
0.026772 -0.018028 0.098391
-0.218144 0.038164 -0.092141
-0.149850 -0.076804 0.063904
0.273291 0.096801 -0.024887
-0.364527 -0.030006 0.095397
-0.079849 0.041180 -0.090835
-0.205275 -0.038189 -0.092029
-0.268387 -0.093932 0.033691
0.337176 -0.078171 -0.061785
-0.286032 -0.014939 -0.098518
0.163983 0.012530 0.099292
-0.296041 0.096440 -0.026130
0.410304 -0.085006 0.052378
-0.142589 0.090025 0.043642
0.354485 0.099859 -0.004462
-0.150158 0.065158 -0.075577
0.084646 -0.038731 -0.091794
0.456487 0.001025 -0.099679
0.422748 -0.064956 0.075911
-0.163257 -0.099736 0.001333
-0.196854 0.095638 0.029253
-0.355272 -0.094901 -0.030625
-0.020990 0.027059 -0.095959
-0.184261 -0.098108 0.018234
0.180392 -0.028503 0.095834
0.137206 -0.096566 0.025254
-0.329551 -0.086689 0.049533
-0.272225 -0.056600 0.082349
-0.214805 -0.088201 0.046764
-0.075599 0.044461 0.089639
-0.245169 -0.094329 0.032587
-0.207570 -0.088169 0.046826
-0.006114 -0.035833 0.093351
-0.129422 -0.046279 -0.088231
0.021719 -0.099713 0.002046
0.080510 0.054099 0.084208
-0.029691 -0.068687 0.072572
-0.465588 0.093852 -0.034198
0.303985 0.092654 -0.037369
0.036894 0.096976 0.024536
0.458967 0.099910 -0.002857
-0.465949 -0.054298 0.083914
-0.047023 -0.071623 -0.069273
-0.041347 0.036383 -0.092875
-0.227304 -0.099187 -0.010191
0.175022 -0.037073 -0.092512
-0.449972 0.072605 -0.068524
-0.466469 -0.083739 -0.054053
-0.249200 0.082670 0.056332
0.092458 -0.087928 0.047299
0.073996 -0.053489 -0.084101
0.270073 0.004309 0.099938
0.028149 -0.091497 0.039865
-0.082804 0.015468 0.098834
-0.105580 0.076888 -0.063710
0.355265 -0.080457 0.059201
-0.171474 -0.050721 0.086108
0.247299 -0.072120 0.069139
-0.191984 -0.079426 -0.060167
-0.338623 0.000606 0.100055
0.459213 -0.051781 -0.085118
0.388381 0.092678 0.037675
0.288330 -0.037147 -0.092480
-0.304147 -0.043907 0.089802
0.425479 -0.011746 0.099344
0.379438 -0.010912 0.099423
-0.342352 0.050026 0.086657
-0.283333 -0.060047 0.079868
-0.011750 0.028315 0.095956
-0.081946 -0.018418 0.098330
-0.304444 0.098789 -0.015047
0.028852 -0.076010 0.064805
-0.192769 0.049289 0.087093
0.346704 0.098635 -0.016017
-0.218581 0.073284 -0.067798
-0.154286 -0.064066 0.076696
-0.246735 0.099260 0.012250
-0.285251 0.040508 0.091489
0.221004 0.086387 -0.050076
-0.262752 -0.003833 0.099946
-0.276148 0.019308 -0.097832
-0.191567 0.096862 -0.024678
-0.388742 0.048191 0.087739
-0.388353 0.077251 0.063635
-0.305354 -0.001855 0.100008
-0.195582 -0.091036 0.040930
0.330217 -0.059038 0.080650
-0.221622 -0.046820 -0.087955
0.375196 0.029495 -0.095251
-0.371746 -0.043809 -0.089490
0.027726 0.073706 -0.067319
-0.402603 0.097540 -0.021648
-0.070072 0.005380 0.099905
0.380374 0.099850 -0.004764
0.421887 0.081823 0.057578
-0.041202 -0.000088 0.100064
0.148273 0.072934 -0.068196
-0.164042 -0.079972 0.059827
0.127572 0.091740 -0.039480
0.347610 0.091209 -0.040706
0.221127 0.026226 0.096563
0.225931 -0.006601 0.099831
-0.239133 -0.043010 0.090259
-0.036109 -0.015692 -0.098399
0.346388 0.055872 -0.082640
-0.452960 0.069400 0.072092
0.244320 0.095557 0.029531
0.185798 -0.057178 0.081957
-0.391631 -0.099483 -0.007062
-0.049722 -0.094741 0.031444
0.411492 0.093837 0.034601
0.389412 0.065375 -0.075385
0.309668 0.059774 -0.079898
0.352931 0.089384 -0.044536
-0.178666 -0.099293 -0.009071
-0.392918 -0.091108 0.040765
-0.029961 0.099483 -0.009529
0.238490 -0.085918 0.050837
0.118075 0.021772 0.097644
-0.248798 0.019683 0.098111
-0.234070 -0.025395 0.096737
0.385074 0.099868 0.004538
0.360379 0.082554 0.056502
-0.454845 -0.099159 0.010857
0.246237 0.004894 0.099920
-0.414992 -0.037412 0.092728
0.397319 0.089185 -0.044927
-0.185451 -0.094680 -0.031251
-0.278350 0.095519 -0.029298
0.436520 -0.059845 -0.079662
0.317101 0.009302 0.099598
0.178817 -0.093581 -0.034302
-0.036551 0.016619 0.098652
0.305249 0.015903 -0.098402
0.265192 -0.099641 0.004347
-0.308150 -0.085277 -0.051559
-0.099253 0.019392 0.098176
0.464113 0.084053 -0.053934
-0.412203 0.078933 0.061466
0.149286 0.090965 -0.041272
-0.142931 -0.059184 -0.080175
-0.435673 -0.056104 0.082687
-0.419250 0.045175 0.089275
0.026496 -0.072227 -0.068669
-0.270386 0.058366 0.081308
-0.379713 -0.041390 0.091006
0.290166 0.050040 0.086649
0.349099 0.020909 -0.097474
-0.412552 -0.097615 0.020633
-0.342696 0.095181 -0.030463
-0.034458 -0.021643 -0.097258
0.107870 -0.049160 0.087031
-0.108398 0.047891 -0.087529
0.221437 -0.098892 -0.012923
-0.106214 0.072535 -0.068594
-0.091231 0.025088 0.096894
0.321834 -0.012201 0.099301
-0.459725 0.073790 -0.067224
0.383680 0.004860 0.099921
0.107656 0.097531 -0.021689
-0.295923 0.058809 0.081007
0.081443 0.083702 -0.054450
0.464207 0.083814 0.054649
-0.362610 0.077961 0.062720
-0.074489 0.080691 -0.058837
0.265775 0.081922 0.057433
-0.271096 0.095630 0.029281
-0.433638 0.080420 0.059549
0.003328 0.063711 -0.076844
-0.082200 0.095702 -0.028670
0.331448 -0.039610 -0.091414
0.207840 0.063041 0.077726
0.302735 0.085409 -0.051728
-0.088779 0.047593 -0.087680
0.343614 -0.090991 -0.040672
-0.016127 -0.095922 -0.027111
-0.174164 0.000761 -0.099687
0.341990 -0.014469 -0.098592
-0.300784 0.093297 0.036101
-0.254798 0.075483 -0.065304
-0.125555 0.037962 -0.092228
0.021911 0.099190 0.012873
-0.035887 -0.099479 -0.007100
-0.009034 0.018291 -0.098024
0.428338 0.099877 0.004269
-0.329482 0.022478 -0.097123
-0.123365 0.097828 -0.020362
0.138798 0.062599 -0.077707
0.098976 -0.055512 -0.082726
-0.294308 0.093333 0.036002
-0.240074 -0.043515 -0.089639
-0.327544 -0.055777 -0.082547
0.326805 -0.009163 0.099589
-0.431825 0.024393 0.097058
0.309770 -0.090582 0.041979
0.391887 0.022130 -0.097201
-0.465574 0.072291 -0.068839
0.223290 0.098723 -0.015463
0.213613 0.068125 -0.072960
0.025931 -0.098051 -0.018232
-0.442179 -0.096073 -0.026591
0.418273 -0.097407 -0.021201
0.162355 0.052040 -0.085104
-0.107022 0.099364 0.011146
0.452303 -0.087271 0.048549
0.111411 -0.007605 0.099736
0.151291 0.097986 -0.019656
0.311726 -0.002714 0.099981
0.009881 -0.098201 -0.017285
-0.062002 0.068616 -0.072514
0.334932 0.067010 0.074306
-0.295077 -0.056858 0.082174
-0.200127 -0.094333 -0.032215
0.234266 0.096834 -0.024774
0.441580 -0.051125 0.085869
0.425776 0.050502 -0.086013
-0.210801 0.048667 0.087461
-0.088193 0.074289 0.067021
0.404015 0.080630 0.059279
0.191285 0.044445 0.089647
-0.139866 -0.088148 0.046867
-0.391701 -0.064679 0.076156
0.129450 -0.013759 0.099067
-0.096952 0.085762 -0.051132
0.010511 -0.043914 0.089799
0.451422 0.074651 -0.066248
-0.440079 0.092737 0.037538
-0.401483 -0.018937 -0.097863
-0.107503 0.000227 -0.099704
0.448844 -0.098360 -0.016281
-0.261879 -0.088237 -0.046330
-0.090546 0.098130 -0.019009
-0.023584 0.042586 -0.090227
0.068237 0.037607 0.092744
0.076713 0.081751 0.057684
0.002094 -0.043679 0.089918
0.377550 0.036297 -0.092905
-0.101564 0.097628 0.021620
0.137384 0.091752 0.039815
-0.432117 0.092840 0.037301
-0.342400 0.012256 0.099318
0.068523 -0.095556 0.028733
-0.378905 -0.099681 -0.002697
0.214647 0.052600 -0.084772
-0.374156 0.056466 0.082599
-0.211552 -0.073241 0.067945
0.027893 0.098734 0.015756
-0.153040 0.098807 0.015293
0.083139 0.022671 -0.097080
-0.379402 -0.005480 -0.099531
0.265930 0.033147 0.094402
-0.300399 -0.025043 0.096839
-0.093986 0.014873 0.098928
-0.076878 0.099753 0.007036
0.138732 0.099314 -0.011321
-0.422565 -0.092428 0.037713
0.154958 0.099868 -0.004184
0.428975 0.048590 0.087507
-0.184084 0.067815 0.073597
0.280031 0.093739 -0.034512
0.020285 -0.020247 0.097933
-0.323616 -0.083807 -0.053953
0.049255 0.099869 0.004510
-0.394072 0.099857 -0.004531
0.184085 0.096395 0.026648
0.242754 0.023738 -0.096842
0.378032 -0.099620 0.005024
-0.439732 0.099850 0.005128
-0.133590 -0.022588 0.097409
-0.242788 -0.089127 -0.044582
0.295326 0.035971 0.093386
-0.388311 0.075586 -0.065187
0.436170 0.057568 0.081850
-0.318281 0.094998 0.031377
-0.110664 -0.097827 -0.019320
0.025091 0.054394 0.084008
-0.222989 0.056161 -0.082444
0.354842 -0.039581 0.091789
-0.276744 -0.013090 -0.098811
-0.126899 0.066903 -0.074038
0.348936 -0.095290 -0.029285
0.409183 0.055676 -0.082774
-0.113546 -0.098776 -0.013656
0.398120 0.097801 0.020846
-0.016912 0.075818 0.065286
0.054897 -0.064259 -0.076163
0.232372 0.080628 -0.058919
0.233695 -0.067128 0.073997
-0.403470 0.063818 0.077121
0.164457 -0.028958 -0.095339
-0.229356 -0.045690 0.088894
-0.383786 -0.099315 -0.008835
0.165223 0.040332 0.091565
0.442795 0.025268 0.096842
-0.131005 -0.080158 0.059587
-0.413928 -0.098835 0.013643
0.429453 0.025101 0.096890
0.350012 0.042813 0.090479
0.232246 0.084226 0.054043
-0.122244 -0.044551 -0.089112
-0.207111 0.020355 0.097961
0.057123 0.065926 -0.074899
0.245867 -0.090590 0.041962
0.106003 0.011754 0.099366
-0.281211 0.067226 0.074116
0.014502 0.099869 -0.004149
0.413909 -0.090447 -0.041930
