0.465339 -0.018632 0.081655
0.465339 -0.095651 0.002417
0.465339 -0.011928 0.066235
0.465339 0.048742 -0.012801
0.465339 0.007871 -0.006477
0.465339 -0.092875 -0.027239
0.465339 0.013164 0.008124
0.465339 0.041995 0.061599
0.465339 0.056773 0.068392
0.465339 0.053787 -0.063060
0.465339 -0.008803 -0.062450
0.465339 -0.004508 0.004353
0.465339 0.010696 -0.051278
0.465339 -0.073476 -0.043878
0.465339 0.081980 -0.028625
0.465339 -0.009102 0.087523
0.465339 0.065169 0.072921
0.465339 -0.060777 -0.007952
0.465339 -0.006661 0.020798
0.465339 0.079540 0.013169
0.465339 -0.049824 0.060736
0.465339 0.027332 -0.070812
0.465339 0.039760 -0.005586
0.465339 0.099314 -0.010081
0.465339 0.002548 -0.090749
0.465339 -0.060110 0.075909
0.465339 -0.087026 -0.016443
0.465339 0.023121 0.025371
0.465339 0.059785 0.024199
0.465339 0.056761 0.024128
0.465339 0.040503 0.025001
0.465339 0.055182 -0.032906
0.465339 0.041616 0.063341
0.465339 -0.092857 0.000472
0.465339 0.021129 0.005378
0.465339 -0.021125 0.047113
0.465339 -0.009861 0.072168
0.465339 0.000143 0.029183
0.465339 0.026733 0.076095
0.465339 0.030656 -0.007326
0.465339 -0.062585 -0.027776
0.465339 0.006050 -0.008645
0.465339 0.005938 -0.057308
0.465339 0.017198 -0.089671
0.465339 0.001681 -0.075842
0.465339 0.025355 -0.009941
0.465339 -0.049078 -0.019379
0.465339 0.041749 -0.017858
0.465339 -0.069572 -0.069559
0.465339 -0.078287 -0.001203
0.465339 0.060333 0.053431
0.465339 0.005378 0.032858
0.465339 -0.036334 -0.032306
0.465339 0.052502 0.068586
0.465339 0.040458 -0.047896
0.465339 0.088475 0.044809
0.465339 -0.025276 -0.041802
0.465339 0.058678 -0.043125
0.465339 0.041560 0.030082
0.465339 0.014587 0.047257
0.465339 -0.073488 0.032040
0.465339 -0.003179 0.041352
0.465339 -0.010716 0.070763
0.465339 -0.091687 -0.037673
0.465339 -0.051505 -0.043817
0.465339 0.083926 -0.005259
0.465339 0.055739 -0.010583
0.465339 -0.055015 0.077733
0.465339 -0.052931 0.039853
0.465339 0.016357 -0.098046
0.465339 0.052324 -0.023749
0.465339 -0.028784 0.093991
0.465339 -0.061847 -0.031083
0.465339 -0.022386 0.016205
0.465339 0.018511 -0.021714
0.465339 -0.003018 0.079918
0.465339 0.040914 0.041053
0.465339 0.003140 -0.047304
0.465339 -0.026570 0.018748
0.465339 -0.010005 0.098240
0.465339 -0.074892 -0.005381
0.465339 -0.067521 -0.010301
0.465339 0.099413 0.008582
0.465339 0.010943 -0.000087
0.465339 0.039710 0.007225
0.465339 -0.015914 -0.092710
0.465339 -0.033004 -0.091368
0.465339 0.057024 0.036292
0.465339 0.053329 0.064120
0.465339 0.083010 -0.047018
0.465339 -0.024846 0.087601
0.465339 0.065572 -0.008145
0.465339 0.061152 -0.063137
0.465339 -0.055717 -0.066302
0.465339 0.057035 0.002368
0.465339 -0.090795 0.037895
0.465339 0.088473 -0.045803
0.465339 -0.008931 -0.088261
0.465339 0.006635 -0.018594
0.465339 0.030300 -0.001350
0.465339 0.096060 -0.026999
0.465339 0.032032 0.027170
0.465339 -0.070561 -0.039642
0.465339 0.025169 0.010989
0.465339 -0.039918 -0.037947
0.465339 0.052009 0.078960
0.465339 -0.062986 -0.003469
0.465339 0.033063 0.039970
0.465339 0.007817 -0.015777
0.465339 -0.061272 -0.072346
0.465339 0.036011 0.052555
0.465339 0.085336 -0.041315
0.465339 0.086016 0.008742
0.465339 -0.039512 0.038776
0.465339 0.017296 -0.035832
0.465339 0.033181 0.031082
0.465339 -0.071909 -0.013230
0.465339 -0.026115 0.042027
0.465339 -0.075160 -0.041522
0.465339 -0.061649 -0.009867
0.465339 -0.016391 0.084245
0.465339 0.068824 -0.023916
0.465339 -0.006583 -0.053672
0.465339 0.005714 -0.055696
0.465339 0.084869 0.012683
0.465339 0.081742 0.037013
0.465339 -0.022873 0.081133
0.465339 -0.045906 0.071738
0.465339 -0.019481 -0.074314
0.465339 -0.013306 -0.077631
0.465339 0.048364 0.036219
0.465339 -0.058689 -0.076542
0.465339 -0.059993 0.013385
0.465339 0.097324 -0.011952
0.465339 -0.037203 -0.019146
0.465339 0.036961 -0.003822
0.465339 0.069650 -0.018190
0.465339 0.072478 0.003049
0.465339 0.041744 -0.044349
0.465339 0.023517 0.059858
0.465339 -0.020631 0.034719
0.465339 -0.070467 0.007952
0.465339 0.028882 -0.038313
0.465339 -0.070565 -0.012494
0.465339 -0.068227 0.007898
0.465339 -0.073832 -0.042377
0.465339 -0.006388 0.017577
0.465339 0.010592 -0.027660
0.465339 0.000712 0.099049
0.465339 -0.048295 -0.071280
0.465339 -0.017994 0.051355
0.465339 0.011196 -0.045112
0.465339 0.004938 -0.047061
0.465339 -0.080540 -0.012338
0.465339 0.028350 -0.026067
0.465339 -0.000032 -0.096045
0.465339 0.062268 0.059640
0.465339 0.075429 0.039768
0.465339 0.055567 -0.009121
0.465339 -0.076518 0.040400
0.465339 -0.057438 0.032424
0.465339 -0.085180 -0.031663
0.465339 0.076700 0.017668
0.465339 -0.087539 -0.007182
0.465339 -0.086500 -0.020238
0.465339 0.040244 -0.034355
0.465339 0.058255 -0.008982
0.465339 0.078149 0.033466
0.465339 0.052013 0.042991
0.465339 0.060708 -0.008712
0.465339 0.032047 -0.051024
0.465339 0.022980 -0.003225
0.465339 -0.040712 0.047609
0.465339 0.069029 -0.033771
0.465339 0.049796 0.033971
0.465339 0.003282 -0.012697
0.465339 -0.000833 0.025709
0.465339 -0.014092 0.054322
0.465339 -0.037217 -0.058400
0.465339 0.077180 0.051276
0.465339 0.029281 0.027732
0.465339 0.024940 0.089486
0.465339 -0.080125 0.033145
0.465339 -0.073965 0.014379
0.465339 0.000481 0.020978
0.465339 -0.009671 -0.015165
0.465339 0.030216 -0.061088
0.465339 -0.035130 -0.054881
0.465339 0.002613 0.039244
0.465339 -0.048507 0.046988
0.465339 -0.089652 -0.043291
0.465339 0.049501 0.002635
0.465339 -0.062848 0.063576
0.465339 -0.074976 -0.014848
0.465339 -0.034779 -0.082277
0.465339 0.002617 -0.003823
0.465339 0.088761 -0.006152
0.465339 -0.070811 -0.062252
0.465339 -0.038831 -0.062262
0.465339 0.032513 0.036414
0.465339 -0.031651 0.091471
0.465339 0.008369 0.023363
0.465339 -0.055985 -0.063180
0.465339 -0.066630 -0.013419
0.465339 0.005446 0.082260
0.465339 0.021069 0.092446
0.465339 -0.054408 -0.040470
0.465339 0.050907 -0.030608
0.465339 0.033431 -0.075141
0.465339 -0.089746 0.005859
0.465339 -0.088551 0.019514
0.465339 -0.060171 0.051296
0.465339 -0.025358 0.082311
0.465339 0.084314 -0.022514
0.465339 -0.060424 -0.044107
0.465339 0.004243 0.028623
0.465339 0.084512 -0.030216
0.465339 0.009363 0.028708
0.465339 -0.025177 -0.010025
0.465339 0.000150 0.049830
0.465339 0.019680 0.075636
0.465339 -0.037541 -0.005507
0.465339 0.008039 -0.030799
0.465339 0.020940 0.095895
0.465339 -0.052518 -0.046170
0.465339 -0.075339 -0.048275
0.465339 0.019485 -0.067476
0.465339 -0.074285 -0.023609
0.465339 -0.031478 -0.009302
0.465339 0.025878 -0.051313
0.465339 -0.022766 0.000821
0.465339 -0.030245 -0.031130
0.465339 0.036945 -0.071479
0.465339 0.069165 -0.028503
0.465339 0.011692 -0.007533
0.465339 -0.040454 0.022664
0.465339 -0.032144 0.043393
0.465339 0.036560 -0.049896
0.465339 0.013786 -0.075337
0.465339 -0.053883 -0.065558
0.465339 -0.012317 -0.007897
0.465339 -0.006090 -0.068399
0.465339 -0.094915 -0.016381
0.465339 -0.012031 -0.083608
0.465339 0.030484 -0.091895
0.465339 -0.035351 -0.019962
0.465339 -0.072373 0.016862
0.465339 -0.067431 0.027734
0.465339 -0.015379 0.097952
0.465339 -0.066565 -0.051243
0.465339 0.093043 -0.034810
0.465339 0.018741 0.006751
0.465339 0.005670 -0.020328
0.465339 -0.034892 0.025987
0.465339 0.052808 0.041691
0.465339 0.057539 -0.068834
0.465339 0.009407 -0.085380
0.465339 -0.029319 0.000980
0.465339 -0.052540 0.084992
0.465339 -0.067818 -0.018306
0.465339 -0.088356 0.024280
0.465339 0.015963 0.012081
0.465339 0.097021 0.011174
0.465339 0.033336 0.022727
0.465339 -0.086938 0.038963
0.465339 0.024693 0.026679
0.465339 -0.015094 0.075765
0.465339 0.042337 0.032130
0.465339 0.003238 -0.063322
0.465339 -0.032180 -0.072256
0.465339 0.042515 0.027361
0.465339 0.009314 -0.078840
0.465339 0.029339 -0.068316
0.465339 0.044683 -0.069413
0.465339 -0.057501 -0.011790
0.465339 -0.000478 0.059275
0.465339 0.031285 -0.016098
0.465339 -0.095083 -0.008616
0.465339 -0.017187 -0.077775
0.465339 0.037783 0.037811
0.465339 -0.036434 -0.080248
0.465339 0.099197 0.010448
0.465339 0.021514 -0.038642
0.465339 -0.066412 -0.057930
0.465339 -0.032271 0.084724
0.465339 0.026013 -0.093692
0.465339 0.071814 0.013503
0.465339 0.079646 0.000902
0.465339 0.012834 -0.016732
0.465339 -0.003337 -0.038244
0.465339 0.030270 0.083678
0.465339 -0.029319 0.009851
0.465339 0.004371 0.038881
0.465339 -0.007790 -0.081157
0.465339 0.005202 0.099851
0.465339 0.004592 0.087342
0.465339 -0.028017 0.002372
0.465339 -0.029405 0.007896
0.465339 -0.007196 -0.009166
0.465339 -0.039209 -0.060603
0.465339 0.042301 -0.016036
0.465339 0.013486 -0.061894
0.465339 -0.026938 0.030347
0.465339 0.028307 -0.001907
0.465339 0.013579 -0.043962
0.465339 0.067673 0.006417
0.465339 -0.087931 0.022920
0.465339 0.006525 0.042892
0.465339 -0.080676 -0.009790
0.465339 0.092094 0.014420
0.465339 0.015903 0.079498
0.465339 -0.021639 -0.015084
0.465339 -0.025082 0.072439
0.465339 0.082180 0.030311
0.465339 -0.003004 -0.049570
0.465339 0.002363 -0.086099
0.465339 -0.066047 0.024001
0.465339 0.005005 -0.084390
0.465339 -0.024269 0.081120
0.465339 0.021746 0.062505
0.465339 -0.058127 0.080763
0.465339 -0.014820 -0.050988
0.465339 0.024013 0.033712
0.465339 -0.030944 -0.092365
0.465339 -0.097851 0.008127
0.465339 -0.012131 -0.004709
0.465339 0.017089 0.056631
0.465339 0.005118 0.069785
0.465339 -0.024561 -0.005466
0.465339 -0.049781 0.063039
0.465339 0.081244 -0.037742
0.465339 0.026327 -0.087688
0.465339 -0.018107 -0.070901
0.465339 -0.049100 -0.076989
0.465339 -0.010925 -0.084478
0.465339 0.057806 -0.016563
0.465339 0.072989 0.026254
0.465339 0.036754 0.085956
0.465339 -0.071987 -0.030895
0.465339 -0.030385 -0.000284
0.465339 -0.026943 0.017181
0.465339 0.071038 0.065290
0.465339 -0.008547 -0.046487
0.465339 -0.024791 0.018961
0.465339 -0.039232 -0.087684
0.465339 -0.085028 0.035485
0.465339 -0.029310 0.054461
0.465339 -0.030529 -0.084018
0.465339 -0.065754 0.003614
0.465339 -0.016459 0.039994
0.465339 -0.006692 -0.023169
0.465339 0.020577 0.063629
0.465339 -0.095621 0.006296
0.465339 0.027681 0.022291
0.465339 0.016765 0.059308
0.465339 0.019752 0.048765
0.465339 0.000875 0.069909
0.465339 0.047531 0.007191
0.465339 -0.079478 0.020781
0.465339 0.032059 0.006760
0.465339 0.010982 0.083773
0.465339 -0.036767 -0.006814
0.465339 -0.044883 -0.042818
0.465339 0.015504 -0.090038
0.465339 -0.001274 -0.047706
0.465339 0.083262 -0.044939
0.465339 0.048535 -0.073691
0.465339 0.027834 0.026012
0.465339 0.055352 -0.053666
0.465339 0.003932 -0.004821
0.465339 -0.046001 -0.007086
0.465339 0.031056 0.045324
0.465339 -0.009131 0.020646
0.465339 0.090389 -0.023695
0.465339 -0.028438 -0.035500
0.465339 0.000586 0.043634
0.465339 0.025237 -0.055039
0.465339 0.051689 -0.016261
0.465339 0.024515 -0.026603
0.465339 0.058216 0.023655
0.465339 0.078523 -0.032449
0.465339 -0.049090 0.045609
0.465339 0.059561 0.011323
0.465339 -0.016045 -0.026565
0.465339 0.066846 -0.045278
0.465339 0.008846 -0.072243
0.465339 0.011242 0.031460
0.465339 -0.066386 0.035443
0.465339 -0.019816 -0.022411
0.465339 0.070481 0.031202
0.465339 -0.091944 0.007892
0.465339 -0.042033 -0.041019
0.465339 -0.074858 0.054933
0.465339 0.036861 -0.065411
0.465339 -0.070373 -0.043089
0.465339 0.029970 -0.008901
0.465339 0.056618 0.050851
0.465339 -0.052887 0.003072
0.465339 0.077086 0.022602
0.465339 0.040263 0.067109
0.465339 0.013859 -0.088053
0.465339 0.022630 -0.063527
0.465339 0.022232 0.049367
0.465339 0.076225 0.020742
0.465339 -0.094494 -0.003819
0.465339 -0.081121 -0.034987
0.465339 -0.067388 -0.069174
0.465339 0.021060 0.024646
0.465339 0.069756 0.063492
0.465339 -0.041889 -0.008757
0.465339 0.023994 -0.081600
0.465339 -0.020602 0.052159
0.465339 -0.007795 -0.092654
0.465339 -0.098698 -0.002221
0.465339 -0.067470 -0.031332
0.465339 -0.023223 0.009549
0.465339 0.036038 0.009855
0.465339 -0.059135 0.004709
0.465339 0.080612 -0.030240
0.465339 0.051061 0.074292
0.465339 -0.026228 0.009129
0.465339 0.060112 -0.064144
0.465339 -0.022237 -0.024019
0.465339 0.045855 -0.033293
0.465339 0.000493 -0.084499
0.465339 -0.086071 -0.022198
0.465339 -0.018333 -0.026323
0.465339 0.024254 0.035250
0.465339 -0.024457 0.049191
0.465339 0.012602 -0.032590
0.465339 0.018758 0.068518
0.465339 0.046897 -0.053758
0.465339 -0.075872 -0.064580
0.465339 0.017455 -0.046247
0.465339 -0.046521 -0.013280
0.465339 -0.073162 -0.056259
0.465339 -0.066470 0.012899
0.465339 0.041286 0.015074
0.465339 -0.042738 0.060222
0.465339 -0.040795 -0.073423
0.465339 0.076505 -0.043367
0.465339 0.014521 -0.011226
0.465339 -0.015322 0.022319
0.465339 -0.000796 0.015048
0.465339 -0.013444 -0.005971
0.465339 -0.009683 0.055564
0.465339 0.039872 -0.072498
0.465339 -0.004776 -0.038624
0.465339 0.022081 0.017476
0.465339 0.033167 -0.067541
0.465339 -0.062871 0.033574
0.465339 -0.082381 -0.023895
0.465339 -0.056253 0.041379
0.465339 -0.051567 -0.036468
0.465339 0.013592 -0.014335
0.465339 -0.048463 -0.015998
0.465339 -0.038054 -0.011701
0.465339 -0.093319 0.007614
0.465339 -0.007638 -0.087547
0.465339 -0.005207 0.057623
0.465339 -0.055576 0.028907
0.465339 -0.061478 0.033187
0.465339 -0.031587 -0.090550
0.465339 0.052826 0.048036
0.465339 0.051771 0.016780
0.465339 0.089334 0.034042
0.465339 -0.060629 -0.021363
0.465339 0.014908 -0.059804
0.465339 0.081796 0.020369
0.465339 -0.004607 -0.015616
0.465339 0.041409 0.037719
0.465339 -0.078673 -0.018149
0.465339 0.022031 -0.009145
0.465339 0.029683 -0.043973
0.465339 0.051577 -0.048825
0.465339 -0.003001 -0.042672
0.465339 0.012314 0.029152
0.465339 -0.040758 0.082897
0.465339 0.069961 0.029020
0.465339 -0.085101 -0.016144
0.465339 0.045855 0.042905
0.465339 -0.072462 -0.023879
0.465339 0.014666 -0.049648
0.465339 0.070375 0.037262
0.465339 0.040862 0.011093
0.465339 0.085500 -0.004599
0.465339 -0.012229 -0.067902
0.465339 0.035385 0.011131
0.465339 -0.085125 0.039706
0.465339 0.014789 0.043824
0.465339 0.048079 -0.003658
0.465339 -0.051296 0.067089
0.465339 0.010282 -0.095786
0.465339 -0.032179 0.056040
0.465339 0.002900 -0.072530
0.465339 0.054149 0.058377
0.465339 -0.033459 -0.002536
0.465339 -0.028313 0.005944
0.465339 -0.037813 0.026918
0.465339 -0.090141 -0.035015
0.465339 0.015305 0.085347
0.465339 -0.036449 0.044224
0.465339 -0.051360 -0.016748
0.465339 -0.026934 -0.085256
0.465339 0.090248 0.037832
0.465339 0.082910 -0.043397
0.465339 0.033681 -0.078228
0.465339 -0.041238 0.058315
0.465339 0.013248 -0.007428
0.465339 -0.080221 -0.047741
0.465339 0.050220 0.081933
0.465339 0.013582 -0.041135
0.465339 -0.003745 -0.067333
0.465339 0.029859 -0.056012
0.465339 -0.038568 -0.072678
0.465339 -0.077154 -0.027757
0.465339 0.080089 -0.039807
0.465339 -0.036077 0.008690
0.465339 0.065199 0.037814
0.465339 -0.028251 0.066743
0.465339 -0.029638 0.063406
0.465339 -0.009871 0.081079
0.465339 0.054344 -0.029511
0.465339 -0.080704 0.034853
0.465339 -0.071282 0.003351
0.465339 0.061350 -0.067682
0.465339 -0.010149 -0.012116
0.465339 0.033302 -0.045181
0.465339 -0.014421 0.089916
0.465339 -0.015722 -0.006626
0.465339 -0.027932 -0.075193
0.465339 -0.033383 0.025267
0.465339 -0.071398 0.011874
0.465339 0.063111 -0.044586
0.465339 0.009790 0.070379
0.465339 0.047329 -0.043819
0.465339 -0.054645 0.063252
0.465339 0.015049 0.070188
0.465339 -0.060835 -0.040898
0.465339 0.023521 0.064939
0.465339 0.041844 -0.066350
0.465339 0.006963 0.008830
0.465339 0.035420 0.005317
0.465339 0.039244 0.009365
0.465339 0.036345 -0.025167
0.465339 -0.078493 -0.034192
0.465339 -0.012129 -0.013603
0.465339 0.022243 0.004383
0.465339 -0.021742 0.072573
0.465339 -0.056343 0.031076
0.465339 -0.023723 -0.008777
0.465339 -0.091938 0.037204
0.465339 0.029461 -0.012636
0.465339 -0.010507 0.023163
0.465339 -0.026350 0.095466
0.465339 -0.007909 0.075786
0.465339 0.036957 -0.073263
0.465339 -0.025151 -0.045275
0.465339 0.041579 -0.026750
0.465339 0.071801 0.031635
0.465339 -0.059073 0.045358
0.465339 -0.020152 -0.077612
0.465339 0.079229 -0.000716
0.465339 0.017278 0.097120
0.465339 -0.011790 -0.020346
0.465339 0.042628 0.070412
0.465339 0.073956 -0.027076
0.465339 0.078013 0.056177
0.465339 -0.082835 -0.045230
0.465339 -0.082515 0.053807
0.465339 -0.060272 -0.069803
0.465339 -0.036181 -0.018102
0.465339 -0.029909 0.086893
0.465339 0.002027 0.070702
0.465339 -0.036707 0.075747
0.465339 0.022764 0.087829
0.465339 0.097433 0.003872
0.465339 -0.055155 -0.053257
0.465339 0.054708 0.070207
0.465339 0.099951 0.001900
0.465339 -0.093005 -0.002889
0.465339 -0.041578 -0.065213
0.465339 0.074108 -0.012608
0.465339 -0.014264 0.052178
0.465339 0.072503 0.017134
0.465339 0.012652 0.053951
0.465339 -0.052961 0.052267
0.465339 0.064576 0.025203
0.465339 0.046371 -0.085692
0.465339 0.056724 0.082412
0.465339 -0.002558 0.085872
0.465339 -0.084773 -0.003602
0.465339 0.015918 -0.088360
0.465339 -0.041660 -0.056263
0.465339 -0.053878 -0.039125
0.465339 -0.092230 0.003779
0.465339 0.079246 -0.041804
0.465339 0.092004 0.026175
0.465339 -0.045627 -0.014395
0.465339 0.078937 -0.012807
0.465339 0.047321 -0.079997
0.465339 0.065857 -0.027752
0.465339 0.044132 -0.029039
0.465339 -0.002160 -0.035905
0.465339 -0.030817 0.059727
0.465339 -0.084723 -0.050936
0.465339 -0.000827 -0.004901
0.465339 0.073376 0.031792
0.465339 0.007857 -0.009478
0.465339 0.076411 0.034318
0.465339 -0.035506 0.034031
0.465339 0.011459 -0.046718
0.465339 -0.064496 -0.069000
0.465339 0.066262 0.038964
0.465339 -0.049769 -0.045499
0.465339 0.007002 -0.019964
0.465339 -0.082255 -0.015456
0.465339 -0.020043 -0.082536
0.465339 -0.046469 0.043201
0.465339 -0.007235 0.044596
0.465339 -0.041312 -0.034952
0.465339 -0.057704 -0.008668
0.465339 -0.012765 -0.089264
0.465339 -0.088531 -0.003705
0.465339 -0.017570 0.057463
0.465339 -0.083608 0.012106
0.465339 0.000993 0.091608
0.465339 -0.010248 -0.078540
0.465339 0.062608 -0.061986
0.465339 0.033097 -0.043231
0.465339 -0.019137 0.001512
0.465339 0.052901 -0.050857
0.465339 -0.073919 0.056756
0.465339 0.000155 -0.048267
0.465339 0.048185 -0.039563
0.465339 -0.062753 -0.008449
0.465339 -0.042851 0.087615
0.465339 -0.003092 -0.060625
0.465339 -0.064759 -0.030892
0.465339 0.051394 0.001982
0.465339 -0.070247 0.057372
0.465339 0.092658 -0.004934
0.465339 0.085374 -0.037887
0.465339 -0.008008 0.053913
0.465339 -0.011706 -0.024822
0.465339 0.021627 0.015343
0.465339 0.034969 0.086730
0.465339 0.041844 0.017245
0.465339 0.032948 0.002913
0.465339 -0.092357 -0.009042
0.465339 0.000555 -0.061084
0.465339 0.013505 0.017295
0.465339 0.064568 0.035878
0.465339 -0.029725 0.025581
0.465339 0.020765 0.018464
0.465339 -0.030282 -0.012825
0.465339 -0.083414 -0.016792
0.465339 -0.021800 0.083480
0.465339 0.077655 -0.009889
0.465339 0.094381 -0.032668
0.465339 0.052811 0.071380
0.465339 -0.007721 0.072348
0.465339 -0.089934 -0.025615
0.465339 0.047921 -0.008643
0.465339 -0.009287 0.089967
0.465339 0.037746 0.080246
0.465339 -0.008866 0.013415
0.465339 -0.010093 -0.025031
0.465339 0.080648 -0.005312
0.465339 -0.019376 -0.041167
0.465339 0.009057 0.066720
0.465339 0.018404 0.021375
0.465339 0.073822 -0.049343
0.465339 0.024581 -0.067459
0.465339 0.060061 0.064924
0.465339 -0.042369 0.065285
0.465339 0.081240 -0.040587
0.465339 -0.050904 0.037761
0.465339 0.020550 0.039815
0.465339 0.004776 -0.048677
0.465339 -0.016973 -0.033327
0.465339 -0.014667 0.058281
0.465339 0.083656 -0.041935
0.465339 -0.018563 0.035030
0.465339 0.063652 0.047914
0.465339 -0.040513 -0.036435
0.465339 -0.008428 0.037201
0.465339 0.052259 0.025897
0.465339 0.034649 0.064948
0.465339 0.064380 0.006387
0.465339 -0.018168 0.027875
0.465339 -0.084897 0.033735
0.465339 0.061253 -0.027205
0.465339 -0.065163 0.018250
0.465339 -0.089639 -0.004542
0.465339 -0.027728 0.028984
0.465339 -0.047119 0.034343
0.465339 -0.004770 -0.013722
0.465339 0.089737 0.015600
0.465339 0.002960 -0.054453
0.465339 -0.013352 0.044523
0.465339 0.058310 -0.052331
0.465339 -0.043982 0.040993
0.465339 -0.039469 -0.010438
0.465339 0.044503 0.066679
0.465339 -0.057872 0.025068
0.465339 0.050615 0.005352
0.465339 0.027937 -0.093689
0.465339 0.066400 0.007020
0.465339 0.025154 0.048286
0.465339 -0.005305 0.099193
0.465339 -0.054756 0.016717
0.465339 -0.015457 0.037823
0.465339 -0.063762 -0.049274
0.465339 0.020406 0.061570
0.465339 -0.046272 -0.066883
0.465339 -0.035449 0.013764
0.465339 -0.055870 0.065873
0.465339 -0.048295 -0.037243
0.465339 -0.043774 0.010079
0.465339 0.050815 0.049464
0.465339 0.094312 -0.011671
0.465339 -0.038873 0.052980
0.465339 0.088799 -0.012381
0.465339 0.028300 0.084753
0.465339 -0.004640 0.031670
0.465339 -0.020150 0.061719
0.465339 0.054269 -0.052816
0.465339 -0.053803 0.026600
0.465339 0.068237 0.046592
0.465339 -0.018623 -0.034835
0.465339 0.062482 0.050693
0.465339 -0.027917 -0.003328
0.465339 0.042647 -0.073540
0.465339 0.038507 -0.073583
0.465339 -0.076126 -0.036537
0.465339 0.049833 -0.020352
0.465339 0.050472 -0.079815
0.465339 -0.029654 -0.078515
0.465339 0.003523 0.000795
0.465339 -0.099016 0.010287
0.465339 -0.070136 -0.035657
0.465339 0.029475 -0.093073
0.465339 -0.000666 -0.070405
0.465339 -0.015693 0.093957
0.465339 0.003900 0.032116
0.465339 0.080176 -0.054183
0.465339 0.027064 0.072004
0.465339 0.001604 -0.048008
0.465339 -0.068715 0.003740
0.465339 0.040863 -0.016479
0.465339 0.010857 -0.036160
0.465339 -0.009603 -0.035293
0.465339 -0.058993 -0.027448
0.465339 -0.085086 0.027640
0.465339 0.026289 -0.072746
0.465339 0.026716 0.013721
0.465339 0.073489 0.067413
0.465339 0.017034 -0.091284
0.465339 -0.043950 -0.039005
0.465339 -0.013188 -0.027800
0.465339 0.074921 0.032236
0.465339 0.082267 -0.055542
0.465339 -0.065765 0.042388
0.465339 -0.067616 0.073115
0.465339 0.050793 0.064245
0.465339 0.082560 0.045242
0.465339 -0.009342 0.082682
0.465339 0.049459 -0.077844
0.465339 -0.095588 -0.018121
0.465339 0.066097 0.015410
0.465339 -0.022073 -0.011359
0.465339 0.044284 -0.089001
0.465339 0.078095 -0.040252
0.465339 -0.044457 -0.007980
0.465339 -0.020184 -0.094945
0.465339 0.019121 0.026399
0.465339 -0.006815 0.008347
0.465339 0.034903 0.000400
0.465339 0.021952 0.033201
0.465339 0.062237 -0.005188
0.465339 0.057371 0.016005
0.465339 0.026845 0.044582
0.465339 0.005235 -0.086935
0.465339 0.045423 -0.082716
0.465339 0.045292 0.061717
0.465339 -0.072186 -0.066167
0.465339 -0.066995 -0.002250
0.465339 -0.097660 0.010817
0.465339 -0.040592 0.019968
0.465339 0.047978 0.017815
0.465339 -0.043228 0.085947
0.465339 0.038548 -0.041458
0.465339 0.073458 -0.008034
0.465339 0.020383 -0.009968
0.465339 0.013663 -0.005730
0.465339 0.014272 0.031577
0.465339 0.005092 0.011047
0.465339 0.058557 0.031438
0.465339 0.012681 0.011236
0.465339 0.052223 0.072850
0.465339 -0.054561 -0.013699
0.465339 -0.079572 -0.022574
0.465339 0.026704 0.074583
0.465339 -0.001425 -0.050454
0.465339 0.031342 -0.090019
0.465339 0.043851 -0.080652
0.465339 0.042639 0.050950
0.465339 -0.006522 0.064862
0.465339 0.009438 0.050398
0.465339 -0.002375 -0.062762
0.465339 -0.029189 0.043383
0.465339 -0.063016 -0.052207
0.465339 0.070379 0.032762
0.465339 0.011712 0.056563
0.465339 -0.051080 0.042930
0.465339 0.003114 0.094449
0.465339 -0.044433 -0.030322
0.465339 0.027436 0.079653
0.465339 -0.005979 0.013768
0.465339 -0.096573 0.011779
0.465339 0.065087 -0.073310
0.465339 0.094698 -0.026715
0.465339 -0.027482 0.092754
0.465339 0.045594 0.063741
0.465339 -0.054392 -0.024485
0.465339 -0.046074 0.047345
0.465339 0.085028 -0.052172
0.465339 0.023051 0.053406
0.465339 -0.047702 0.032915
0.465339 -0.026365 0.062887
0.465339 -0.008665 0.091482
0.465339 0.070573 -0.012578
0.465339 -0.059337 0.067640
0.465339 -0.086056 0.013512
0.465339 -0.067531 0.023002
0.465339 -0.009371 0.034373
0.465339 0.017427 -0.034384
0.465339 0.022605 0.011626
0.465339 -0.062431 -0.041455
0.465339 0.014507 -0.002877
0.465339 0.074713 0.022916
0.465339 -0.009300 -0.033516
0.465339 0.073488 -0.015430
0.465339 -0.071351 0.043115
0.465339 -0.056223 -0.033606
0.465339 -0.005179 -0.070593
0.465339 0.003070 0.050651
0.465339 -0.033252 0.022574
0.465339 -0.038895 -0.076787
0.465339 -0.018266 0.009781
0.465339 0.078109 0.046238
0.465339 0.025273 -0.080518
0.465339 0.012933 -0.049062
0.465339 -0.057504 -0.053153
0.465339 0.017978 0.093510
0.465339 0.030979 0.035578
0.465339 0.014980 -0.014632
0.465339 -0.039490 -0.046430
0.465339 0.005879 0.029035
0.465339 -0.054953 -0.057244
0.465339 -0.020236 0.054569
0.465339 -0.036283 0.006498
0.465339 -0.038053 0.000774
0.465339 -0.008024 0.009447
0.465339 -0.083760 -0.028891
0.465339 0.008337 -0.086857
0.465339 -0.013231 0.061073
0.465339 -0.066226 0.026370
0.465339 -0.044647 0.032494
0.465339 -0.041916 -0.084974
0.465339 0.066404 0.021029
0.465339 0.085864 0.022785
0.465339 -0.062908 0.002325
0.465339 0.022590 -0.028593
0.465339 0.080719 -0.012160
0.465339 0.044306 -0.050762
0.465339 0.086455 0.031829
0.465339 -0.007692 -0.089310
0.465339 0.015764 0.073707
0.465339 0.062690 0.054444
0.465339 0.012075 0.007126
0.465339 0.045224 0.082973
0.465339 0.087794 0.009962
0.465339 0.068429 0.069768
0.465339 -0.019679 0.027443
0.465339 -0.062505 0.027139
0.465339 -0.046698 -0.005162
0.465339 -0.069349 0.024205
0.465339 0.001740 -0.067347
0.465339 -0.037563 0.008127
0.465339 -0.016378 -0.091325
0.465339 -0.011018 0.087354
0.465339 -0.093394 0.004934
0.465339 -0.069768 0.002028
0.465339 -0.071981 0.008457
0.465339 0.017709 0.032740
0.465339 -0.055410 -0.070620
0.465339 0.071726 0.000239
0.465339 0.070494 0.068576
0.465339 -0.066602 0.036983
0.465339 -0.032852 0.072538
0.465339 0.069384 0.006975
0.465339 0.071216 -0.036573
0.465339 0.056458 -0.024252
0.465339 -0.002537 -0.028840
0.465339 -0.056125 -0.011455
0.465339 0.073084 0.014656
0.465339 0.040031 -0.049551
0.465339 -0.012475 -0.058507
0.465339 -0.011771 0.008966
0.465339 0.059628 -0.009715
0.465339 0.050103 -0.045444
0.465339 -0.014033 0.034077
0.465339 -0.026069 0.093578
0.465339 -0.086022 -0.000376
0.465339 -0.016705 0.047416
0.465339 0.033152 0.028930
0.465339 0.026904 0.058293
0.465339 0.048394 -0.018809
0.465339 0.080133 0.009401
0.465339 0.055618 0.007671
0.465339 0.062500 0.046791
0.465339 0.021251 -0.094889
0.465339 0.078492 -0.020196
0.465339 -0.059469 0.024034
0.465339 -0.094933 -0.029836
0.465339 0.075572 -0.012536
0.465339 -0.055331 0.001197
0.465339 0.037694 0.078044
0.465339 -0.021574 0.093758
0.465339 -0.078582 0.045000
0.465339 0.052268 -0.052165
0.465339 -0.023524 0.023898
0.465339 0.029778 -0.084688
0.465339 0.054278 -0.081828
0.465339 0.000583 0.023158
0.465339 -0.067811 0.012075
0.465339 -0.018876 -0.004910
0.465339 0.047474 0.000562
0.465339 -0.015418 -0.069999
0.465339 -0.024690 0.009278
0.465339 -0.052995 -0.017791
0.465339 -0.079618 0.041098
0.465339 -0.013005 0.075925
0.465339 -0.004407 0.001601
0.465339 0.050521 0.026150
0.465339 -0.044172 0.089335
0.465339 0.074331 0.047758
0.465339 -0.017490 -0.069106
0.465339 0.077781 -0.051262
0.465339 0.057495 -0.029880
0.465339 -0.045216 -0.046888
0.465339 -0.094154 -0.015082
0.465339 -0.051998 0.072475
0.465339 -0.003178 -0.056664
0.465339 -0.055827 0.049447
0.465339 -0.045983 -0.043897
0.465339 0.083136 -0.025349
0.465339 0.071251 -0.064360
0.465339 0.057417 0.054285
0.465339 -0.043971 -0.051984
0.465339 0.010434 0.061628
0.465339 0.002695 0.073237
0.465339 -0.077188 -0.008470
0.465339 0.062434 0.052420
0.465339 0.069717 0.046085
0.465339 0.082487 -0.002875
0.465339 0.036488 0.071037
0.465339 -0.002773 0.087822
0.465339 -0.088383 0.045635
0.465339 0.015269 -0.079919
0.465339 -0.019012 -0.045221
0.465339 0.030393 -0.051160
0.465339 -0.064841 0.023019
0.465339 0.083708 -0.035514
0.465339 -0.002491 -0.078866
0.465339 0.066858 0.064573
0.465339 0.054972 -0.046253
0.465339 -0.069799 0.005620
0.465339 -0.032661 -0.058758
0.465339 0.037334 0.031194
0.465339 -0.028374 -0.084336
0.465339 -0.037054 -0.040486
0.465339 -0.073468 -0.035049
0.465339 0.080291 -0.049686
0.465339 -0.014889 -0.010389
0.465339 -0.079229 -0.056752
0.465339 0.077669 0.047676
0.465339 -0.002678 -0.089015
0.465339 0.031234 -0.031400
0.465339 0.043125 -0.054304
0.465339 -0.046107 -0.020245
0.465339 -0.073487 -0.054747
0.465339 -0.087219 0.032977
0.465339 -0.015212 -0.035487
0.465339 -0.033918 0.003098
0.465339 0.057488 -0.081454
0.465339 0.080923 -0.021464
0.465339 -0.025736 0.047104
0.465339 0.058706 -0.040204
0.465339 -0.084428 0.007120
0.465339 -0.032767 -0.014826
0.465339 -0.004701 0.013007
0.465339 0.007468 -0.075766
0.465339 0.002636 -0.089190
0.465339 0.084001 0.044371
0.465339 0.081119 0.040661
0.465339 -0.043978 0.004210
0.465339 0.027357 0.023731
0.465339 -0.003025 -0.044656
0.465339 0.068044 -0.058702
0.465339 -0.080185 0.003303
0.465339 -0.049640 -0.001768
0.465339 -0.031585 -0.045866
0.465339 0.075586 0.050400
0.465339 -0.064205 0.042542
0.465339 0.044026 0.051569
0.465339 0.047918 0.010079
0.465339 -0.006242 0.090794
0.465339 0.046112 -0.001412
0.465339 0.018226 -0.049155
0.465339 0.044660 0.044191
0.465339 0.097200 -0.022149
0.465339 -0.054425 0.012001
0.465339 -0.059485 -0.039881
0.465339 -0.076504 0.058018
0.465339 -0.064285 0.045742
0.465339 0.057300 -0.045214
0.465339 -0.056771 0.075278
0.465339 -0.014983 0.044702
0.465339 -0.087266 0.029027
0.465339 -0.035933 0.064294
0.465339 -0.066196 0.007417
0.465339 -0.011047 0.089582
0.465339 0.021713 0.045830
0.465339 -0.043599 0.083675
0.465339 -0.075910 0.036291
0.465339 -0.021802 -0.095700
0.465339 0.022242 -0.054993
0.465339 -0.016331 -0.022100
0.465339 -0.024230 -0.049757
0.465339 -0.018946 0.097621
0.465339 0.049987 0.046873
0.465339 -0.058037 0.003696
0.465339 -0.049812 0.019211
0.465339 0.056217 0.073337
0.465339 -0.056026 0.051232
0.465339 0.038322 0.042433
0.465339 0.004214 0.024719
0.465339 0.011759 0.062283
0.465339 0.013249 -0.092076
0.465339 0.068399 0.050988
0.465339 -0.052498 -0.008747
0.465339 0.077186 0.009768
0.465339 0.062385 -0.038530
0.465339 0.000456 0.000733
0.465339 0.065839 0.048404
0.465339 -0.023816 0.031822
0.465339 0.067161 -0.072703
0.465339 -0.060771 -0.048159
0.465339 -0.030354 -0.050388
0.465339 -0.073415 -0.045799
0.465339 0.055245 0.022386
0.465339 -0.039278 0.067224
0.465339 -0.032237 0.016559
0.465339 -0.019407 -0.017021
0.465339 -0.077570 0.011398
0.465339 -0.033185 0.046176
0.465339 0.019728 -0.053963
0.465339 -0.095158 0.014196
0.465339 0.064283 -0.019823
0.465339 0.000989 0.087176
0.465339 -0.001242 0.084932
0.465339 0.066647 0.041949
0.465339 0.026198 0.035762
0.465339 0.049961 0.018478
0.465339 0.018042 -0.040958
0.465339 0.020228 0.046400
0.465339 0.098272 0.000303
0.465339 -0.023077 0.053665
0.465339 -0.082507 -0.041330
0.465339 -0.081743 -0.046126
0.465339 0.088428 -0.028740
0.465339 -0.031566 0.069399
0.465339 -0.060261 0.071469
0.465339 0.055528 -0.060669
0.465339 0.065704 -0.071963
0.465339 0.028657 -0.069515
0.465339 -0.060125 -0.014359
0.465339 0.098548 -0.007320
0.465339 -0.075465 0.041763
0.465339 -0.019112 0.029034
0.465339 -0.036419 -0.092724
0.465339 0.026749 0.078354
0.465339 -0.010311 0.067255
0.465339 0.017297 0.038059
0.465339 -0.069491 0.026611
0.465339 -0.032978 0.092949
0.465339 -0.013814 -0.031054
0.465339 0.048904 -0.026412
0.465339 -0.056617 0.039637
0.465339 -0.068176 -0.061274
0.465339 -0.044498 -0.071882
0.465339 -0.028598 0.081194
0.465339 -0.008641 -0.056241
0.465339 0.091502 -0.013663
0.465339 -0.062922 0.008517
0.465339 -0.090666 -0.031728
0.465339 -0.087261 0.012508
0.465339 0.025661 0.062822
0.465339 -0.012603 0.020771
0.465339 0.042712 -0.029305
0.465339 0.036192 -0.030073
0.465339 0.078721 -0.058410
0.465339 0.062516 -0.027754
0.465339 0.047433 0.086070
0.465339 0.000185 -0.040164
0.465339 0.015534 -0.055671
0.465339 -0.024867 -0.051332
0.465339 0.032164 0.021937
0.465339 0.006383 0.067757
0.465339 -0.005415 -0.060653
0.465339 0.039106 0.051120
0.465339 -0.026962 0.073750
0.465339 -0.012644 -0.092393
0.465339 0.020811 0.074507
0.465339 -0.086987 -0.042992
0.465339 0.081093 0.018885
0.465339 0.051278 0.031176
0.465339 0.057135 0.027965
0.465339 -0.061513 0.002474
0.465339 -0.051994 0.064004
0.465339 0.075034 -0.059908
0.465339 -0.048994 -0.067820
0.465339 0.069329 -0.063332
0.465339 -0.025297 -0.075578
0.465339 0.076057 0.056163
0.465339 0.008770 0.056076
0.465339 0.079151 -0.043519
0.465339 0.078988 -0.023603
0.465339 -0.068950 0.010420
0.465339 0.023013 -0.061546
0.465339 -0.015707 0.043069
0.465339 -0.010320 -0.094577
0.465339 0.052110 -0.000732
0.465339 0.044589 0.070558
0.465339 0.057828 -0.055766
0.465339 -0.038319 0.039921
0.465339 0.011770 0.097118
0.465339 0.082503 0.055860
0.465339 0.019684 -0.076276
0.465339 -0.034838 0.079804
0.465339 0.089577 0.030001
0.465339 -0.041069 0.024140
0.465339 -0.067164 0.049911
0.465339 -0.034115 -0.039627
0.465339 0.039421 0.081167
0.465339 0.088162 -0.022231
0.465339 0.079949 0.020629
0.465339 -0.050643 -0.037898
0.465339 0.043018 0.001191
0.465339 0.007640 -0.000119
0.465339 -0.042493 0.090442
0.465339 0.033072 -0.047050
0.465339 -0.069937 0.036711
0.465339 -0.005801 -0.042956
0.465339 -0.013803 -0.055353
0.465339 0.086238 -0.007908
0.465339 0.027831 -0.095731
0.465339 -0.087288 0.042119
0.465339 0.025470 0.084678
0.465339 -0.058659 -0.061999
0.465339 0.036767 0.036054
0.465339 -0.079509 -0.059912
0.465339 -0.082123 0.055509
0.465339 -0.035673 -0.058789
0.465339 0.020913 -0.093468
0.465339 -0.008858 -0.076717
0.465339 0.012855 0.032769
0.465339 0.021088 -0.056061
0.465339 -0.016523 -0.061736
0.465339 0.056012 0.035263
0.465339 -0.034477 0.036979
0.465339 -0.046424 -0.002530
0.465339 0.007641 0.053644
0.465339 -0.051623 -0.007496
0.465339 -0.012732 -0.060016
0.465339 0.060122 -0.043385
0.465339 0.043655 0.073527
0.465339 0.060913 -0.005496
0.465339 0.012937 -0.019779
0.465339 0.044296 -0.056103
0.465339 -0.072459 0.013050
0.465339 -0.010284 -0.043165
0.465339 -0.009040 -0.006923
0.465339 0.038541 0.058693
0.465339 -0.025692 -0.088432
0.465339 0.082199 -0.034764
0.465339 0.013836 -0.078890
0.465339 0.087998 0.020602
0.465339 -0.017194 0.082255
0.465339 0.065893 0.023801
0.465339 -0.047860 0.005302
0.465339 -0.040446 -0.020726
0.465339 -0.045736 -0.038451
0.465339 0.015877 -0.041873
0.465339 -0.042869 -0.061198
0.465339 -0.033529 -0.032267
0.465339 -0.022599 -0.013541
0.465339 -0.017817 -0.047581
0.465339 -0.018628 -0.015183
0.465339 -0.080522 -0.049246
0.465339 0.038316 0.060215
0.465339 0.021297 0.083873
0.465339 0.080735 -0.003136
0.465339 -0.078699 0.059158
0.465339 0.029287 0.064559
0.465339 0.024993 0.015911
0.465339 0.036751 0.018531
0.465339 0.009148 -0.018017
0.465339 -0.066070 -0.004085
0.465339 0.017613 0.025685
0.465339 -0.036240 0.055846
0.465339 0.010373 0.098919
0.465339 0.056197 0.062431
0.465339 0.001509 0.041361
0.465339 0.042839 0.015181
0.465339 -0.090759 0.032192
0.465339 -0.018552 0.043515
0.465339 0.081250 -0.043391
0.465339 -0.099341 0.007155
0.465339 -0.069495 -0.046791
0.465339 -0.031544 -0.094046
0.465339 0.021650 -0.017484
0.465339 0.062861 -0.020530
0.465339 0.077346 -0.047696
0.465339 0.026589 -0.013951
0.465339 -0.075277 0.059823
0.465339 0.092599 -0.008248
0.465339 0.020624 -0.064508
0.465339 -0.014542 -0.040011
0.465339 0.040129 -0.026459
0.465339 -0.006339 0.009846
0.465339 -0.000513 -0.024106
0.465339 0.015970 -0.008015
0.465339 -0.008010 -0.005845
0.465339 -0.087990 -0.029316
0.465339 0.002812 0.076359
0.465339 0.033115 0.020472
0.465339 -0.016287 0.088283
0.465339 -0.000531 -0.092576
0.465339 0.028658 -0.061543
0.465339 0.052954 0.083347
0.465339 0.053734 0.022932
0.465339 0.020202 0.000637
0.465339 -0.069601 0.052479
0.465339 0.068423 0.040888
0.465339 0.003966 0.033576
0.465339 0.041243 0.026494
0.465339 -0.042444 -0.029522
0.465339 -0.042739 -0.045067
0.465339 0.014493 -0.046483
0.465339 0.062956 -0.063398
0.465339 -0.035981 0.039054
0.465339 -0.037482 -0.071629
0.465339 -0.001218 0.064585
0.465339 -0.006884 0.095744
0.465339 -0.018900 -0.083766
0.465339 0.074818 0.036093
0.465339 -0.015503 0.049389
0.465339 -0.041236 0.029634
0.465339 0.059260 -0.074707
0.465339 -0.056505 -0.041990
0.465339 0.059848 0.045002
0.465339 -0.020578 0.092592
0.465339 0.065875 -0.057207
0.465339 -0.012406 -0.076043
0.465339 0.076993 -0.008405
0.465339 0.056750 -0.037035
0.465339 -0.046931 -0.082407
0.465339 0.014522 -0.085293
0.465339 0.056728 -0.002433
0.465339 0.037877 -0.025439
0.465339 0.054691 0.033886
0.465339 -0.086308 -0.048392
0.465339 0.060998 0.047950
0.465339 0.027210 -0.020356
0.465339 -0.046888 -0.025291
0.465339 0.047620 0.032793
0.465339 -0.029551 -0.076386
0.465339 0.000698 0.085336
0.465339 0.073990 -0.005203
0.465339 -0.080888 0.045368
0.465339 -0.000762 0.036740
0.465339 0.045524 -0.025551
0.465339 -0.024601 0.093361
0.465339 -0.079074 -0.053562
0.465339 0.058153 -0.061384
0.465339 0.030791 -0.027732
0.465339 -0.077221 -0.050698
0.465339 0.046776 0.031289
0.465339 -0.029922 -0.008254
0.465339 0.026273 0.066955
0.465339 -0.021907 -0.054665
0.465339 0.021052 0.080859
0.465339 -0.092077 -0.001246
0.465339 0.067610 -0.020151
0.465339 0.087772 0.048002
0.465339 0.035024 0.082124
0.465339 -0.079641 -0.038999
0.465339 0.085700 0.042829
0.465339 -0.053390 -0.016349
0.465339 0.018408 0.048444
0.465339 -0.007272 -0.061166
0.465339 -0.054915 0.057118
0.465339 -0.040189 -0.081282
0.465339 -0.035664 0.023472
0.465339 0.001224 -0.035801
0.465339 0.057355 0.066731
0.465339 0.010040 -0.033372
0.465339 0.016121 -0.040321
0.465339 0.001005 0.051054
0.465339 0.027530 -0.060544
0.465339 -0.065030 -0.055985
0.465339 0.039523 -0.015533
0.465339 -0.050991 -0.001103
0.465339 0.055054 0.057217
0.465339 -0.004184 0.048362
0.465339 -0.029483 -0.064220
0.465339 -0.037683 -0.030701
0.465339 -0.022984 0.026407
0.465339 0.010046 0.047571
0.465339 -0.052482 0.074225
0.465339 0.027897 -0.013550
0.465339 0.041231 -0.079037
0.465339 0.063812 0.028000
0.465339 0.071730 0.057174
0.465339 -0.027392 0.051754
0.465339 -0.068508 0.032043
0.465339 0.078302 0.008870
0.465339 -0.043018 -0.028041
0.465339 0.098726 -0.014149
0.465339 0.027333 0.004410
0.465339 0.003652 -0.027478
0.465339 -0.072096 0.020839
0.465339 -0.039442 0.060942
0.465339 0.018567 0.023093
0.465339 0.006965 -0.080878
0.465339 -0.022402 -0.017550
0.465339 0.063825 0.051089
0.465339 0.026062 0.005758
0.465339 -0.059644 0.025930
0.465339 -0.056632 -0.019797
0.465339 0.074260 -0.058447
0.465339 -0.028705 -0.029925
0.465339 0.002038 0.085777
0.465339 -0.020980 -0.050333
0.465339 -0.021895 0.035371
0.465339 0.025125 -0.038862
0.465339 0.094539 -0.018709
0.465339 -0.031987 0.058190
0.465339 0.095977 -0.010740
0.465339 0.034720 -0.026058
0.465339 0.063712 0.022129
0.465339 -0.007447 -0.033529
0.465339 -0.058692 0.074510
0.465339 -0.002683 -0.040818
0.465339 0.032145 0.049978
0.465339 0.017653 0.034479
0.465339 0.022135 0.090849
0.465339 0.011436 0.037000
0.465339 0.049255 -0.017151
0.465339 0.007230 0.089226
0.465339 0.029188 -0.060085
0.465339 -0.074562 0.003370
0.465339 -0.014273 0.004222
0.465339 0.002903 0.067840
0.465339 -0.091235 0.039524
0.465339 -0.041812 -0.068561
0.465339 -0.011211 0.095915
0.465339 0.043896 -0.040457
0.465339 0.045302 0.013954
0.465339 -0.008929 0.049842
0.465339 0.004260 -0.089867
0.465339 -0.040517 -0.084188
0.465339 -0.083144 0.029839
0.465339 -0.067455 -0.028440
0.465339 -0.093449 0.034716
0.465339 -0.064970 0.030612
0.465339 0.052811 0.050169
0.465339 0.067161 0.022328
0.465339 0.009219 0.068368
0.465339 0.093901 0.033677
0.465339 -0.097202 -0.018356
0.465339 -0.058540 -0.037765
0.465339 -0.062439 0.017534
0.465339 -0.002899 0.093095
0.465339 -0.023753 0.016345
0.465339 0.032274 0.053305
0.465339 -0.062006 0.051991
0.465339 0.074641 -0.064360
0.465339 0.044638 -0.038920
0.465339 -0.034050 0.042253
0.465339 0.090861 -0.027217
0.465339 0.059120 -0.032252
0.465339 0.061168 0.069735
0.465339 -0.019569 -0.067750
0.465339 -0.034261 0.049372
0.465339 -0.047713 -0.083605
0.465339 -0.020205 0.018692
0.465339 -0.056479 0.047596
0.465339 -0.033500 -0.076884
0.465339 0.045695 0.030280
0.465339 -0.023785 0.061578
0.465339 -0.080270 0.024941
0.465339 -0.017546 0.091513
0.465339 0.037662 0.065613
0.465339 -0.014787 0.095208
0.465339 -0.072798 -0.000615
0.465339 -0.010086 0.059994
0.465339 -0.078640 0.028266
0.465339 -0.089189 -0.009440
0.465339 -0.038220 -0.024342
0.465339 -0.063417 0.041138
0.465339 0.031147 0.060782
0.465339 -0.043504 -0.041165
0.465339 0.041597 0.001678
0.465339 -0.039856 0.010717
0.465339 -0.051313 0.024540
0.465339 0.074626 0.006877
0.465339 -0.014675 0.078098
0.465339 0.012462 -0.082102
0.465339 -0.063272 -0.050558
0.465339 0.088259 -0.037905
0.465339 0.031883 0.089336
0.465339 0.056218 0.026893
0.465339 0.025057 0.052838
0.465339 -0.044886 -0.082173
0.465339 -0.021452 -0.089937
0.465339 0.060730 -0.046887
0.465339 0.013638 -0.086464
0.465339 0.029954 -0.070317
0.465339 0.006219 -0.030474
0.465339 -0.066971 0.019925
0.465339 -0.075661 -0.016534
0.465339 0.085608 0.030527
0.465339 0.049974 -0.006645
0.465339 -0.050483 -0.055948
0.465339 -0.041890 -0.002670
0.465339 -0.059940 0.047554
0.465339 0.034256 -0.093012
0.465339 0.040215 0.019441
0.465339 0.082043 -0.030180
0.465339 -0.034077 0.014381
0.465339 0.033308 0.048202
0.465339 0.060882 0.009486
0.465339 -0.014973 0.009077
0.465339 -0.055851 -0.055949
0.465339 -0.056552 0.008998
0.465339 0.084183 0.053768
0.465339 0.039619 0.017760
0.465339 0.012833 -0.072961
0.465339 -0.057735 0.022599
0.465339 -0.036308 0.080206
0.465339 0.042283 0.009128
0.465339 0.016362 0.031748
0.465339 0.029925 0.002329
0.465339 0.003858 0.078966
0.465339 0.041276 0.005904
0.465339 -0.082646 0.009427
0.465339 0.034305 -0.090460
0.465339 0.028261 -0.022844
0.465339 0.031521 0.028721
0.465339 0.043099 0.090194
0.465339 0.001331 0.066822
0.465339 0.060295 0.079495
0.465339 -0.065918 -0.005701
0.465339 0.093429 -0.019834
0.465339 -0.016591 -0.080199
0.465339 -0.009352 -0.037418
0.465339 0.071156 0.018817
0.465339 -0.060097 0.069501
0.465339 0.062819 0.069061
0.465339 0.005843 -0.072572
0.465339 0.063932 0.053224
0.465339 -0.033224 -0.070546
0.465339 0.060041 0.077148
0.465339 0.009801 0.089324
0.465339 0.079690 0.004361
0.465339 -0.051263 0.046889
0.465339 -0.045385 0.084350
0.465339 0.021210 0.013671
0.465339 -0.081913 -0.017008
0.465339 0.083411 0.040145
0.465339 -0.012388 0.048048
0.465339 0.058955 -0.023922
0.465339 -0.013355 0.041503
0.465339 -0.071274 0.039495
0.465339 0.081690 0.013735
0.465339 -0.030562 0.036665
0.465339 0.042435 -0.025091
0.465339 -0.087838 0.016216
0.465339 0.020032 -0.063255
0.465339 0.012069 -0.089186
0.465339 -0.065331 -0.002575
0.465339 -0.003744 -0.062171
0.465339 -0.001124 0.008785
0.465339 0.039553 0.061180
0.465339 0.055506 -0.044071
0.465339 -0.041541 -0.044263
0.465339 -0.015980 -0.038628
0.465339 0.026061 0.038027
0.465339 0.010290 -0.004205
0.465339 0.058099 -0.048546
0.465339 -0.002728 -0.053341
0.465339 0.056619 -0.033952
0.465339 0.041539 0.019004
0.465339 0.080790 0.044208
0.465339 -0.010331 -0.046619
0.465339 -0.037548 -0.046423
0.465339 0.030921 -0.069281
0.465339 0.014024 0.076485
0.465339 -0.008368 -0.083236
0.465339 -0.006494 0.081258
0.465339 -0.071435 -0.001537
0.465339 0.058789 0.034925
0.465339 0.065916 -0.064972
0.465339 0.049457 0.072136
0.465339 0.016495 0.069570
0.465339 -0.038901 -0.078522
0.465339 -0.027575 0.086970
0.465339 0.004114 -0.009159
0.465339 0.082398 0.006426
0.465339 0.037029 0.055486
0.465339 0.015338 -0.071284
0.465339 0.034264 -0.022798
0.465339 0.047959 -0.074990
0.465339 0.076316 0.054573
0.465339 -0.004083 0.098074
0.465339 0.055109 0.055427
0.465339 -0.038172 -0.017403
0.465339 -0.014351 -0.080328
0.465339 -0.020734 -0.003758
0.465339 -0.098679 -0.006441
0.465339 0.008282 -0.074246
0.465339 -0.051881 -0.059017
0.465339 -0.040002 0.071585
0.465339 -0.063797 -0.002301
0.465339 -0.019367 -0.046791
0.465339 0.039811 -0.059692
0.465339 0.075317 0.018986
0.465339 -0.042584 0.088953
0.465339 -0.037579 0.005601
0.465339 -0.027156 -0.001899
0.465339 0.093173 0.009374
0.465339 -0.026624 -0.009234
0.465339 0.017989 0.073044
0.465339 -0.015451 -0.018628
0.465339 0.051139 0.077161
0.465339 0.069526 -0.030987
0.465339 0.036934 -0.026743
0.465339 0.038902 0.046066
0.465339 -0.092364 0.025834
0.465339 -0.010775 -0.087158
0.465339 0.008380 0.048844
0.465339 0.077876 0.002089
0.465339 0.027336 -0.030746
0.465339 0.063919 -0.053310
0.465339 0.047476 -0.037673
0.465339 0.071553 0.055680
0.465339 -0.081785 -0.053905
0.465339 0.050245 -0.057482
0.465339 -0.078886 0.054146
0.465339 0.090574 0.017057
0.465339 0.014487 0.027548
0.465339 0.051128 0.032801
0.465339 -0.037154 0.021323
0.465339 -0.054704 -0.026261
0.465339 0.038891 0.090799
0.465339 0.012572 -0.008757
0.465339 0.003456 -0.060456
0.465339 0.014398 0.040534
0.465339 0.091894 -0.037951
0.465339 -0.081109 0.002245
0.465339 -0.012153 -0.006389
0.465339 -0.062549 -0.075601
0.465339 -0.071426 0.035306
0.465339 -0.076483 0.042852
0.465339 0.004069 -0.093075
0.465339 -0.071373 -0.060855
0.465339 -0.005437 -0.051699
0.465339 0.029436 0.055116
0.465339 0.090357 0.021404
0.465339 -0.052825 -0.057595
0.465339 -0.059406 0.072946
0.465339 0.003041 0.066142
0.465339 0.035159 0.051131
0.465339 -0.038497 -0.056187
0.465339 -0.000784 -0.012906
0.465339 -0.014906 0.035151
0.465339 -0.053862 0.053376
0.465339 -0.049257 -0.039384
0.465339 -0.066146 -0.037907
0.465339 0.067424 -0.063378
0.465339 0.050502 -0.011118
0.465339 0.048195 0.034486
0.465339 0.091502 -0.017197
0.465339 0.009857 0.009670
0.465339 -0.037286 0.035702
0.465339 -0.023127 -0.036141
0.465339 -0.005316 -0.011175
0.465339 -0.054405 -0.031065
0.465339 -0.009954 -0.026688
0.465339 -0.037479 0.063297
0.465339 0.000032 0.045047
0.465339 0.059769 -0.002340
0.465339 0.047587 -0.035930
0.465339 0.010488 0.095518
0.465339 0.016929 -0.096292
0.465339 0.038201 -0.030678
0.465339 0.061906 0.065940
0.465339 0.015994 -0.092359
0.465339 0.015905 -0.093915
0.465339 -0.073311 -0.041126
0.465339 -0.064601 0.004796
0.465339 -0.023717 0.066579
0.465339 0.046653 0.078699
0.465339 -0.087511 -0.032501
0.465339 0.056976 0.014322
0.465339 0.015588 0.053653
0.465339 0.048955 -0.028295
0.465339 0.049224 0.012829
0.465339 -0.023059 -0.056074
0.465339 -0.028426 -0.068429
0.465339 0.091197 0.040822
0.465339 0.079167 0.041053
0.465339 -0.060215 0.033948
0.465339 0.008690 0.095621
0.465339 0.016161 -0.073952
0.465339 0.024554 -0.052742
0.465339 -0.039677 0.029888
0.465339 -0.036409 0.089863
0.465339 -0.048670 -0.034088
0.465339 -0.065795 0.028163
0.465339 0.044370 0.042612
0.465339 -0.012892 -0.079628
0.465339 0.018777 -0.093857
0.465339 0.079320 -0.034501
0.465339 -0.014829 -0.003329
0.465339 -0.026580 -0.059033
0.465339 -0.008518 0.035820
0.465339 -0.005829 0.019266
0.465339 0.073088 -0.022682
0.465339 0.015229 0.082435
0.465339 0.028521 -0.011527
0.465339 -0.029697 0.077270
0.465339 -0.025154 0.060777
0.465339 -0.047670 -0.067130
0.465339 -0.067005 0.008780
0.465339 0.005624 -0.002376
0.465339 -0.034652 -0.050303
0.465339 0.016430 0.018525
0.465339 -0.074632 0.005217
0.465339 -0.011000 -0.029943
0.465339 0.066920 0.013931
0.465339 -0.005837 -0.055048
0.465339 -0.086678 0.036470
0.465339 0.081868 0.015331
0.465339 -0.015071 -0.061269
0.465339 0.030749 0.020688
0.465339 -0.023598 0.073532
0.465339 -0.070761 -0.024913
0.465339 -0.041079 0.041400
0.465339 0.055131 0.053590
0.465339 0.031490 -0.084282
0.465339 0.019878 -0.011488
0.465339 0.030124 -0.053790
0.465339 -0.003390 0.060956
0.465339 0.002011 0.098249
0.465339 0.014702 -0.092975
0.465339 0.045666 -0.012819
0.465339 0.059261 -0.007918
0.465339 0.055265 -0.004315
0.465339 -0.005347 0.035827
0.465339 -0.030988 0.012471
0.465339 -0.042388 -0.088201
0.465339 -0.084775 0.022264
0.465339 0.027828 0.065505
0.465339 -0.077181 0.016236
0.465339 0.038827 0.000180
0.465339 -0.029756 -0.039728
0.465339 -0.034756 0.088117
0.465339 -0.025449 0.052974
0.465339 -0.010590 0.020383
0.465339 0.038666 0.027841
0.465339 -0.071023 0.058716
0.465339 -0.003559 0.027684
0.465339 -0.024617 0.020617
0.465339 0.011132 0.080207
0.465339 -0.011676 -0.055574
0.465339 -0.062479 -0.046240
0.465339 0.063651 -0.004783
0.465339 -0.061634 0.024035
0.465339 -0.068027 -0.050275
0.465339 0.070069 -0.032476
0.465339 -0.041538 -0.079663
0.465339 -0.045313 0.078509
0.465339 0.064159 -0.003274
0.465339 0.014597 0.006724
0.465339 0.094908 -0.022027
0.465339 -0.029954 0.057908
0.465339 -0.048566 0.015403
0.465339 0.071752 -0.066010
0.465339 -0.014996 -0.041347
