-0.466955 -0.062742 0.021537
-0.466955 0.032386 0.000968
-0.466955 -0.040903 -0.043662
-0.466955 -0.050056 -0.018352
-0.466955 -0.015738 0.013288
-0.466955 0.079056 -0.055435
-0.466955 -0.044709 -0.066794
-0.466955 0.067812 -0.022555
-0.466955 0.037079 0.052563
-0.466955 -0.009790 0.004785
-0.466955 -0.041928 -0.076913
-0.466955 -0.006922 -0.010675
-0.466955 -0.076527 0.001679
-0.466955 0.011704 0.082779
-0.466955 -0.074831 0.037561
-0.466955 -0.056589 -0.058975
-0.466955 -0.026415 0.023328
-0.466955 0.081858 -0.015715
-0.466955 0.042396 -0.005837
-0.466955 0.020969 -0.057653
-0.466955 0.003376 -0.052059
-0.466955 -0.022643 0.069245
-0.466955 -0.027736 0.041530
-0.466955 -0.081897 0.026326
-0.466955 0.026240 0.048668
-0.466955 0.011874 -0.008866
-0.466955 0.073729 -0.042368
-0.466955 0.049201 0.010757
-0.466955 0.030147 -0.009215
-0.466955 -0.084600 0.017259
-0.466955 -0.057571 -0.044323
-0.466955 -0.019134 0.075004
-0.466955 -0.031994 0.010064
-0.466955 0.060040 -0.046048
-0.466955 -0.065203 -0.059515
-0.466955 -0.029748 0.025633
-0.466955 -0.035724 0.012295
-0.466955 -0.031980 0.090333
-0.466955 0.047404 -0.076532
-0.466955 -0.054900 -0.051259
-0.466955 0.028337 -0.022821
-0.466955 0.028409 0.090993
-0.466955 0.028461 -0.012380
-0.466955 0.054802 -0.028651
-0.466955 0.071240 0.043480
-0.466955 0.014220 0.069595
-0.466955 -0.031499 -0.081480
-0.466955 -0.069448 0.058941
-0.466955 0.041419 0.046068
-0.466955 0.032901 -0.001400
-0.466955 0.012584 0.076557
-0.466955 -0.001392 -0.024566
-0.466955 -0.067733 -0.033635
-0.466955 0.028186 -0.029601
-0.466955 -0.089900 -0.024433
-0.466955 -0.024798 0.090312
-0.466955 0.045559 -0.061973
-0.466955 0.011398 0.048295
-0.466955 -0.001170 -0.007749
-0.466955 0.076226 0.029767
-0.466955 -0.044419 0.013101
-0.466955 -0.013021 -0.081213
-0.466955 -0.023293 -0.007736
-0.466955 -0.024120 -0.002026
-0.466955 0.066887 0.071005
-0.466955 -0.007309 0.031346
-0.466955 -0.055060 -0.032404
-0.466955 0.003868 -0.054679
-0.466955 -0.031252 0.006581
-0.466955 -0.027115 0.051343
-0.466955 -0.012844 0.072332
-0.466955 -0.014258 0.017793
-0.466955 -0.075642 0.056458
-0.466955 -0.055400 0.074515
-0.466955 -0.045570 0.009466
-0.466955 0.010960 -0.044420
-0.466955 0.052503 -0.068762
-0.466955 0.044621 0.068532
-0.466955 0.010822 -0.032494
-0.466955 0.021762 -0.063857
-0.466955 -0.022896 -0.063193
-0.466955 -0.051459 0.005357
-0.466955 -0.058097 0.031944
-0.466955 -0.065886 0.070503
-0.466955 0.072913 0.042004
-0.466955 -0.071627 -0.007020
-0.466955 0.082616 0.003870
-0.466955 -0.060903 0.064299
-0.466955 0.042724 0.010808
-0.466955 -0.088097 -0.005667
-0.466955 0.001225 -0.008320
-0.466955 0.027531 0.047437
-0.466955 0.050780 0.062506
-0.466955 -0.004904 -0.043731
-0.466955 0.001734 -0.015387
-0.466955 0.022521 -0.042647
-0.466955 -0.051913 0.048913
-0.466955 -0.070816 0.050867
-0.466955 0.031224 0.084486
-0.466955 -0.055922 -0.038611
-0.466955 0.034726 -0.001095
-0.466955 0.032346 -0.010459
-0.466955 0.037646 -0.035547
-0.466955 -0.084367 0.045507
-0.466955 0.065250 -0.004690
-0.466955 -0.004722 0.066099
-0.466955 -0.042017 0.087720
-0.466955 -0.015693 -0.078867
-0.466955 0.044870 -0.054476
-0.466955 0.069574 0.070854
-0.466955 0.015784 -0.030361
-0.466955 0.000309 0.026389
-0.466955 -0.026711 0.091134
-0.466955 0.026915 0.036309
-0.466955 0.036855 -0.039986
-0.466955 -0.025710 -0.028353
-0.466955 -0.089157 -0.003721
-0.466955 -0.004023 0.061066
-0.466955 -0.069010 -0.041131
-0.466955 -0.022900 -0.053436
-0.466955 0.095032 -0.020639
-0.466955 0.044733 0.083429
-0.466955 -0.078516 0.016184
-0.466955 -0.086137 0.027201
-0.466955 0.005340 0.046555
-0.466955 0.094329 -0.016339
-0.466955 0.014015 0.021661
-0.466955 -0.059718 0.004988
-0.466955 -0.042762 -0.058118
-0.466955 0.044421 -0.059505
-0.466955 0.048368 -0.019463
-0.466955 0.022805 0.009590
-0.466955 -0.082235 0.030089
-0.466955 -0.072925 -0.061564
-0.466955 0.086165 -0.050386
-0.466955 -0.005257 -0.066019
-0.466955 -0.025828 0.063626
-0.466955 0.004596 -0.021322
-0.466955 -0.045595 -0.043703
-0.466955 -0.038171 0.076505
-0.466955 -0.034461 0.011660
-0.466955 -0.039370 0.010738
-0.466955 -0.084582 -0.027989
-0.466955 0.072972 -0.027517
-0.466955 -0.066923 0.034920
-0.466955 -0.019758 0.009580
-0.466955 -0.005355 -0.052469
-0.466955 0.058795 0.062922
-0.466955 -0.060496 0.034477
-0.466955 -0.054296 -0.067623
-0.466955 0.018827 0.045983
-0.466955 0.002741 0.006777
-0.466955 -0.043826 -0.071207
-0.466955 0.073529 0.000292
-0.466955 0.028449 0.080524
-0.466955 -0.017571 0.093410
-0.466955 0.024077 -0.082401
-0.466955 -0.046770 -0.076348
-0.466955 0.028639 -0.046457
-0.466955 0.049033 -0.023759
-0.466955 -0.066108 -0.042796
-0.466955 -0.050893 -0.070753
-0.466955 -0.047959 -0.044634
-0.466955 0.046062 -0.058973
-0.466955 -0.015774 -0.065262
-0.466955 -0.052431 0.056349
-0.466955 0.054187 0.021381
-0.466955 0.021303 0.038833
-0.466955 -0.023493 -0.040509
-0.466955 -0.019722 -0.072960
-0.466955 -0.043028 0.029705
-0.466955 -0.079953 -0.015555
-0.466955 -0.068739 -0.025226
-0.466955 0.021506 0.064691
-0.466955 -0.065695 0.039782
-0.466955 0.019201 0.042088
-0.466955 0.061214 0.028801
-0.466955 -0.033983 0.021664
-0.466955 -0.012344 0.030777
-0.466955 0.081843 -0.057064
-0.466955 0.033287 -0.071541
-0.466955 -0.035417 0.081245
-0.466955 0.049139 0.073169
-0.466955 -0.088468 0.002725
-0.466955 0.000451 0.029404
-0.466955 -0.001060 0.043807
-0.466955 -0.016793 0.039539
-0.466955 0.027636 0.010117
-0.466955 0.046008 -0.047117
-0.466955 -0.019112 -0.055772
-0.466955 -0.035106 0.020520
-0.466955 0.045925 -0.076329
-0.466955 0.039954 -0.024961
-0.466955 -0.095124 0.023059
-0.466955 -0.012334 0.040589
-0.466955 0.096837 -0.014444
-0.466955 -0.020510 -0.007990
-0.466955 0.037116 -0.007166
-0.466955 -0.068657 -0.055024
-0.466955 -0.024621 -0.030197
-0.466955 -0.053905 -0.011821
-0.466955 0.034580 0.084524
-0.466955 0.012908 -0.096868
-0.466955 0.084705 0.007093
-0.466955 -0.065386 -0.039660
-0.466955 0.019842 0.031454
-0.466955 -0.093694 -0.029688
-0.466955 -0.074455 0.060531
-0.466955 -0.028991 0.005970
-0.466955 0.079796 -0.041133
-0.466955 0.056828 0.050325
-0.466955 0.008468 -0.023626
-0.466955 -0.014834 0.043473
-0.466955 0.062068 -0.015436
-0.466955 -0.019394 0.089295
-0.466955 -0.038264 0.090719
-0.466955 0.030894 -0.075740
-0.466955 -0.083888 -0.007717
-0.466955 -0.031240 0.008590
-0.466955 0.029092 0.026313
-0.466955 -0.026920 0.059766
-0.466955 -0.044374 0.017563
-0.466955 0.042094 -0.008784
-0.466955 -0.092295 -0.022436
-0.466955 -0.020527 0.070209
-0.466955 0.042180 -0.013392
-0.466955 -0.027767 0.066130
-0.466955 -0.016876 -0.013067
-0.466955 0.081112 -0.042050
-0.466955 -0.049208 -0.022558
-0.466955 -0.000182 0.045924
-0.466955 0.032927 -0.036170
-0.466955 -0.058590 -0.057238
-0.466955 0.081939 0.016019
-0.466955 0.096803 0.003705
-0.466955 0.033962 0.076254
-0.466955 0.015975 -0.043215
-0.466955 -0.024581 -0.008711
-0.466955 -0.038338 0.048398
-0.466955 0.026670 -0.066105
-0.466955 -0.047210 -0.041409
-0.466955 0.020868 0.066184
-0.466955 -0.045316 0.007315
-0.466955 -0.033623 -0.071695
-0.466955 -0.082702 -0.022013
-0.466955 0.096284 0.000914
-0.466955 -0.002797 -0.082414
-0.466955 0.018239 0.006521
-0.466955 -0.092265 0.007075
-0.466955 -0.012407 -0.008306
-0.466955 -0.059358 0.048212
-0.466955 0.081132 -0.022477
-0.466955 0.054534 -0.035677
-0.466955 0.005433 -0.075238
-0.466955 0.007673 -0.046476
-0.466955 -0.078144 0.057697
-0.466955 -0.031591 -0.045431
-0.466955 0.013160 0.001770
-0.466955 -0.027546 -0.042339
-0.466955 -0.054566 0.083078
-0.466955 0.047700 -0.020889
-0.466955 0.048025 -0.005142
-0.466955 0.022914 0.020164
-0.466955 -0.056605 -0.075074
-0.466955 0.006684 -0.048955
-0.466955 0.089839 0.008979
-0.466955 0.015166 -0.001501
-0.466955 -0.018807 -0.045596
-0.466955 -0.077760 0.003514
-0.466955 0.035252 0.000609
-0.466955 0.042795 0.082071
-0.466955 -0.058323 0.004151
-0.466955 0.023698 0.061513
-0.466955 0.027908 0.003347
-0.466955 -0.051180 -0.021797
-0.466955 0.010318 -0.071945
-0.466955 0.083391 0.030812
-0.466955 0.061730 -0.075498
-0.466955 0.013500 0.082525
-0.466955 -0.057645 0.042566
-0.466955 0.000005 -0.017617
-0.466955 -0.063324 0.001325
-0.466955 -0.044305 0.068246
-0.466955 -0.055534 0.011694
-0.466955 0.016541 0.079726
-0.466955 0.080731 0.047762
-0.466955 0.001279 -0.024410
-0.466955 0.004644 -0.001213
-0.466955 -0.009722 -0.093148
-0.466955 0.020999 -0.062707
-0.466955 0.050751 0.054717
-0.466955 0.005633 -0.022538
-0.466955 0.076447 0.036143
-0.466955 -0.032714 0.008031
-0.466955 0.013623 0.096309
-0.466955 0.002436 -0.011934
-0.466955 -0.009795 0.092542
-0.466955 -0.037000 -0.011038
-0.466955 -0.000573 -0.058938
-0.466955 -0.093969 -0.024047
-0.466955 -0.021701 0.092888
-0.466955 -0.058891 -0.021900
-0.466955 0.044458 0.035615
-0.466955 0.053597 0.053509
-0.466955 -0.000899 -0.060541
-0.466955 -0.008459 -0.028760
-0.466955 0.004511 0.030853
-0.466955 0.031746 -0.033554
-0.466955 0.002076 -0.037589
-0.466955 0.036801 0.018825
-0.466955 -0.040696 0.029338
-0.466955 0.019505 -0.053679
-0.466955 0.074365 -0.011091
-0.466955 -0.064890 -0.030896
-0.466955 0.054028 -0.001788
-0.466955 0.029456 -0.090860
-0.466955 -0.028666 -0.084839
-0.466955 0.027266 -0.019958
-0.466955 0.033513 0.080904
-0.466955 -0.018666 0.051742
-0.466955 -0.014485 -0.058357
-0.466955 -0.005213 0.072024
-0.466955 -0.017407 0.023391
-0.466955 -0.042455 0.078808
-0.466955 0.017059 -0.061527
-0.466955 -0.064839 -0.015203
-0.466955 0.008290 -0.014791
-0.466955 -0.031749 -0.018625
-0.466955 -0.000461 -0.043649
-0.466955 0.000804 -0.087815
-0.466955 -0.007823 0.081103
-0.466955 0.020764 -0.071326
-0.466955 -0.043596 0.058635
-0.466955 -0.001227 -0.050149
-0.466955 0.030148 -0.081293
-0.466955 0.084032 -0.017745
-0.466955 0.035345 0.031158
-0.466955 0.071728 0.004146
-0.466955 0.006375 0.007746
-0.466955 -0.008600 -0.020094
-0.466955 -0.074595 -0.012214
-0.466955 0.087457 -0.035994
-0.466955 -0.063510 -0.011622
-0.466955 -0.014492 -0.020113
-0.466955 0.071047 0.062560
-0.466955 0.025076 0.051946
-0.466955 0.051118 0.082638
-0.466955 -0.097070 -0.014945
-0.466955 0.068342 0.019977
-0.466955 0.005478 -0.055566
-0.466955 0.057138 -0.053236
-0.466955 0.062550 -0.071767
-0.466955 0.035680 -0.045842
-0.466955 0.049243 -0.065193
-0.466955 -0.000566 -0.055826
-0.466955 -0.031583 0.019648
-0.466955 -0.037481 0.078825
-0.466955 -0.015692 0.021215
-0.466955 0.050550 0.086136
-0.466955 -0.014472 -0.025675
-0.466955 -0.000812 0.005620
-0.466955 0.080946 -0.000030
-0.466955 -0.008570 -0.064426
-0.466955 -0.066025 0.027724
-0.466955 0.047467 0.079948
-0.466955 -0.004636 0.039663
-0.466955 -0.050733 -0.036926
-0.466955 0.013668 0.075355
-0.466955 0.036512 0.080955
-0.466955 -0.073595 0.033521
-0.466955 -0.066603 -0.055228
-0.466955 -0.002637 0.086019
-0.466955 -0.036873 -0.002979
-0.466955 -0.039099 -0.061906
-0.466955 0.015248 0.029517
-0.466955 -0.036238 -0.063336
-0.466955 0.009824 -0.038854
-0.466955 -0.045663 0.069167
-0.466955 -0.055279 0.031905
-0.466955 -0.015177 -0.089452
-0.466955 0.080328 0.044974
-0.466955 -0.054083 0.059464
-0.466955 0.018025 -0.052028
-0.466955 0.059730 0.023309
-0.466955 -0.005949 0.056017
-0.466955 -0.082395 0.008691
-0.466955 0.073641 -0.059237
-0.466955 -0.000819 -0.053332
-0.466955 -0.039381 -0.087448
-0.466955 0.080169 0.054835
-0.466955 0.029518 0.000164
-0.466955 0.000714 -0.046721
-0.466955 0.018301 0.085363
-0.466955 -0.033632 0.050122
-0.466955 0.034967 0.004031
-0.466955 0.038814 -0.069274
-0.466955 0.017639 0.088175
-0.466955 -0.038892 -0.085508
-0.466955 -0.073776 0.055421
-0.466955 -0.036960 0.033656
-0.466955 -0.096902 0.006958
-0.466955 0.028004 0.094492
-0.466955 -0.078712 0.051618
-0.466955 0.034956 0.089928
-0.466955 -0.006528 -0.096001
-0.466955 0.036206 0.054830
-0.466955 -0.013528 -0.088904
-0.466955 0.063236 -0.042394
-0.466955 -0.031518 -0.071299
-0.466955 -0.037380 -0.031695
-0.466955 -0.015661 0.025052
-0.466955 0.057095 0.037251
-0.466955 -0.062374 -0.057689
-0.466955 0.088039 -0.005023
-0.466955 0.022532 -0.073044
-0.466955 0.000784 -0.019362
-0.466955 0.058371 0.058192
-0.466955 0.030598 -0.045088
-0.466955 -0.019548 -0.018431
-0.466955 -0.096082 -0.005773
-0.466955 0.050161 0.058587
-0.466955 -0.010732 -0.048837
-0.466955 -0.076704 -0.038935
-0.466955 0.023005 -0.038756
-0.466955 0.009210 -0.056340
-0.466955 -0.005379 -0.008657
-0.466955 0.008532 -0.058667
-0.466955 -0.030992 -0.092341
-0.466955 0.046248 0.044033
-0.466955 -0.042802 0.052578
-0.466955 0.095898 -0.003933
-0.466955 -0.029357 -0.010719
-0.466955 -0.089400 0.038557
-0.466955 -0.019425 -0.003446
-0.466955 0.034038 -0.093624
-0.466955 0.049030 -0.016322
-0.466955 -0.038192 -0.080705
-0.466955 -0.071849 0.063220
-0.466955 0.088843 -0.040557
-0.466955 -0.032187 0.050661
-0.466955 -0.097294 0.005630
-0.466955 0.058506 -0.015519
-0.466955 0.050498 -0.038480
-0.466955 -0.022779 0.089799
-0.466955 0.000776 -0.078750
-0.466955 -0.003360 -0.044792
-0.466955 -0.039021 0.051770
-0.466955 0.043954 -0.079974
-0.466955 -0.054506 0.014497
-0.466955 -0.046701 -0.068829
-0.466955 0.074450 0.054732
-0.466955 0.007044 -0.051028
-0.466955 -0.081092 0.024842
-0.466955 0.007631 0.094867
-0.466955 -0.065070 0.024823
-0.466955 -0.087818 -0.030871
-0.466955 0.019237 -0.094246
-0.466955 -0.081784 -0.050089
-0.466955 0.037851 -0.079383
-0.466955 -0.055868 -0.005684
-0.466955 0.035616 -0.008244
-0.466955 -0.091691 0.022308
-0.466955 -0.082677 -0.031073
-0.466955 0.000483 0.069067
-0.466955 0.069717 -0.012767
-0.466955 -0.035422 -0.006564
-0.466955 -0.000026 0.000491
-0.466955 0.015457 -0.052938
-0.466955 -0.024648 0.019048
-0.466955 0.051965 0.053720
-0.466955 -0.044219 -0.018828
-0.466955 -0.037885 0.034851
-0.466955 0.019086 -0.056709
-0.466955 -0.002906 -0.075745
-0.466955 -0.032242 0.003653
-0.466955 0.020360 -0.014019
-0.466955 -0.073546 -0.017440
-0.466955 -0.029386 0.045731
-0.466955 0.063848 -0.055360
-0.466955 0.079473 0.015732
-0.466955 0.008568 -0.054971
-0.466955 0.062469 0.002094
-0.466955 0.031084 0.010563
-0.466955 -0.066414 -0.028871
-0.466955 0.001440 0.079046
-0.466955 -0.021624 -0.046846
-0.466955 0.048016 -0.001398
-0.466955 -0.015816 0.095506
-0.466955 0.048286 -0.012301
-0.466955 -0.070083 -0.060553
-0.466955 -0.050761 -0.047746
-0.466955 0.000248 0.087451
-0.466955 -0.004330 0.045988
-0.466955 -0.093423 0.033249
-0.466955 0.007918 -0.043466
-0.466955 0.027337 0.044055
-0.466955 -0.001032 0.002987
-0.466955 -0.049512 0.078845
-0.466955 0.081135 -0.019934
-0.466955 0.050357 0.065263
-0.466955 -0.022872 -0.029900
-0.466955 -0.034381 0.028988
-0.466955 -0.003157 -0.005087
-0.466955 -0.067327 0.059862
-0.466955 0.083481 -0.042975
-0.466955 -0.049423 -0.024640
-0.466955 -0.074418 0.042179
-0.466955 -0.045902 -0.030243
-0.466955 0.059032 -0.043934
-0.466955 -0.033198 -0.091316
-0.466955 -0.035164 -0.070751
-0.466955 -0.050877 -0.032271
-0.466955 0.069945 -0.042240
-0.466955 -0.010082 0.084755
-0.466955 -0.069551 -0.037109
-0.466955 0.019400 -0.040424
-0.466955 0.004554 0.099046
-0.466955 0.035189 -0.036172
-0.466955 -0.039338 -0.020723
-0.466955 -0.038660 0.014964
-0.466955 -0.003466 0.016481
-0.466955 -0.078220 -0.014040
-0.466955 -0.060993 0.004533
-0.466955 0.034106 -0.019633
-0.466955 0.008518 -0.089036
-0.466955 0.024245 0.076048
-0.466955 -0.028723 0.022790
-0.466955 0.007941 -0.093118
-0.466955 0.049994 0.012385
-0.466955 0.044994 0.088843
-0.466955 -0.077223 0.046205
-0.466955 -0.031183 0.091994
-0.466955 0.041956 0.078912
-0.466955 -0.091061 0.032684
-0.466955 -0.026255 0.001733
-0.466955 0.005361 0.048419
-0.466955 -0.090128 -0.009397
-0.466955 -0.065063 0.037212
-0.466955 0.075907 -0.000607
-0.466955 -0.002546 -0.066668
-0.466955 -0.006991 -0.023299
-0.466955 0.015012 0.018447
-0.466955 0.014191 0.062818
-0.466955 -0.026980 -0.048401
-0.466955 0.035697 -0.055336
-0.466955 -0.021217 -0.053775
-0.466955 0.075750 -0.002494
-0.466955 -0.026896 -0.063452
-0.466955 -0.084893 -0.000096
-0.466955 0.020274 -0.055838
-0.466955 -0.071573 0.016283
-0.466955 0.082001 -0.024049
-0.466955 0.014475 0.097861
-0.466955 0.066650 -0.015519
-0.466955 -0.082384 0.054385
-0.466955 0.055244 -0.037154
-0.466955 0.026515 -0.056934
-0.466955 0.077229 0.049970
-0.466955 0.006492 -0.098825
-0.466955 -0.004846 -0.004244
-0.466955 0.054204 -0.022480
-0.466955 0.095549 0.007246
-0.466955 0.030397 -0.016215
-0.466955 0.059081 -0.011023
-0.466955 -0.045606 -0.009963
-0.466955 0.020274 0.020237
-0.466955 0.018250 0.098314
-0.466955 -0.056363 0.082293
-0.466955 -0.014430 0.007266
-0.466955 -0.036408 0.021571
-0.466955 0.002446 -0.054565
-0.466955 -0.087533 0.022780
-0.466955 -0.011158 0.055922
-0.466955 -0.063989 0.022259
-0.466955 0.003729 0.062238
-0.466955 -0.006487 0.060209
-0.466955 0.013043 -0.013509
-0.466955 0.055435 0.059939
-0.466955 -0.045008 0.042231
-0.466955 -0.022255 -0.049552
-0.466955 0.023589 -0.089803
-0.466955 -0.054960 -0.049870
-0.466955 0.063270 0.042882
-0.466955 0.064925 0.068751
-0.466955 0.044133 -0.001991
-0.466955 -0.024878 0.034394
-0.466955 -0.009207 0.009675
-0.466955 0.030363 -0.051534
-0.466955 0.025396 -0.016688
-0.466955 -0.031020 0.013676
-0.466955 -0.018921 0.044017
-0.466955 0.033064 -0.067703
-0.466955 -0.030369 -0.076562
-0.466955 0.071710 0.045411
-0.466955 -0.033070 0.039058
-0.466955 -0.067624 0.072961
-0.466955 -0.088466 0.046006
-0.466955 0.001714 -0.091392
-0.466955 0.041374 -0.035087
-0.466955 0.077446 -0.015125
-0.466955 -0.070946 -0.051509
-0.466955 0.071432 -0.062469
-0.466955 0.000656 0.037562
-0.466955 -0.080089 -0.026768
-0.466955 0.043554 0.040747
-0.466955 -0.062618 0.013501
-0.466955 -0.025734 -0.019505
-0.466955 -0.029717 -0.078231
-0.466955 -0.001740 0.076697
-0.466955 -0.044463 -0.076018
-0.466955 0.076992 -0.042456
-0.466955 -0.084366 -0.009305
-0.466955 -0.044894 -0.011393
-0.466955 0.029570 -0.011006
-0.466955 0.070654 -0.048264
-0.466955 -0.036189 0.053066
-0.466955 0.016108 0.038835
-0.466955 0.017269 -0.036599
-0.466955 -0.037877 -0.024616
-0.466955 0.084606 0.019578
-0.466955 -0.030445 -0.062446
-0.466955 -0.047053 -0.018562
-0.466955 0.030303 0.047779
-0.466955 0.005437 -0.002568
-0.466955 0.008418 -0.030170
-0.466955 -0.074920 -0.008488
-0.466955 -0.038059 0.008865
-0.466955 0.025869 0.008346
-0.466955 0.049949 0.078379
-0.466955 -0.060200 -0.006756
-0.466955 0.092653 0.025383
-0.466955 0.001564 -0.029682
-0.466955 0.054398 -0.039571
-0.466955 -0.058974 -0.020351
-0.466955 0.009267 0.064461
-0.466955 -0.006221 -0.070286
-0.466955 -0.056173 -0.077507
-0.466955 -0.051932 -0.067950
-0.466955 -0.041203 -0.069077
-0.466955 0.021857 0.095979
-0.466955 0.024585 0.018499
-0.466955 0.038703 0.002418
-0.466955 -0.021326 0.011497
-0.466955 0.028166 -0.021084
-0.466955 0.038648 -0.050220
-0.466955 -0.041640 0.080890
-0.466955 -0.008716 0.084612
-0.466955 0.034603 -0.068642
-0.466955 -0.049556 0.059098
-0.466955 0.092324 -0.000345
-0.466955 -0.013118 -0.032705
-0.466955 -0.007811 0.042833
-0.466955 -0.012158 -0.005097
-0.466955 0.017463 0.012961
-0.466955 0.077958 0.016395
-0.466955 -0.077351 -0.002427
-0.466955 0.005721 0.026765
-0.466955 0.041248 -0.056681
-0.466955 0.028517 0.051214
-0.466955 0.058018 -0.009055
-0.466955 0.086379 -0.034679
-0.466955 -0.015836 0.003039
-0.466955 -0.045924 0.088680
-0.466955 0.074848 -0.051972
-0.466955 0.004436 -0.011468
-0.466955 0.025898 -0.094178
-0.466955 -0.001207 0.072870
-0.466955 0.047058 -0.060822
-0.466955 -0.036990 0.065234
-0.466955 0.046488 -0.025104
-0.466955 0.031526 -0.006512
-0.466955 0.080038 0.034691
-0.466955 0.024145 0.048850
-0.466955 0.004644 0.080890
-0.466955 0.072483 0.052438
-0.466955 -0.058018 -0.033579
-0.466955 -0.019894 -0.014207
-0.466955 -0.043148 -0.020494
-0.466955 -0.054760 -0.004349
-0.466955 -0.025241 0.057122
-0.466955 -0.068575 -0.030835
-0.466955 0.029743 0.036975
-0.466955 -0.054088 0.081225
-0.466955 0.002380 0.039361
-0.466955 0.027502 -0.000187
-0.466955 -0.017563 -0.059049
-0.466955 0.033789 0.013229
-0.466955 -0.040010 0.040369
-0.466955 -0.009734 -0.021110
-0.466955 -0.000810 0.063850
-0.466955 -0.016577 -0.069258
-0.466955 0.086916 0.048593
-0.466955 -0.072842 0.001395
-0.466955 0.043899 -0.022684
-0.466955 0.002821 -0.049268
-0.466955 -0.046839 -0.045847
-0.466955 0.055220 -0.049159
-0.466955 0.032950 -0.014763
-0.466955 -0.029352 0.002137
-0.466955 -0.041973 0.035959
-0.466955 -0.057281 0.061839
-0.466955 0.001284 -0.084124
-0.466955 -0.052725 -0.037079
-0.466955 -0.059314 0.075423
-0.466955 -0.017964 -0.057145
-0.466955 0.070337 0.013502
-0.466955 -0.051149 0.002898
-0.466955 0.080088 -0.001502
-0.466955 0.045452 0.060687
-0.466955 0.033850 -0.045260
-0.466955 0.050598 -0.058731
-0.466955 0.031141 0.050897
-0.466955 0.084006 -0.011623
-0.466955 0.003482 -0.078316
-0.466955 0.080120 -0.029804
-0.466955 0.000410 0.023074
-0.466955 -0.033109 0.005772
-0.466955 -0.007673 -0.063390
-0.466955 0.017001 -0.053465
-0.466955 0.023674 -0.035467
-0.466955 -0.010281 -0.083936
-0.466955 0.048873 -0.043115
-0.466955 -0.064137 -0.063553
-0.466955 -0.037180 0.023495
-0.466955 -0.032290 -0.073532
-0.466955 -0.058312 -0.003231
-0.466955 0.017561 -0.091386
-0.466955 -0.036608 -0.043893
-0.466955 -0.001373 0.040027
-0.466955 -0.045915 -0.036098
-0.466955 -0.068839 -0.046604
-0.466955 0.072048 -0.031709
-0.466955 -0.009543 0.066441
-0.466955 0.045771 0.021415
-0.466955 -0.050703 0.013634
-0.466955 -0.034577 -0.043731
-0.466955 -0.033395 -0.069958
-0.466955 0.072037 -0.033489
-0.466955 0.078189 -0.016353
-0.466955 0.018063 -0.076420
-0.466955 -0.013597 0.008390
-0.466955 -0.042704 -0.049627
-0.466955 0.040288 0.035603
-0.466955 -0.060814 0.058419
-0.466955 -0.089437 -0.006444
-0.466955 -0.018751 0.023825
-0.466955 0.012253 -0.025502
-0.466955 -0.041636 -0.056033
-0.466955 0.024970 -0.023467
-0.466955 -0.031555 0.011983
-0.466955 -0.086078 0.014593
-0.466955 -0.037814 0.022094
-0.466955 -0.044745 0.073400
-0.466955 0.026404 -0.038193
-0.466955 0.018439 -0.024843
-0.466955 0.004210 -0.013570
-0.466955 0.090100 0.005917
-0.466955 -0.045210 -0.014513
-0.466955 -0.054441 -0.021925
-0.466955 -0.007079 -0.041355
-0.466955 0.031602 0.014820
-0.466955 -0.066244 -0.017611
-0.466955 -0.038285 -0.018654
-0.466955 -0.012402 0.059173
-0.466955 -0.062168 -0.010603
-0.466955 0.015767 -0.002921
-0.466955 -0.063844 0.010378
-0.466955 -0.076524 0.014116
-0.466955 0.042680 0.056793
-0.466955 0.087141 0.015569
-0.466955 -0.033722 -0.080675
-0.466955 -0.046478 -0.084281
-0.466955 -0.060086 -0.008399
-0.466955 -0.067890 0.040065
-0.466955 -0.081257 0.015384
-0.466955 0.042755 0.070881
-0.466955 -0.089313 0.001357
-0.466955 -0.026439 0.046617
-0.466955 -0.037250 -0.017154
-0.466955 -0.099183 0.010080
-0.466955 -0.077576 -0.045329
-0.466955 0.063210 -0.068042
-0.466955 0.046110 -0.029006
-0.466955 -0.069340 -0.053526
-0.466955 0.072238 -0.046451
-0.466955 -0.048057 0.005458
-0.466955 -0.053688 0.007433
-0.466955 0.009064 0.016244
-0.466955 0.046312 -0.020189
-0.466955 -0.045332 0.078104
-0.466955 0.024360 0.028398
-0.466955 -0.000493 0.028135
-0.466955 0.048837 -0.076295
-0.466955 -0.038196 0.020495
-0.466955 0.034700 -0.030827
-0.466955 0.059947 -0.006776
-0.466955 0.070575 -0.054480
-0.466955 0.040124 -0.059578
-0.466955 -0.012890 -0.050164
-0.466955 0.007820 0.005738
-0.466955 0.050360 -0.027716
-0.466955 0.053926 -0.003589
-0.466955 -0.085360 0.001373
-0.466955 0.050742 -0.003125
-0.466955 -0.018866 -0.063184
-0.466955 0.014766 -0.085345
-0.466955 0.080929 0.041944
-0.466955 -0.063039 -0.009161
-0.466955 0.056272 0.024707
-0.466955 0.084969 -0.012619
-0.466955 0.025514 -0.020291
-0.466955 -0.021906 -0.076012
-0.466955 -0.077021 0.033306
-0.466955 0.034844 0.052620
-0.466955 0.017305 0.084034
-0.466955 -0.083967 0.014242
-0.466955 -0.086194 -0.003255
-0.466955 0.051477 -0.001889
-0.466955 -0.063999 0.065719
-0.466955 0.050125 0.080132
-0.466955 0.033425 0.007268
-0.466955 0.075206 -0.018537
-0.466955 -0.035775 0.061093
-0.466955 -0.035264 0.031078
-0.466955 -0.047786 -0.012164
-0.466955 -0.053803 -0.065814
-0.466955 0.092105 -0.022238
-0.466955 -0.038781 0.075093
-0.466955 -0.037635 0.066627
-0.466955 -0.005579 -0.090194
-0.466955 -0.062316 0.037667
-0.466955 -0.077793 -0.019661
-0.466955 0.005521 -0.049978
-0.466955 -0.034989 0.003001
-0.466955 -0.061401 -0.033089
-0.466955 0.044116 0.025182
-0.466955 0.099525 -0.008163
-0.466955 -0.042334 -0.019204
-0.466955 -0.045643 -0.067830
-0.466955 0.074855 0.006939
-0.466955 -0.045848 0.051542
-0.466955 -0.007818 0.063166
-0.466955 0.030523 -0.082627
-0.466955 0.061639 0.069020
-0.466955 -0.052621 0.036585
-0.466955 0.047310 0.032259
-0.466955 0.004529 -0.091395
-0.466955 -0.004794 -0.054586
-0.466955 0.014010 -0.092295
-0.466955 -0.053403 -0.028769
-0.466955 -0.045612 -0.016075
-0.466955 -0.012133 -0.056400
-0.466955 0.018012 -0.085865
-0.466955 -0.061096 0.045563
-0.466955 0.019185 0.077635
-0.466955 0.038535 -0.052123
-0.466955 0.049112 0.055470
-0.466955 -0.041332 0.070644
-0.466955 0.005724 -0.010406
-0.466955 -0.002652 0.064716
-0.466955 0.093360 -0.023016
-0.466955 0.060563 0.027365
-0.466955 0.049647 -0.031955
-0.466955 0.043660 -0.008186
-0.466955 0.066390 -0.023171
-0.466955 -0.029657 -0.028701
-0.466955 0.035589 0.045433
-0.466955 0.034704 -0.084059
-0.466955 0.091852 0.017478
-0.466955 0.011209 -0.096311
-0.466955 -0.028519 -0.080321
-0.466955 0.082629 -0.053080
-0.466955 -0.061550 -0.014381
-0.466955 0.045785 -0.057168
-0.466955 -0.085714 0.002738
-0.466955 -0.007226 0.029536
-0.466955 0.026763 0.092651
-0.466955 -0.057176 0.077711
-0.466955 -0.030015 0.043719
-0.466955 0.014240 -0.060323
-0.466955 -0.001374 0.021941
-0.466955 0.004292 -0.064147
-0.466955 -0.006292 -0.032878
-0.466955 0.022618 0.073260
-0.466955 0.068229 -0.015064
-0.466955 0.020662 -0.008897
-0.466955 -0.000971 0.055526
-0.466955 -0.024260 -0.049399
-0.466955 0.046973 -0.006462
-0.466955 -0.063604 -0.024907
-0.466955 -0.034558 -0.005268
-0.466955 0.039545 -0.075213
-0.466955 0.060798 0.031937
-0.466955 0.060645 -0.018397
-0.466955 -0.018940 0.093906
-0.466955 -0.061596 -0.077967
-0.466955 0.088746 -0.026012
-0.466955 -0.046612 -0.013229
-0.466955 0.092749 -0.015956
-0.466955 -0.070457 0.025587
-0.466955 -0.073521 0.067616
-0.466955 0.021901 -0.052837
-0.466955 -0.011786 0.085150
-0.466955 0.074682 -0.056051
-0.466955 -0.014023 -0.027312
-0.466955 -0.047857 -0.022074
-0.466955 -0.039675 -0.000347
-0.466955 -0.000457 0.099174
-0.466955 -0.004464 0.044018
-0.466955 -0.052718 -0.075580
-0.466955 0.093785 0.007365
-0.466955 0.042164 -0.026074
-0.466955 -0.057294 0.036219
-0.466955 0.059189 0.007006
-0.466955 0.028937 -0.085564
-0.466955 0.019503 0.068412
-0.466955 -0.032021 0.079394
-0.466955 0.012975 0.092424
-0.466955 0.046180 -0.050019
-0.466955 0.017491 -0.079771
-0.466955 0.084998 0.008604
-0.466955 0.074735 0.060326
-0.466955 0.024164 0.067145
-0.466955 -0.071010 -0.065180
-0.466955 -0.088975 -0.000029
-0.466955 -0.028873 0.008394
-0.466955 0.029913 -0.003339
-0.466955 -0.098733 0.012149
-0.466955 -0.029105 -0.067157
-0.466955 0.043021 0.083686
-0.466955 0.030388 0.030020
-0.466955 -0.090479 -0.004245
-0.466955 -0.056328 0.072383
-0.466955 0.026807 -0.027328
-0.466955 -0.015561 0.028153
-0.466955 -0.093697 -0.009177
-0.466955 -0.003082 0.078657
-0.466955 -0.024365 -0.004677
-0.466955 -0.018167 0.089955
-0.466955 -0.006503 -0.075921
-0.466955 -0.064702 0.075673
-0.466955 0.054972 -0.032355
-0.466955 -0.093515 -0.032542
-0.466955 0.033092 -0.059760
-0.466955 -0.010942 -0.094138
-0.466955 -0.029325 -0.004320
-0.466955 -0.009360 -0.068856
-0.466955 -0.027056 -0.069712
-0.466955 -0.099435 -0.003331
-0.466955 0.008568 0.037715
-0.466955 -0.038731 0.082962
-0.466955 0.025913 0.029379
-0.466955 0.011363 0.061654
-0.466955 -0.014580 -0.030495
-0.466955 -0.030064 0.068141
-0.466955 0.064165 -0.021117
-0.466955 -0.046975 -0.066161
-0.466955 -0.035387 0.047649
-0.466955 -0.045656 -0.081881
-0.466955 -0.071791 -0.056094
-0.466955 0.085234 -0.046751
-0.466955 -0.027063 -0.088548
-0.466955 -0.016915 0.076520
-0.466955 -0.075065 -0.014011
-0.466955 0.033798 -0.060915
-0.466955 -0.019991 0.095011
-0.466955 -0.008621 -0.036059
-0.466955 -0.042469 -0.063287
-0.466955 -0.045544 0.033051
-0.466955 -0.003490 0.032442
-0.466955 0.031447 0.036831
-0.466955 0.047272 0.059241
-0.466955 -0.009093 -0.008194
-0.466955 0.050859 -0.013618
-0.466955 0.078842 0.019206
-0.466955 -0.080532 -0.044326
-0.466955 -0.065821 0.009899
-0.466955 0.029778 -0.074295
-0.466955 -0.042388 -0.088584
-0.466955 0.006010 0.098746
-0.466955 -0.001133 -0.078337
-0.466955 -0.092042 -0.008653
-0.466955 0.065171 -0.036785
-0.466955 0.011406 -0.094633
-0.466955 -0.030389 0.016437
-0.466955 -0.099407 0.008002
-0.466955 -0.008397 0.075382
-0.466955 -0.082369 -0.026120
-0.466955 0.027677 -0.047620
-0.466955 -0.032807 0.015946
-0.466955 -0.053237 0.053195
-0.466955 0.023004 0.069824
-0.466955 0.020162 0.004079
-0.466955 0.008819 -0.021512
-0.466955 -0.072244 0.004530
-0.466955 0.061551 0.000686
-0.466955 -0.009607 0.056588
-0.466955 -0.068958 0.070125
-0.466955 0.001395 0.036404
-0.466955 0.026669 0.067977
-0.466955 0.012634 0.005326
-0.466955 0.071064 -0.065797
-0.466955 -0.035536 -0.080328
-0.466955 0.017511 -0.035069
-0.466955 -0.041769 -0.003141
-0.466955 -0.044052 -0.028946
-0.466955 0.023015 0.027968
-0.466955 0.003327 0.033683
-0.466955 -0.019276 0.086252
-0.466955 -0.018105 -0.027470
-0.466955 0.042935 0.026597
-0.466955 0.044044 -0.025648
-0.466955 -0.028772 -0.036612
-0.466955 0.010358 0.060582
-0.466955 0.048578 -0.061915
-0.466955 0.039374 0.079615
-0.466955 0.002332 -0.063871
-0.466955 -0.009835 0.059575
-0.466955 -0.011586 -0.088401
-0.466955 0.044674 0.008254
-0.466955 0.028517 0.067962
-0.466955 -0.074781 -0.000642
-0.466955 0.077424 0.000891
-0.466955 -0.060739 -0.058280
-0.466955 -0.042176 -0.052306
-0.466955 0.022032 0.086728
-0.466955 0.070624 -0.051510
-0.466955 -0.043286 0.070725
-0.466955 0.046661 -0.004319
-0.466955 -0.095417 0.006276
-0.466955 0.092359 0.012313
-0.466955 0.031550 0.011976
-0.466955 -0.004292 0.004041
-0.466955 0.014444 -0.040560
-0.466955 0.045545 0.065531
-0.466955 -0.092146 -0.032289
-0.466955 -0.062073 -0.060030
-0.466955 -0.083139 -0.049792
-0.466955 0.045245 -0.068981
-0.466955 -0.009447 0.003001
-0.466955 -0.010320 -0.063591
-0.466955 -0.008831 -0.059657
-0.466955 0.080667 0.057815
-0.466955 -0.015422 -0.039830
-0.466955 -0.010747 0.016502
-0.466955 0.017947 0.041560
-0.466955 0.010702 0.098740
-0.466955 0.010463 -0.045768
-0.466955 -0.045498 0.018587
-0.466955 -0.082869 -0.012880
-0.466955 -0.048523 -0.000825
-0.466955 -0.010499 0.025638
-0.466955 0.058852 -0.071237
-0.466955 0.035330 0.093120
-0.466955 0.002729 -0.068135
-0.466955 -0.092472 0.036905
-0.466955 -0.056422 -0.071405
-0.466955 -0.007804 -0.057810
-0.466955 0.072934 0.055055
-0.466955 -0.034779 0.040446
-0.466955 -0.045237 0.014303
-0.466955 0.081014 -0.045199
-0.466955 -0.079022 0.007570
-0.466955 0.045263 -0.012241
-0.466955 -0.053348 -0.083286
-0.466955 0.055228 0.011791
-0.466955 -0.002706 0.084457
-0.466955 0.087767 -0.047247
-0.466955 0.071513 -0.038543
-0.466955 0.062032 -0.069785
-0.466955 -0.055183 -0.023457
-0.466955 0.045959 -0.002453
-0.466955 -0.055723 0.067873
-0.466955 0.002806 -0.040424
-0.466955 -0.010334 -0.067455
-0.466955 0.081753 0.018000
-0.466955 0.029896 0.046215
-0.466955 -0.022637 0.088108
-0.466955 0.036860 -0.090414
-0.466955 -0.040687 0.068827
-0.466955 0.007145 0.013117
-0.466955 -0.033617 0.089787
-0.466955 0.028215 -0.065888
-0.466955 0.065497 0.030474
-0.466955 -0.082548 0.012405
-0.466955 0.023692 -0.068914
-0.466955 0.042477 -0.030635
-0.466955 -0.027124 -0.020477
-0.466955 -0.046906 0.033885
-0.466955 0.015673 -0.075732
-0.466955 -0.048771 0.028346
-0.466955 0.058585 0.072300
-0.466955 0.012795 -0.040283
-0.466955 0.028622 -0.044531
-0.466955 0.098484 0.007573
-0.466955 -0.048415 0.047555
-0.466955 0.009144 -0.037629
-0.466955 0.064117 -0.062809
-0.466955 0.006436 -0.006468
-0.466955 -0.093092 -0.004468
-0.466955 -0.021855 0.037742
-0.466955 0.025575 0.044009
-0.466955 0.064507 0.035686
-0.466955 -0.032598 -0.051520
-0.466955 -0.013998 -0.002653
-0.466955 -0.087191 0.033814
-0.466955 0.013698 0.071290
-0.466955 -0.021565 -0.083574
-0.466955 0.035667 -0.067429
-0.466955 -0.063073 -0.006925
-0.466955 0.097688 0.004968
-0.466955 -0.050046 -0.077637
-0.466955 -0.029980 -0.073615
-0.466955 0.031432 -0.019799
-0.466955 0.021445 0.016911
-0.466955 0.044810 0.047865
-0.466955 0.022558 -0.086467
-0.466955 -0.008890 0.073681
-0.466955 0.069614 -0.067616
-0.466955 -0.027851 0.078846
-0.466955 0.000230 0.094059
-0.466955 -0.084149 0.043121
-0.466955 0.062718 -0.020612
-0.466955 -0.040355 0.023903
-0.466955 -0.046041 -0.007751
-0.466955 -0.023780 -0.085438
-0.466955 -0.051365 0.071706
-0.466955 -0.033102 -0.019666
-0.466955 0.036038 -0.082407
-0.466955 -0.053580 0.020955
-0.466955 -0.069154 -0.043524
-0.466955 0.046753 0.037328
-0.466955 0.027957 0.018121
-0.466955 0.082568 -0.041652
-0.466955 0.038280 -0.021555
-0.466955 -0.052406 -0.031582
-0.466955 -0.022948 -0.069822
-0.466955 0.078225 0.031637
-0.466955 -0.030059 -0.023880
-0.466955 -0.015680 0.086902
-0.466955 0.059989 -0.025630
-0.466955 -0.027241 0.077435
-0.466955 -0.086973 0.030161
-0.466955 -0.002739 0.051490
-0.466955 0.003149 0.056814
-0.466955 -0.017628 0.073910
-0.466955 -0.040033 -0.032596
-0.466955 0.085577 -0.036274
-0.466955 0.026166 -0.053094
-0.466955 -0.053620 0.012363
-0.466955 -0.048907 -0.010002
-0.466955 -0.006335 0.067066
-0.466955 0.023268 -0.077375
-0.466955 0.003071 0.012133
-0.466955 0.069920 -0.032258
-0.466955 -0.048847 0.001296
-0.466955 -0.007427 0.079401
-0.466955 0.020554 -0.043263
-0.466955 -0.061150 0.029108
-0.466955 0.054986 0.078338
-0.466955 0.013784 0.077142
-0.466955 -0.026287 -0.025135
-0.466955 -0.041813 0.038028
-0.466955 -0.001210 0.068838
-0.466955 -0.014996 0.067850
-0.466955 0.036547 -0.014928
-0.466955 -0.036640 -0.012553
-0.466955 0.070704 -0.046616
-0.466955 0.043943 0.076908
-0.466955 -0.066438 0.032124
-0.466955 -0.041472 -0.006433
-0.466955 0.045694 -0.040838
-0.466955 0.094869 -0.002596
-0.466955 -0.009405 0.062597
-0.466955 -0.067981 0.032131
-0.466955 0.026503 -0.048596
-0.466955 -0.000320 0.091655
-0.466955 0.085962 0.027155
-0.466955 0.059031 -0.022602
-0.466955 0.020636 -0.060184
-0.466955 -0.044679 0.085777
-0.466955 -0.060846 -0.013058
-0.466955 -0.063420 -0.059214
-0.466955 -0.073625 0.038806
-0.466955 -0.061913 0.030360
-0.466955 0.024804 0.095337
-0.466955 0.010212 0.084093
-0.466955 -0.060714 0.070063
-0.466955 -0.007930 0.069011
-0.466955 -0.051057 -0.056766
-0.466955 -0.012329 0.052478
-0.466955 0.017004 -0.038614
-0.466955 -0.023339 -0.067156
-0.466955 0.048168 0.083410
-0.466955 0.014665 0.033984
-0.466955 0.082368 0.021788
-0.466955 -0.086588 0.007409
-0.466955 0.028566 -0.062362
-0.466955 -0.034171 -0.077066
-0.466955 -0.054420 0.049062
-0.466955 0.040829 -0.078830
-0.466955 -0.003413 -0.027967
-0.466955 0.060854 -0.035470
-0.466955 0.013115 -0.098717
-0.466955 0.006798 0.038590
-0.466955 -0.047994 0.042893
-0.466955 -0.049620 0.084582
-0.466955 0.005995 0.082641
-0.466955 0.051624 -0.032750
-0.466955 0.000661 0.063636
-0.466955 0.090581 0.018063
-0.466955 -0.004592 -0.040913
-0.466955 -0.004824 -0.018027
-0.466955 0.027216 0.054461
-0.466955 0.061802 -0.045522
-0.466955 -0.052684 0.042767
-0.466955 0.042780 0.014819
-0.466955 0.044325 -0.082430
-0.466955 -0.088679 0.016377
-0.466955 0.040692 0.052712
-0.466955 -0.090423 -0.030972
-0.466955 -0.001784 0.019831
-0.466955 0.052403 0.063371
-0.466955 0.063029 -0.006857
-0.466955 0.058784 0.045348
-0.466955 0.066857 -0.042543
-0.466955 -0.054665 -0.075826
-0.466955 0.043256 -0.054789
-0.466955 -0.069141 0.011060
-0.466955 0.004059 -0.053221
-0.466955 0.095166 0.023623
-0.466955 -0.013835 -0.074608
-0.466955 -0.040624 -0.047958
-0.466955 -0.057849 -0.072920
-0.466955 -0.041714 -0.029192
-0.466955 0.030472 0.028509
-0.466955 -0.094046 -0.012383
-0.466955 0.010019 0.049970
-0.466955 0.035090 -0.043273
-0.466955 -0.052384 -0.084755
-0.466955 0.051452 0.005345
-0.466955 -0.007107 0.055070
-0.466955 0.030573 0.022484
-0.466955 0.032013 -0.044170
-0.466955 0.062267 0.041105
-0.466955 0.068234 0.049175
-0.466955 0.061769 0.023171
-0.466955 0.065628 -0.000188
-0.466955 -0.085650 0.039981
-0.466955 0.049663 0.034075
-0.466955 0.056809 -0.066141
-0.466955 0.038029 -0.027452
-0.466955 0.001256 0.007451
-0.466955 0.023450 0.060024
-0.466955 0.030934 -0.000406
-0.466955 0.020460 0.052184
-0.466955 -0.041216 0.077719
-0.466955 0.031950 -0.068767
-0.466955 0.024111 0.025577
-0.466955 -0.021018 0.096155
-0.466955 0.019890 0.028167
-0.466955 -0.025830 -0.059564
-0.466955 0.006156 -0.086480
-0.466955 0.089947 0.027247
-0.466955 -0.056949 -0.037090
-0.466955 0.076127 -0.022820
-0.466955 0.065753 -0.017788
-0.466955 0.016241 -0.009744
-0.466955 -0.015980 -0.093919
-0.466955 0.023274 -0.028285
-0.466955 0.043082 0.051383
-0.466955 0.067630 0.061381
-0.466955 0.028162 -0.026053
-0.466955 0.056977 -0.071392
-0.466955 0.027328 -0.034040
-0.466955 -0.025217 0.091670
-0.466955 0.051452 0.003892
-0.466955 0.066065 0.062952
-0.466955 -0.093705 -0.026580
-0.466955 0.075480 0.017546
-0.466955 -0.019777 -0.069383
-0.466955 0.087867 -0.008746
-0.466955 -0.034876 -0.063364
-0.466955 -0.055061 -0.011038
-0.466955 0.013594 -0.001930
-0.466955 -0.026478 0.021573
-0.466955 -0.028129 -0.072893
-0.466955 0.048146 0.062024
-0.466955 0.037492 -0.011194
-0.466955 -0.037304 -0.001633
-0.466955 0.043710 -0.071111
-0.466955 -0.061999 0.054031
-0.466955 0.018340 0.031920
-0.466955 -0.005431 -0.049427
-0.466955 -0.042048 0.008560
-0.466955 0.000071 -0.004972
-0.466955 0.074058 -0.054453
-0.466955 -0.042683 -0.040504
-0.466955 0.072773 -0.010752
-0.466955 0.003755 0.046452
-0.466955 -0.015132 0.098498
-0.466955 0.070940 -0.002040
-0.466955 -0.076313 0.037628
-0.466955 -0.012559 0.095999
-0.466955 -0.063082 0.040542
-0.466955 0.096077 0.021397
-0.466955 0.090946 -0.034270
-0.466955 0.079062 0.059338
-0.466955 -0.051657 0.007875
-0.466955 -0.050016 -0.084042
-0.466955 -0.023832 0.096259
-0.466955 -0.024434 0.014396
-0.466955 -0.011969 -0.072966
-0.466955 0.087007 0.002446
-0.466955 -0.007234 0.051923
-0.466955 -0.000909 0.025380
-0.466955 -0.076667 -0.005275
-0.466955 -0.028157 0.037698
-0.466955 -0.083975 0.012605
-0.466955 -0.005672 0.068727
-0.466955 0.061843 -0.059029
-0.466955 0.050525 -0.005960
-0.466955 0.056035 0.032366
-0.466955 0.016164 -0.066769
-0.466955 -0.008408 -0.050330
-0.466955 0.067032 0.005363
-0.466955 0.067196 0.074135
-0.466955 -0.028846 -0.044009
-0.466955 0.013569 0.036120
-0.466955 -0.045233 -0.061481
-0.466955 -0.009873 -0.034390
-0.466955 0.039327 -0.077219
-0.466955 -0.066560 -0.024976
-0.466955 -0.023317 0.051398
-0.466955 -0.014905 0.005897
-0.466955 -0.049473 0.072527
-0.466955 0.061210 0.018607
-0.466955 -0.012130 -0.059371
-0.466955 0.039036 -0.080404
-0.466955 -0.068717 0.023429
-0.466955 0.028640 -0.072836
-0.466955 -0.063523 -0.056691
-0.466955 0.025741 -0.078156
-0.466955 0.021351 0.034226
-0.466955 -0.042378 0.057658
-0.466955 0.000898 -0.010050
-0.466955 0.023778 0.014366
-0.466955 0.096114 0.027069
-0.466955 -0.088720 0.021336
-0.466955 0.077648 -0.027505
-0.466955 -0.031012 -0.052951
-0.466955 0.074009 0.043034
-0.466955 -0.067219 -0.026508
-0.466955 0.057879 0.015752
-0.466955 0.098394 -0.002713
-0.466955 -0.084788 -0.039987
-0.466955 -0.048692 0.060251
-0.466955 -0.009344 0.042618
-0.466955 0.071245 -0.067768
-0.466955 0.031497 0.068857
-0.466955 0.014334 -0.032933
-0.466955 0.075295 0.064906
-0.466955 -0.051239 -0.033901
-0.466955 0.049908 0.018942
-0.466955 -0.067221 0.008684
-0.466955 -0.071348 0.014821
-0.466955 -0.049030 -0.085445
-0.466955 -0.007486 -0.059511
-0.466955 0.077747 -0.033815
-0.466955 -0.009520 -0.025222
-0.466955 -0.000045 -0.027438
-0.466955 -0.048381 0.058378
-0.466955 0.080143 0.023939
-0.466955 0.033725 0.094080
-0.466955 0.060531 0.070266
-0.466955 0.028956 0.014819
-0.466955 0.085039 -0.015041
-0.466955 -0.037262 0.082648
-0.466955 -0.094572 -0.018852
-0.466955 0.078151 -0.053868
-0.466955 0.035902 0.064631
-0.466955 0.038226 0.032747
-0.466955 0.011100 0.028524
-0.466955 -0.054368 0.035630
-0.466955 0.014539 -0.023490
-0.466955 -0.022695 0.019489
-0.466955 0.072867 -0.056679
-0.466955 0.066135 0.024815
-0.466955 -0.045723 0.016531
-0.466955 0.005364 -0.014453
-0.466955 -0.075995 0.009658
-0.466955 0.055906 0.076639
-0.466955 0.058222 -0.049393
-0.466955 -0.037219 0.075423
-0.466955 0.045416 -0.016217
-0.466955 0.019407 0.056532
-0.466955 -0.008125 -0.070250
-0.466955 -0.035342 -0.036571
-0.466955 -0.026632 -0.051135
-0.466955 -0.080221 0.001356
-0.466955 0.053737 -0.052940
-0.466955 0.038471 0.047524
-0.466955 -0.082042 -0.042924
-0.466955 -0.002651 0.005689
-0.466955 -0.050703 0.035715
-0.466955 0.036389 0.009604
-0.466955 -0.000313 0.095857
-0.466955 0.063820 0.009832
-0.466955 -0.014228 -0.079259
-0.466955 0.055315 0.013538
-0.466955 -0.098113 -0.017301
-0.466955 0.019271 -0.038679
-0.466955 -0.014786 -0.081185
-0.466955 0.026038 -0.080509
-0.466955 0.014201 0.013002
-0.466955 0.069837 -0.026670
-0.466955 -0.044525 -0.008255
-0.466955 -0.026151 -0.042015
-0.466955 0.033505 0.042080
-0.466955 0.078063 0.051097
-0.466955 0.005800 -0.038832
-0.466955 -0.036848 -0.052597
-0.466955 -0.032453 0.037460
-0.466955 0.013556 -0.086719
-0.466955 -0.040872 0.007879
-0.466955 0.000395 0.002404
-0.466955 -0.082028 -0.018596
-0.466955 -0.041183 -0.058635
-0.466955 -0.028299 0.017845
-0.466955 0.031483 0.030995
-0.466955 -0.010950 -0.075198
-0.466955 -0.070660 -0.002840
-0.466955 0.096504 -0.025710
-0.466955 0.019319 0.050252
-0.466955 0.046298 0.035717
-0.466955 -0.029536 0.079371
-0.466955 0.080262 0.003974
-0.466955 -0.027231 0.075191
-0.466955 0.028008 0.076660
-0.466955 -0.078147 0.039405
-0.466955 -0.051725 0.085283
-0.466955 -0.043643 -0.089214
-0.466955 0.052110 -0.014671
-0.466955 -0.007165 0.091708
-0.466955 0.046804 -0.062965
-0.466955 0.013983 0.072819
-0.466955 -0.058288 -0.051942
-0.466955 -0.017176 0.064961
-0.466955 -0.039245 0.034657
-0.466955 0.001306 -0.058563
-0.466955 0.072393 -0.044846
-0.466955 -0.051670 0.009211
-0.466955 0.000452 0.043316
-0.466955 0.042454 -0.023193
-0.466955 -0.010579 0.009850
-0.466955 -0.024763 0.037537
-0.466955 0.051608 0.019454
-0.466955 -0.060853 -0.029856
-0.466955 0.011319 -0.085365
-0.466955 -0.009214 0.049936
-0.466955 -0.081404 -0.006093
-0.466955 -0.007974 0.012846
-0.466955 0.056966 -0.047325
-0.466955 0.048661 0.064102
-0.466955 -0.029631 0.038040
-0.466955 -0.004154 -0.072732
-0.466955 -0.042144 0.001278
-0.466955 0.081365 -0.048473
-0.466955 -0.066062 -0.066977
-0.466955 0.000729 -0.074272
-0.466955 -0.053171 0.013904
-0.466955 -0.070639 0.022577
-0.466955 0.069275 0.005316
-0.466955 0.067198 0.065723
-0.466955 -0.049952 0.033866
-0.466955 0.082738 -0.000691
-0.466955 -0.021115 -0.023108
-0.466955 0.072437 -0.025840
-0.466955 -0.074081 0.056871
-0.466955 -0.016774 0.098296
-0.466955 0.049415 -0.029216
-0.466955 -0.071999 0.035318
-0.466955 -0.093820 0.024815
-0.466955 -0.073325 0.020944
-0.466955 -0.060623 -0.067945
-0.466955 0.026799 -0.063162
-0.466955 -0.084928 -0.014534
-0.466955 -0.088926 0.013848
-0.466955 0.079641 -0.011452
-0.466955 0.063984 0.047211
-0.466955 -0.022436 0.084236
-0.466955 0.068051 0.000809
-0.466955 0.051736 0.030085
-0.466955 0.055304 -0.046726
-0.466955 0.010415 -0.097704
-0.466955 -0.016145 0.090819
-0.466955 0.094581 -0.004220
-0.466955 0.020437 0.011739
-0.466955 -0.046153 0.057093
-0.466955 0.051858 0.042997
-0.466955 0.005390 0.033336
-0.466955 -0.054905 0.024509
-0.466955 0.010020 0.014801
-0.466955 -0.061496 -0.036895
-0.466955 0.022656 0.035079
-0.466955 -0.066768 0.004661
-0.466955 -0.049436 0.077499
-0.466955 -0.039333 0.030467
-0.466955 -0.049567 -0.054397
-0.466955 0.023191 -0.046041
-0.466955 0.044980 -0.088663
-0.466955 0.021241 0.046240
-0.466955 -0.060743 -0.020380
-0.466955 0.045868 -0.051551
-0.466955 0.042112 -0.077890
-0.466955 0.057784 0.007245
-0.466955 -0.049847 -0.031179
-0.466955 0.016555 0.055242
-0.466955 0.033363 -0.047662
-0.466955 -0.014180 -0.038724
-0.466955 0.087429 -0.024364
-0.466955 -0.027561 -0.029376
-0.466955 -0.017360 -0.035920
-0.466955 0.038191 0.019917
-0.466955 0.072768 -0.023188
-0.466955 -0.012754 -0.069732
-0.466955 -0.017303 -0.065123
-0.466955 0.083548 -0.054115
-0.466955 -0.047775 0.063701
-0.466955 0.005843 0.064374
-0.466955 -0.026560 0.019860
-0.466955 0.046514 0.007637
-0.466955 -0.021837 -0.036990
-0.466955 -0.060312 0.039832
-0.466955 -0.070764 -0.049983
-0.466955 0.001744 0.064929
-0.466955 0.072737 0.027270
-0.466955 0.010649 -0.068311
-0.466955 -0.052732 0.034029
-0.466955 -0.036559 -0.089424
-0.466955 0.009512 0.067489
-0.466955 -0.095040 -0.002461
-0.466955 0.081662 0.034229
-0.466955 -0.041909 -0.078499
-0.466955 0.051400 -0.018694
-0.466955 -0.037639 0.029524
-0.466955 -0.009783 -0.079827
-0.466955 0.070106 0.029698
-0.466955 0.027048 -0.050304
-0.466955 -0.033333 -0.060473
-0.466955 -0.022465 -0.023876
-0.466955 0.007079 -0.078838
-0.466955 0.066458 -0.045446
-0.466955 0.025834 -0.068106
-0.466955 -0.041414 -0.035130
-0.466955 -0.027548 0.003481
-0.466955 -0.081579 -0.039923
-0.466955 -0.077338 -0.054429
-0.466955 -0.091835 -0.005152
-0.466955 -0.010184 -0.026502
-0.466955 -0.033250 -0.048168
-0.466955 -0.045708 0.071851
-0.466955 0.055256 0.049093
-0.466955 0.053737 0.014862
-0.466955 0.012630 -0.090325
-0.466955 0.007104 0.029774
-0.466955 0.016147 -0.027472
-0.466955 0.084588 0.018038
-0.466955 0.008126 -0.074620
-0.466955 -0.079407 -0.053962
-0.466955 0.002052 -0.069585
-0.466955 -0.064550 -0.003464
-0.466955 0.047311 0.069612
-0.466955 -0.036781 0.080143
-0.466955 0.086906 -0.017004
-0.466955 -0.010890 0.019449
-0.466955 0.037958 -0.038521
-0.466955 0.009833 -0.063673
-0.466955 0.018007 -0.020561
-0.466955 -0.067886 0.019183
-0.466955 0.090319 -0.025418
-0.466955 -0.072837 0.064583
-0.466955 0.047277 0.077101
-0.466955 0.097147 -0.015856
-0.466955 0.061172 -0.055952
-0.466955 -0.052628 0.029265
-0.466955 -0.077236 -0.031858
-0.466955 0.022496 -0.044529
-0.466955 -0.037431 0.087072
-0.466955 0.006091 0.093922
-0.466955 0.024483 -0.052029
-0.466955 -0.055621 0.044161
-0.466955 -0.070344 0.070392
-0.466955 -0.004778 0.086250
-0.466955 -0.065115 0.035532
-0.466955 -0.009398 0.019534
-0.466955 -0.034549 -0.059238
-0.466955 0.041745 0.009505
-0.466955 -0.016653 0.012203
-0.466955 0.029452 -0.057157
-0.466955 0.031518 -0.001715
-0.466955 0.072997 -0.002014
-0.466955 -0.044010 -0.052965
-0.466955 0.033368 0.039325
-0.466955 -0.052895 -0.030214
-0.466955 0.009477 0.017696
-0.466955 -0.047488 -0.057857
-0.466955 0.017224 -0.047974
-0.466955 0.001711 -0.081748
-0.466955 0.067457 -0.010241
-0.466955 0.051415 -0.079195
-0.466955 -0.040098 0.074844
-0.466955 0.072135 0.006260
-0.466955 0.046849 -0.036723
-0.466955 -0.046898 0.065148
-0.466955 0.014175 -0.079399
-0.466955 -0.081428 -0.057321
-0.466955 -0.019009 -0.026238
-0.466955 -0.022606 -0.080102
-0.466955 0.007654 -0.083227
-0.466955 0.008707 0.045616
-0.466955 -0.014167 0.057283
-0.466955 -0.026133 0.035477
-0.466955 0.003262 0.013977
-0.466955 -0.005312 -0.045780
-0.466955 -0.029977 0.062051
-0.466955 0.021201 -0.004986
-0.466955 0.017418 -0.073291
-0.466955 -0.061912 0.027121
-0.466955 -0.086689 -0.027936
-0.466955 -0.028682 -0.090157
-0.466955 0.007554 -0.010781
-0.466955 0.016514 -0.046557
-0.466955 -0.061913 0.075021
-0.466955 -0.069254 -0.027996
-0.466955 0.011967 -0.023797
-0.466955 0.066889 -0.040598
-0.466955 0.007751 0.004288
-0.466955 0.027232 -0.001571
-0.466955 0.047584 0.056023
-0.466955 0.027946 0.088328
-0.466955 -0.005222 -0.088447
-0.466955 -0.069186 -0.026503
-0.466955 0.042389 -0.018266
-0.466955 0.060747 0.024432
-0.466955 -0.029399 -0.052105
-0.466955 -0.096471 0.021581
-0.466955 -0.016578 -0.024923
-0.466955 -0.000819 -0.067306
-0.466955 -0.081681 -0.002420
-0.466955 0.022909 -0.092622
-0.466955 -0.009206 -0.002865
-0.466955 0.036549 0.069134
