0.465339 0.089892 0.040943
0.465339 0.067949 0.049761
0.465339 0.071346 -0.063741
0.465339 -0.021472 0.071502
0.465339 0.019657 -0.072777
0.465339 0.010351 0.027902
0.465339 -0.046114 0.052153
0.465339 -0.091559 0.014109
0.465339 -0.001523 -0.046077
0.465339 -0.033259 -0.049401
0.465339 -0.066282 -0.000966
0.465339 0.041232 -0.004777
0.465339 -0.033017 0.044553
0.465339 0.043434 0.077746
0.465339 0.065706 -0.016012
0.465339 0.018495 -0.074480
0.465339 -0.082551 -0.020975
0.465339 0.045232 0.069103
0.465339 0.044435 -0.085277
0.465339 0.024949 0.019354
0.465339 -0.059181 -0.047028
0.465339 -0.082724 0.043919
0.465339 -0.062350 0.073285
0.465339 0.061699 -0.078116
0.465339 -0.093891 -0.011204
0.465339 -0.023947 -0.073346
0.465339 0.050770 -0.082354
0.465339 -0.038378 0.066786
0.465339 0.091143 -0.002000
0.465339 0.050249 -0.009880
0.465339 -0.015802 0.020139
0.465339 -0.051175 -0.029997
0.465339 -0.099472 -0.000364
0.465339 -0.005744 -0.098337
0.465339 -0.064406 0.058835
0.465339 0.033966 -0.067853
0.465339 -0.080224 -0.010258
0.465339 -0.054082 -0.045078
0.465339 -0.004351 0.097731
0.465339 0.079027 0.019025
0.465339 0.010954 -0.032081
0.465339 0.063169 -0.001521
0.465339 -0.079459 -0.052902
0.465339 -0.048373 0.006603
0.465339 -0.073657 0.042561
0.465339 0.071114 -0.060830
0.465339 -0.058821 -0.043480
0.465339 -0.001352 0.019573
0.465339 0.092566 -0.028967
0.465339 0.058831 0.064129
0.465339 -0.091092 0.040544
0.465339 0.050008 -0.044091
0.465339 0.011382 -0.019511
0.465339 0.024724 0.050400
0.465339 -0.037126 -0.069984
0.465339 -0.064791 -0.065935
0.465339 0.020006 -0.009218
0.465339 0.075204 -0.025835
0.465339 -0.050243 0.067022
0.465339 0.064649 0.040508
0.465339 0.001693 0.007306
0.465339 -0.038044 0.060639
0.465339 0.073711 -0.040296
0.465339 -0.060886 -0.020101
0.465339 -0.031834 0.021013
0.465339 -0.085166 -0.024700
0.465339 -0.040834 0.050005
0.465339 0.088184 0.037647
0.465339 -0.069947 -0.044339
0.465339 -0.075351 0.060338
0.465339 -0.033776 -0.000472
0.465339 0.010308 0.051266
0.465339 0.031865 0.072056
0.465339 0.069537 0.047186
0.465339 -0.022660 0.001186
0.465339 -0.091408 -0.012310
0.465339 0.018764 0.088228
0.465339 0.003695 0.032536
0.465339 0.047543 -0.087600
0.465339 0.006096 0.017880
0.465339 -0.019870 0.087835
0.465339 0.088407 0.034624
0.465339 -0.051689 -0.054043
0.465339 -0.080656 0.005777
0.465339 0.010781 0.082122
0.465339 0.003789 0.053428
0.465339 0.017955 0.009898
0.465339 0.008187 -0.088856
0.465339 -0.017318 -0.003600
0.465339 0.058920 0.017806
0.465339 0.054654 -0.003048
0.465339 0.036930 -0.050241
0.465339 -0.072516 0.026715
0.465339 -0.079359 -0.014556
0.465339 -0.027898 0.007426
0.465339 0.017142 0.066229
0.465339 0.057998 -0.045523
0.465339 0.078345 0.050444
0.465339 -0.026312 0.089121
0.465339 -0.026838 0.005983
0.465339 -0.081640 -0.006473
0.465339 0.023993 -0.023139
0.465339 -0.001352 0.098410
0.465339 -0.014713 -0.072694
0.465339 -0.022562 0.095270
0.465339 -0.006649 -0.004815
0.465339 -0.003657 0.004716
0.465339 0.003457 0.007470
0.465339 -0.012705 -0.017766
0.465339 0.073872 -0.064514
0.465339 0.053735 0.046313
0.465339 0.015642 0.040438
0.465339 0.083903 0.049698
0.465339 0.022509 0.046578
0.465339 -0.093669 0.027381
0.465339 -0.027187 -0.084525
0.465339 -0.011876 0.027430
0.465339 -0.019165 -0.062148
0.465339 0.005432 -0.050171
0.465339 -0.032796 0.092450
0.465339 -0.009687 0.025948
0.465339 0.023838 0.026007
0.465339 -0.061721 0.067654
0.465339 0.055050 0.041838
0.465339 -0.009625 -0.037448
0.465339 0.068393 -0.004359
0.465339 0.067176 -0.035255
0.465339 -0.003834 0.087896
0.465339 -0.048117 -0.013614
0.465339 0.026153 -0.035262
0.465339 -0.006065 -0.086097
0.465339 0.087809 0.035819
0.465339 0.031602 0.007224
0.465339 -0.047326 0.020148
0.465339 0.061213 -0.059396
0.465339 0.073221 -0.025270
0.465339 0.067199 -0.026725
0.465339 0.090020 -0.021524
0.465339 -0.050265 -0.017955
0.465339 -0.000020 0.072301
0.465339 -0.032352 0.077469
0.465339 -0.001172 0.000701
0.465339 0.008778 0.072648
0.465339 -0.009172 0.062464
0.465339 -0.010171 -0.097878
0.465339 0.009084 -0.077598
0.465339 0.005329 -0.053720
0.465339 0.024853 -0.011792
0.465339 0.015913 -0.096419
0.465339 0.029627 -0.006857
0.465339 -0.029550 0.020030
0.465339 0.084973 0.005327
0.465339 -0.038314 0.088347
0.465339 0.023572 -0.095768
0.465339 -0.009818 -0.026597
0.465339 -0.033971 0.015866
0.465339 -0.033583 -0.030267
0.465339 0.079334 -0.015399
0.465339 -0.070651 -0.012921
0.465339 -0.054641 -0.014779
0.465339 -0.076296 -0.035404
0.465339 -0.009864 -0.022455
0.465339 -0.042272 -0.047106
0.465339 -0.022349 -0.085737
0.465339 0.004109 0.086274
0.465339 -0.068235 -0.053040
0.465339 0.018153 0.004479
0.465339 -0.004506 0.071065
0.465339 -0.003933 -0.011174
0.465339 0.009353 -0.083888
0.465339 -0.075470 0.053473
0.465339 0.081817 0.033026
0.465339 0.076168 -0.062736
0.465339 -0.000595 -0.076441
0.465339 -0.040777 -0.067378
0.465339 0.001977 -0.080278
0.465339 -0.067843 -0.038617
0.465339 0.012217 -0.023701
0.465339 -0.059189 -0.072973
0.465339 -0.044137 0.014669
0.465339 0.031884 0.044059
0.465339 0.005284 -0.091988
0.465339 0.007084 0.047081
0.465339 -0.045605 -0.071795
0.465339 -0.019081 0.015953
0.465339 -0.018048 -0.055102
0.465339 0.093286 -0.018839
0.465339 -0.062960 -0.002363
0.465339 0.065659 -0.043534
0.465339 0.006028 0.067993
0.465339 0.054026 0.036967
0.465339 -0.054796 -0.066016
0.465339 0.007261 0.050056
0.465339 0.013462 -0.031321
0.465339 0.015098 0.014510
0.465339 0.068273 0.016069
0.465339 0.019333 0.019039
0.465339 0.028099 -0.081838
0.465339 0.087846 -0.003479
0.465339 -0.057004 -0.073504
0.465339 -0.045955 -0.080659
0.465339 -0.013246 0.002241
0.465339 0.019512 0.032343
0.465339 0.028616 -0.050981
0.465339 0.032536 -0.086628
0.465339 -0.087170 -0.023410
0.465339 -0.004054 -0.017480
0.465339 -0.031892 0.074790
0.465339 0.074506 0.040311
0.465339 0.005166 0.042517
0.465339 0.075500 0.016682
0.465339 -0.064262 -0.039581
0.465339 0.069734 0.027259
0.465339 0.034132 0.003604
0.465339 0.031375 -0.071334
0.465339 0.051567 -0.033450
0.465339 -0.011227 -0.046109
0.465339 0.027571 0.034014
0.465339 0.068776 0.008289
0.465339 0.051215 -0.063638
0.465339 0.003359 0.092138
0.465339 -0.011943 -0.057924
0.465339 -0.029511 0.063898
0.465339 -0.011336 -0.039335
0.465339 0.005093 0.065239
0.465339 -0.087130 -0.039729
0.465339 0.064401 0.073825
0.465339 0.044419 -0.062257
0.465339 0.072739 -0.056342
0.465339 0.017536 0.029306
0.465339 -0.090328 -0.019123
0.465339 0.003829 -0.067228
0.465339 0.002519 0.022645
0.465339 0.065150 -0.049809
0.465339 0.035416 0.046425
0.465339 0.004669 -0.005017
0.465339 0.047935 -0.068697
0.465339 0.066466 0.055609
0.465339 0.050420 -0.047051
0.465339 -0.041099 -0.023238
0.465339 -0.056946 0.012512
0.465339 -0.013932 -0.040343
0.465339 -0.062733 -0.068297
0.465339 -0.035457 -0.045044
0.465339 -0.028861 -0.095291
0.465339 -0.060787 -0.031591
0.465339 -0.014403 -0.097824
0.465339 -0.028618 0.080560
0.465339 -0.034486 -0.052430
0.465339 0.015388 0.037868
0.465339 0.014451 -0.008164
0.465339 -0.007708 0.000284
0.465339 -0.016716 -0.094703
0.465339 -0.046489 -0.009448
0.465339 0.002184 0.043508
0.465339 -0.019197 0.083132
0.465339 0.071552 0.068914
0.465339 -0.019304 -0.009249
0.465339 0.030217 0.004652
0.465339 -0.032633 -0.019445
0.465339 -0.038453 0.063449
0.465339 0.075553 0.023480
0.465339 0.003188 -0.022954
0.465339 -0.084678 0.017908
0.465339 0.070039 -0.051952
0.465339 0.080319 -0.053529
0.465339 -0.005590 0.077813
0.465339 0.031022 0.052951
0.465339 0.007599 -0.002854
0.465339 -0.005333 0.053985
0.465339 -0.080949 -0.056653
0.465339 0.089894 0.022728
0.465339 -0.011681 0.091657
0.465339 -0.075534 -0.001765
0.465339 0.088739 0.032544
0.465339 -0.040639 0.061948
0.465339 -0.004235 0.042698
0.465339 -0.080883 0.034050
0.465339 -0.026278 -0.011801
0.465339 0.001489 -0.099191
0.465339 0.032246 -0.061969
0.465339 -0.073808 -0.012670
0.465339 -0.093556 -0.025377
0.465339 -0.026173 -0.087868
0.465339 -0.008976 -0.076602
0.465339 0.050966 -0.060573
0.465339 -0.003068 -0.070963
0.465339 0.072548 -0.011131
0.465339 0.060446 -0.052102
0.465339 0.023955 0.055076
0.465339 0.002844 0.018170
0.465339 -0.098389 0.016237
0.465339 0.079516 0.029801
0.465339 -0.026371 0.014940
0.465339 0.031415 -0.048524
0.465339 0.045113 -0.064089
0.465339 0.000347 -0.009112
0.465339 -0.031529 0.051333
0.465339 -0.063918 0.010654
0.465339 -0.035248 -0.069263
0.465339 -0.032110 0.006476
0.465339 -0.063502 -0.016794
0.465339 -0.001539 0.024073
0.465339 -0.016123 0.034399
0.465339 0.081655 0.057664
0.465339 -0.009611 0.048651
0.465339 -0.003052 0.033363
0.465339 0.043731 0.069500
0.465339 0.022264 0.022905
0.465339 -0.030016 0.045250
0.465339 0.003755 -0.062505
0.465339 -0.029621 0.066632
0.465339 0.022908 0.001854
0.465339 -0.020607 -0.071289
0.465339 -0.006916 -0.080653
0.465339 -0.025684 0.068764
0.465339 0.030908 0.026665
0.465339 -0.028776 -0.028001
0.465339 0.080443 0.018950
0.465339 0.036052 0.070523
0.465339 0.049451 0.019705
0.465339 -0.059539 -0.040645
0.465339 -0.087935 0.009641
0.465339 0.020864 0.086741
0.465339 0.004036 -0.028807
0.465339 0.059988 0.024348
0.465339 0.063260 -0.041757
0.465339 -0.030571 0.041827
0.465339 -0.065041 -0.036099
0.465339 -0.063835 0.054075
0.465339 -0.099286 -0.005366
0.465339 0.054038 0.040152
0.465339 0.042432 0.003255
0.465339 -0.051463 -0.024747
0.465339 0.071504 0.000492
0.465339 0.046364 -0.057052
0.465339 -0.018190 0.072173
0.465339 -0.090999 -0.036638
0.465339 0.037434 -0.022080
0.465339 -0.078218 0.009533
0.465339 -0.006539 -0.058045
0.465339 0.023197 0.061982
0.465339 0.077739 0.029446
0.465339 0.032450 -0.035708
0.465339 0.009367 0.012363
0.465339 0.050418 -0.040502
0.465339 0.012321 -0.061999
0.465339 -0.000316 -0.004316
0.465339 0.054740 -0.031581
0.465339 0.030187 -0.009038
0.465339 0.035322 -0.064231
0.465339 -0.093832 -0.033101
0.465339 -0.049782 -0.084584
0.465339 -0.095109 0.006303
0.465339 -0.072250 -0.049420
0.465339 -0.062289 -0.059360
0.465339 0.076249 -0.056755
0.465339 0.012260 0.096632
0.465339 -0.030082 0.082122
0.465339 0.052570 -0.062035
0.465339 0.034991 -0.059876
0.465339 -0.035666 0.028086
0.465339 -0.025897 -0.042876
0.465339 -0.012411 0.039242
0.465339 0.047519 -0.082780
0.465339 0.017278 -0.060716
0.465339 0.063409 0.053879
0.465339 0.039025 -0.079369
0.465339 0.039574 0.034949
0.465339 0.002129 -0.036334
0.465339 0.022086 0.014518
0.465339 -0.041843 0.039051
0.465339 0.000047 0.094751
0.465339 0.040333 0.048953
0.465339 0.036265 -0.034168
0.465339 -0.006629 0.030785
0.465339 -0.065273 -0.032719
0.465339 0.074695 0.058853
0.465339 0.080632 0.048556
0.465339 0.029032 0.051238
0.465339 0.027040 0.051300
0.465339 -0.024766 -0.019575
0.465339 0.018031 -0.042887
0.465339 -0.060143 -0.075342
0.465339 -0.050573 -0.065538
0.465339 -0.037038 0.008727
0.465339 -0.042980 -0.021015
0.465339 -0.016061 0.067483
0.465339 0.073846 0.038785
0.465339 0.080720 0.027089
0.465339 -0.056202 0.053924
0.465339 -0.035164 0.056521
0.465339 0.035011 -0.043264
0.465339 -0.050053 -0.057702
0.465339 0.005573 0.085139
0.465339 0.024363 -0.035061
0.465339 -0.063212 0.039385
0.465339 -0.067753 0.006921
0.465339 0.024778 0.059179
0.465339 0.059280 0.043903
0.465339 -0.038294 -0.026257
0.465339 -0.035294 0.054325
0.465339 0.026285 0.070792
0.465339 0.044909 0.012729
0.465339 -0.063331 0.069921
0.465339 0.051044 -0.027436
0.465339 -0.047256 0.007439
0.465339 0.003183 -0.099525
0.465339 -0.014882 -0.014079
0.465339 -0.048003 0.011841
0.465339 0.043728 0.066952
0.465339 0.050110 -0.013607
0.465339 -0.060596 0.015097
0.465339 0.084470 -0.015757
0.465339 0.004132 -0.084930
0.465339 -0.016856 0.017622
0.465339 0.007551 0.094985
0.465339 0.068580 -0.027806
0.465339 -0.048303 0.078506
0.465339 0.059098 0.048968
0.465339 -0.063312 0.014261
0.465339 0.024576 -0.016967
0.465339 -0.018693 -0.025075
0.465339 -0.005315 0.069716
0.465339 0.059962 0.078779
0.465339 -0.074697 -0.015582
0.465339 -0.044302 -0.000287
0.465339 0.026452 0.027619
0.465339 -0.051190 0.024410
0.465339 -0.071018 -0.054563
0.465339 -0.028140 0.093774
0.465339 0.063455 0.068848
0.465339 -0.098577 -0.014600
0.465339 0.045752 0.067815
0.465339 0.075894 0.057859
0.465339 0.021502 -0.066154
0.465339 0.071698 -0.032910
0.465339 0.038733 0.018114
0.465339 0.063739 0.008150
0.465339 -0.040627 -0.013228
0.465339 0.009123 0.096430
0.465339 -0.010401 0.023994
0.465339 0.072766 -0.049497
0.465339 0.041766 0.060062
0.465339 0.020849 -0.044287
0.465339 -0.071628 0.036178
0.465339 -0.043682 -0.050371
0.465339 -0.076663 -0.019889
0.465339 -0.055197 0.021208
0.465339 -0.039717 0.007048
0.465339 0.058306 -0.049106
0.465339 0.050442 -0.070108
0.465339 0.081507 -0.015787
0.465339 -0.012552 0.071790
0.465339 0.051803 0.060012
0.465339 0.007041 0.006771
0.465339 0.035504 0.015624
0.465339 0.014730 -0.063974
0.465339 0.038063 -0.088236
0.465339 -0.049090 0.035327
0.465339 0.075180 -0.005194
0.465339 -0.012793 -0.004571
0.465339 -0.030932 0.086136
0.465339 -0.022566 0.065386
0.465339 0.014953 0.094070
0.465339 -0.080160 0.009371
0.465339 0.022594 0.039117
0.465339 -0.018483 0.066255
0.465339 0.047865 0.078371
0.465339 0.019439 -0.050691
0.465339 0.056273 -0.013841
0.465339 0.077198 -0.017881
0.465339 -0.020207 -0.051439
0.465339 -0.043869 -0.044489
0.465339 0.051474 0.003826
0.465339 -0.017475 -0.075918
0.465339 -0.074453 0.050143
0.465339 0.028141 0.047817
0.465339 -0.037685 -0.063363
0.465339 -0.084876 -0.040251
0.465339 -0.082018 -0.034065
0.465339 -0.050597 -0.009283
0.465339 -0.054428 -0.072474
0.465339 0.015013 -0.051151
0.465339 0.031970 -0.083912
0.465339 0.022777 0.017090
0.465339 -0.078961 0.005216
0.465339 -0.004559 -0.013114
0.465339 0.062835 -0.038958
0.465339 -0.032768 0.039840
0.465339 -0.025953 0.040129
0.465339 0.034363 0.032963
0.465339 0.009611 0.023732
0.465339 0.071697 -0.066050
0.465339 -0.085705 -0.043866
0.465339 -0.047652 0.001130
0.465339 -0.067254 -0.028929
0.465339 -0.037846 -0.001107
0.465339 0.022686 -0.011829
0.465339 0.074987 -0.028095
0.465339 -0.032152 0.083653
0.465339 -0.039736 0.043954
0.465339 -0.057309 -0.053922
0.465339 -0.058268 0.019401
0.465339 -0.009464 -0.095679
0.465339 0.079030 -0.060767
0.465339 -0.060718 0.072301
0.465339 0.034851 -0.012782
0.465339 -0.069187 0.064627
0.465339 0.017360 -0.085870
0.465339 -0.019773 0.071244
0.465339 -0.087858 -0.015621
0.465339 -0.059328 -0.024294
0.465339 -0.083180 -0.024370
0.465339 0.074106 0.042126
0.465339 0.038899 0.091184
0.465339 -0.045082 -0.030655
0.465339 -0.018624 -0.084665
0.465339 -0.086941 0.022838
0.465339 -0.042253 0.085874
0.465339 -0.001425 -0.070636
0.465339 0.007425 0.044294
0.465339 -0.044508 -0.012113
0.465339 0.002573 -0.034557
0.465339 0.028400 -0.008557
0.465339 -0.093875 -0.031353
0.465339 -0.020020 0.051736
0.465339 0.004936 0.083435
0.465339 0.030138 0.048239
0.465339 -0.051815 -0.023377
0.465339 0.059535 -0.055298
0.465339 0.059142 0.037970
0.465339 -0.036575 -0.068506
0.465339 -0.053462 0.013390
0.465339 -0.046027 -0.041312
0.465339 -0.015163 -0.087510
0.465339 -0.072278 0.022548
0.465339 0.044365 0.035476
0.465339 0.092097 0.006710
0.465339 -0.046188 0.060402
0.465339 -0.082819 -0.037644
0.465339 -0.032286 0.015984
0.465339 0.019242 -0.039112
0.465339 -0.035411 -0.042289
0.465339 -0.075633 0.032217
0.465339 -0.009198 -0.001091
0.465339 -0.080494 0.026237
0.465339 -0.071256 -0.043578
0.465339 -0.054298 -0.011814
0.465339 0.049924 -0.032870
0.465339 0.001888 -0.090886
0.465339 0.069033 0.042945
0.465339 -0.036256 -0.000065
0.465339 -0.001064 -0.029229
0.465339 -0.099551 -0.002302
0.465339 0.084445 -0.028264
0.465339 -0.037953 -0.014575
0.465339 0.015204 0.061543
0.465339 -0.047254 -0.018145
0.465339 -0.099274 0.008174
0.465339 -0.030965 0.019810
0.465339 0.010110 -0.052538
0.465339 -0.018769 0.042877
0.465339 -0.019910 0.076945
0.465339 0.059224 -0.064872
0.465339 -0.060909 -0.029802
0.465339 0.031918 0.060135
0.465339 -0.041500 -0.070300
0.465339 0.003801 -0.052057
0.465339 0.036376 0.003069
0.465339 0.075567 -0.047607
0.465339 0.011495 -0.050148
0.465339 -0.041551 -0.073172
0.465339 0.051244 0.057128
0.465339 -0.050889 -0.007120
0.465339 0.004497 -0.065741
0.465339 -0.023060 -0.063224
0.465339 0.010688 0.049622
0.465339 0.031119 -0.037803
0.465339 0.060799 0.069578
0.465339 -0.073066 0.006193
0.465339 -0.079460 0.035287
0.465339 0.042280 -0.088065
0.465339 0.054637 -0.033240
0.465339 -0.044937 0.053861
0.465339 -0.071820 -0.068342
0.465339 0.060253 0.007657
0.465339 0.003195 -0.039793
0.465339 0.050126 -0.064627
0.465339 -0.075244 0.024565
0.465339 -0.048565 -0.055504
0.465339 0.028036 0.085687
0.465339 -0.014247 -0.010844
0.465339 0.023390 -0.071363
0.465339 -0.001634 -0.033377
0.465339 0.025258 0.093609
0.465339 -0.084454 -0.008062
0.465339 -0.046166 0.008394
0.465339 -0.059041 0.015611
0.465339 -0.058674 -0.080359
0.465339 0.085691 -0.015044
0.465339 -0.004704 -0.000801
0.465339 -0.015998 -0.060127
0.465339 -0.054425 -0.007827
0.465339 0.044029 -0.041268
0.465339 0.055215 0.081634
0.465339 -0.004320 0.060429
0.465339 0.035027 0.002330
0.465339 -0.081419 0.049894
0.465339 -0.012790 -0.049902
0.465339 -0.001688 -0.014455
0.465339 -0.071551 -0.021571
0.465339 -0.080161 0.051326
0.465339 -0.023260 0.068209
0.465339 -0.026273 -0.089472
0.465339 -0.072282 -0.066595
0.465339 0.075067 0.056665
0.465339 0.027441 -0.011633
0.465339 -0.023688 -0.079114
0.465339 0.089166 0.003207
0.465339 -0.042488 -0.067989
0.465339 0.073463 0.012593
0.465339 0.019803 -0.054848
0.465339 0.062037 -0.008538
0.465339 -0.023583 0.076592
0.465339 0.068239 0.025088
0.465339 -0.007235 -0.018162
0.465339 0.074799 -0.002436
0.465339 0.013002 0.074839
0.465339 -0.038583 -0.003208
0.465339 0.017876 0.035040
0.465339 0.075513 -0.052973
0.465339 0.039088 -0.067287
0.465339 -0.032385 -0.064390
0.465339 0.063460 0.033456
0.465339 -0.066503 -0.002664
0.465339 0.055806 0.022817
0.465339 -0.028043 -0.011591
0.465339 -0.010203 0.077059
0.465339 0.095976 -0.018411
0.465339 -0.008796 -0.018216
0.465339 0.039052 -0.027875
0.465339 -0.088928 -0.021636
0.465339 0.054841 -0.081091
0.465339 0.038521 -0.060561
0.465339 -0.040501 -0.035495
0.465339 -0.009844 0.033919
0.465339 0.070522 0.024484
0.465339 0.030297 0.083551
0.465339 0.077965 0.053951
0.465339 -0.035627 0.039092
0.465339 -0.028480 -0.003765
0.465339 0.018128 0.076644
0.465339 0.034490 0.022897
0.465339 -0.068558 -0.059169
0.465339 0.097206 -0.022804
0.465339 -0.049607 0.003848
0.465339 -0.047903 0.023442
0.465339 -0.067540 -0.019005
0.465339 0.065844 0.006660
0.465339 0.033664 0.052375
0.465339 -0.069712 0.026652
0.465339 0.062171 -0.060541
0.465339 -0.055299 0.072943
0.465339 -0.002703 0.068033
0.465339 -0.061461 0.021962
0.465339 0.007445 0.058381
0.465339 -0.012245 -0.010928
0.465339 0.031466 0.032862
0.465339 -0.027022 -0.027743
0.465339 0.028065 -0.014750
0.465339 0.050313 0.030122
0.465339 -0.017093 0.019016
0.465339 -0.030894 -0.067027
0.465339 0.004296 -0.047450
0.465339 -0.047838 0.021869
0.465339 0.031694 -0.032601
0.465339 -0.002230 -0.006229
0.465339 0.015066 -0.079755
0.465339 -0.056632 0.069101
0.465339 -0.007181 -0.025052
0.465339 -0.020845 -0.044532
0.465339 -0.001717 0.021394
0.465339 0.025624 0.020905
0.465339 -0.019175 -0.018081
0.465339 -0.028756 -0.081756
0.465339 0.058727 -0.041986
0.465339 0.069561 -0.000028
0.465339 -0.020176 0.068628
0.465339 0.023678 -0.085720
0.465339 -0.058713 0.059565
0.465339 0.054132 -0.004983
0.465339 0.048877 0.016268
0.465339 -0.060580 0.036047
0.465339 -0.084922 0.010848
0.465339 0.026448 0.012613
0.465339 -0.055059 -0.047428
0.465339 0.063020 -0.021267
0.465339 -0.015596 -0.093646
0.465339 -0.026369 -0.040068
0.465339 -0.028327 0.005997
0.465339 -0.018925 0.002818
0.465339 0.059237 -0.017910
0.465339 -0.085839 -0.016643
0.465339 -0.015820 0.087232
0.465339 0.031568 0.075317
0.465339 0.024875 -0.044926
0.465339 0.078949 0.060960
0.465339 -0.048491 -0.059178
0.465339 -0.053263 -0.027527
0.465339 0.061680 -0.002441
0.465339 -0.008411 0.036045
0.465339 0.026286 0.060655
0.465339 0.084190 0.037143
0.465339 -0.055426 -0.078784
0.465339 -0.035427 -0.028395
0.465339 -0.004617 0.044286
0.465339 -0.048864 -0.021978
0.465339 0.073889 0.055936
0.465339 0.066879 0.065019
0.465339 0.032431 0.054972
0.465339 0.069481 -0.060099
0.465339 -0.040363 0.060354
0.465339 -0.030579 -0.001122
0.465339 -0.022178 0.056195
0.465339 -0.038489 -0.013319
0.465339 0.082288 0.007332
0.465339 -0.079162 0.053736
0.465339 0.024184 -0.028927
0.465339 0.053770 -0.048860
0.465339 0.008753 0.050835
0.465339 -0.028127 -0.080347
0.465339 -0.011266 0.061469
0.465339 0.046974 -0.081464
0.465339 -0.061658 -0.058130
0.465339 -0.081400 -0.044354
0.465339 0.076427 0.019099
0.465339 -0.050060 -0.070619
0.465339 -0.084867 -0.002413
0.465339 -0.044049 0.059876
0.465339 0.018038 -0.091364
0.465339 0.032677 -0.030369
0.465339 0.031006 0.015697
0.465339 0.013434 -0.080651
0.465339 0.065663 0.026883
0.465339 0.002071 -0.051531
0.465339 0.069295 0.036815
0.465339 -0.021331 -0.026884
0.465339 0.001263 0.096079
0.465339 0.051546 0.046466
0.465339 -0.034085 -0.060478
0.465339 -0.089084 -0.004786
0.465339 0.025549 -0.049060
0.465339 0.007056 -0.035429
0.465339 -0.027440 -0.025126
0.465339 0.020030 0.089531
0.465339 0.019872 0.082911
0.465339 -0.053742 0.028681
0.465339 0.005841 0.059185
0.465339 -0.042595 0.080385
0.465339 -0.048471 -0.035578
0.465339 -0.034962 -0.093157
0.465339 0.079702 -0.009764
0.465339 -0.040528 -0.024756
0.465339 -0.007783 -0.038131
0.465339 0.059858 -0.024612
0.465339 0.083928 -0.043744
0.465339 -0.007068 0.054619
0.465339 -0.017972 -0.088250
0.465339 0.046644 0.021802
0.465339 -0.024292 0.073721
0.465339 -0.021623 -0.017363
0.465339 -0.059286 0.036919
0.465339 -0.040819 -0.005031
0.465339 0.083491 -0.032704
0.465339 -0.028750 0.002466
0.465339 0.016309 -0.074415
0.465339 0.059748 0.054260
0.465339 -0.030771 0.034247
0.465339 -0.006638 0.093750
0.465339 0.007120 -0.048752
0.465339 -0.065573 0.000954
0.465339 0.010325 0.067585
0.465339 0.051422 -0.056957
0.465339 -0.063786 -0.071359
0.465339 0.043282 0.006037
0.465339 -0.087108 -0.025011
0.465339 0.044294 0.038456
0.465339 0.035744 0.051417
0.465339 -0.042331 -0.056183
0.465339 -0.062126 -0.013892
0.465339 -0.008721 0.090486
0.465339 -0.026113 -0.055918
0.465339 -0.041499 0.044205
0.465339 0.021907 -0.095565
0.465339 0.001863 0.036918
0.465339 -0.047147 0.027919
0.465339 -0.040290 -0.083452
0.465339 -0.029657 0.005226
0.465339 0.098409 -0.006452
0.465339 -0.012356 0.095803
0.465339 0.014278 0.069066
0.465339 -0.070159 -0.026174
0.465339 0.030708 0.010844
0.465339 0.077790 -0.002757
0.465339 0.039945 -0.071030
0.465339 -0.062164 -0.024594
0.465339 0.009629 0.041093
0.465339 -0.067772 0.012590
0.465339 0.029135 0.090161
0.465339 -0.016333 0.050451
0.465339 0.040701 0.084288
0.465339 -0.001979 -0.080695
0.465339 -0.005370 -0.011733
0.465339 0.046853 -0.073507
0.465339 -0.044007 -0.067122
0.465339 0.030782 0.023592
0.465339 0.004997 0.002695
0.465339 0.066456 -0.003713
0.465339 0.010213 -0.090676
0.465339 0.003547 -0.001596
0.465339 0.061274 0.006346
0.465339 -0.061028 0.049887
0.465339 0.031967 -0.089169
0.465339 0.017300 -0.011782
0.465339 -0.007728 -0.073258
0.465339 0.000944 -0.025440
0.465339 -0.063518 0.026470
0.465339 -0.019793 -0.006149
0.465339 0.024530 -0.056022
0.465339 -0.037317 0.067975
0.465339 0.035145 0.057709
0.465339 0.037059 -0.066303
0.465339 -0.013519 -0.021533
0.465339 0.037716 -0.047408
0.465339 0.006649 0.052491
0.465339 -0.045225 -0.055867
0.465339 0.061532 0.053268
0.465339 -0.027634 0.053426
0.465339 0.012439 -0.071950
0.465339 0.070946 -0.000857
0.465339 0.084934 -0.017764
0.465339 -0.055310 0.045250
0.465339 0.018038 0.008414
0.465339 -0.002835 -0.075673
0.465339 0.030555 0.028331
0.465339 0.010123 -0.060606
0.465339 0.016998 -0.071289
0.465339 -0.004888 -0.031432
0.465339 -0.024080 -0.025998
0.465339 0.031166 -0.090749
0.465339 -0.078135 -0.034380
0.465339 0.003820 0.024327
0.465339 0.085790 -0.038454
0.465339 0.089046 0.024058
0.465339 -0.081330 -0.036951
0.465339 -0.054784 -0.052066
0.465339 -0.069063 0.038803
0.465339 0.016331 -0.083820
0.465339 0.043313 -0.057395
0.465339 -0.026722 -0.069607
0.465339 0.051908 -0.039971
0.465339 -0.012182 0.080443
0.465339 -0.035462 0.051446
0.465339 -0.029089 -0.051231
0.465339 0.020720 0.042040
0.465339 -0.052192 0.028394
0.465339 -0.045891 -0.087932
0.465339 0.090398 0.032533
0.465339 -0.066739 0.002449
0.465339 0.048609 -0.046221
0.465339 -0.093442 0.002272
0.465339 0.028338 0.060856
0.465339 -0.015926 -0.018381
0.465339 0.050856 0.083469
0.465339 0.011586 0.087189
0.465339 -0.087104 -0.002273
0.465339 -0.086312 0.006177
0.465339 0.066762 0.045316
0.465339 0.005895 -0.070086
0.465339 0.008311 -0.053610
0.465339 -0.000974 -0.003091
0.465339 -0.058211 0.002027
0.465339 0.010004 0.026471
0.465339 0.097040 -0.020392
0.465339 0.026073 0.065952
0.465339 -0.091665 0.035591
0.465339 -0.046862 -0.060794
0.465339 0.056949 0.006594
0.465339 -0.017794 -0.009712
0.465339 0.040518 0.091455
0.465339 -0.026854 -0.044074
0.465339 -0.074962 0.018736
0.465339 -0.036722 -0.019915
0.465339 0.015944 -0.014362
0.465339 0.052629 0.071242
0.465339 -0.007453 0.007614
0.465339 0.008347 -0.044766
0.465339 0.062666 -0.044455
0.465339 -0.042116 0.011228
0.465339 -0.008998 0.077740
0.465339 -0.062465 0.051978
0.465339 -0.042244 0.061114
0.465339 0.086252 -0.026720
0.465339 -0.018248 0.032198
0.465339 -0.036815 -0.023704
0.465339 -0.093426 -0.002731
0.465339 -0.037535 0.012622
0.465339 0.025339 0.072293
0.465339 -0.022907 0.030689
0.465339 0.010485 0.072470
0.465339 -0.037550 0.020391
0.465339 -0.064444 -0.021348
0.465339 -0.015228 -0.041468
0.465339 -0.071730 0.066777
0.465339 -0.095778 0.001080
0.465339 0.052007 0.041688
0.465339 -0.002873 0.023800
0.465339 -0.026735 0.062232
0.465339 0.095432 0.014902
0.465339 -0.033103 -0.004062
0.465339 -0.006690 -0.041516
0.465339 -0.037394 -0.084748
0.465339 0.028007 0.022139
0.465339 -0.032364 0.085253
0.465339 -0.031918 -0.062970
0.465339 0.082878 -0.055414
0.465339 -0.032892 -0.066658
0.465339 -0.008275 0.013747
0.465339 0.040733 -0.027750
0.465339 0.047435 0.015388
0.465339 0.022456 0.073186
0.465339 0.036475 -0.043887
0.465339 0.063187 -0.052810
0.465339 0.070730 0.001609
0.465339 -0.013517 -0.034359
0.465339 -0.066899 -0.030742
0.465339 0.084035 -0.042306
0.465339 -0.011804 0.013115
0.465339 -0.007390 0.098014
0.465339 -0.049015 0.000387
0.465339 0.046662 0.028696
0.465339 -0.097495 -0.018888
0.465339 0.000915 0.005923
0.465339 0.012643 -0.083619
0.465339 0.022555 0.000542
0.465339 -0.079914 -0.032663
0.465339 -0.055620 0.011175
0.465339 0.061211 0.071540
0.465339 0.052562 0.073104
0.465339 0.004282 -0.024751
0.465339 -0.029217 0.036867
0.465339 0.000939 0.080288
0.465339 0.019928 0.051856
0.465339 0.019709 0.040754
0.465339 -0.037677 -0.039740
0.465339 0.080884 -0.019805
0.465339 0.067752 0.036651
0.465339 -0.095201 0.024606
0.465339 0.057678 -0.001606
0.465339 -0.023627 0.063360
0.465339 -0.020344 0.014071
0.465339 0.041745 -0.022288
0.465339 0.030127 -0.075516
0.465339 0.036253 -0.007024
0.465339 -0.019800 -0.049334
0.465339 0.074235 -0.020854
0.465339 0.045004 0.050604
0.465339 0.013056 -0.065361
0.465339 0.085314 -0.035035
0.465339 0.016860 -0.088302
0.465339 0.060507 -0.006409
0.465339 0.000208 0.019961
0.465339 -0.088734 0.038398
0.465339 -0.018796 0.079294
0.465339 -0.003394 0.016836
0.465339 -0.073147 0.001054
0.465339 -0.003735 -0.080658
0.465339 -0.012283 -0.052243
0.465339 0.091528 -0.039164
0.465339 -0.026689 -0.022218
0.465339 0.006358 -0.031318
0.465339 -0.019920 -0.053011
0.465339 -0.027345 0.032750
0.465339 -0.049633 -0.011571
0.465339 -0.029612 -0.052972
0.465339 0.065393 0.008506
0.465339 -0.068896 0.019530
0.465339 0.058373 -0.077868
0.465339 -0.090551 0.024321
0.465339 0.050700 0.021560
0.465339 0.072040 0.051821
0.465339 -0.055189 -0.060148
0.465339 -0.088224 -0.044445
0.465339 0.000555 0.058510
0.465339 -0.017421 -0.021558
0.465339 0.082871 0.014961
0.465339 -0.032222 0.024633
0.465339 -0.015671 -0.076672
0.465339 -0.013974 -0.036698
0.465339 0.006070 0.036327
0.465339 0.037397 0.028053
0.465339 -0.021282 -0.007180
0.465339 -0.049678 -0.014239
0.465339 -0.045830 -0.052497
0.465339 0.015913 0.029248
0.465339 -0.042747 -0.052152
0.465339 0.000321 -0.086401
0.465339 0.007254 0.090786
0.465339 0.038625 -0.031275
0.465339 -0.032541 0.080975
0.465339 0.005257 0.094941
0.465339 0.046565 0.088169
0.465339 0.061821 -0.037889
0.465339 -0.049105 -0.040772
0.465339 0.029068 0.009759
0.465339 0.020927 0.069806
0.465339 0.011771 -0.052414
0.465339 0.048760 -0.017767
0.465339 -0.042410 -0.005287
0.465339 -0.047239 -0.072227
0.465339 0.058033 -0.012752
0.465339 0.079206 0.043678
0.465339 0.026296 -0.044943
0.465339 0.051521 0.037377
0.465339 -0.048462 -0.061594
0.465339 0.022157 -0.019498
0.465339 0.021971 -0.003707
0.465339 0.094114 0.010516
0.465339 -0.016360 0.089060
0.465339 -0.017488 0.016242
0.465339 0.027335 0.075377
0.465339 0.043900 -0.019995
0.465339 0.080690 -0.040307
0.465339 -0.030526 0.011511
0.465339 -0.017828 0.090070
0.465339 0.080061 0.032887
0.465339 0.054877 0.048112
0.465339 -0.099219 0.006599
0.465339 -0.032372 -0.091727
0.465339 0.003982 0.066084
0.465339 -0.046711 0.039449
0.465339 0.060464 -0.062254
0.465339 -0.073205 0.007644
0.465339 -0.077073 0.033150
0.465339 0.045266 0.055330
0.465339 -0.046270 0.010794
0.465339 -0.062897 0.020825
0.465339 -0.075936 -0.028850
0.465339 -0.045325 -0.045624
0.465339 -0.069503 0.025113
0.465339 -0.003826 0.037856
0.465339 -0.067728 -0.049946
0.465339 0.016478 -0.054228
0.465339 -0.051132 0.006760
0.465339 -0.035495 -0.017560
0.465339 -0.007606 -0.045483
0.465339 0.084354 0.045424
0.465339 -0.037407 -0.089350
0.465339 -0.072498 -0.024995
0.465339 -0.056243 -0.004215
0.465339 0.064558 -0.002208
0.465339 -0.028074 0.088625
0.465339 -0.043486 0.023072
0.465339 -0.016622 0.056494
0.465339 0.027000 -0.019880
0.465339 0.042133 -0.038607
0.465339 -0.046064 0.071036
0.465339 -0.059539 -0.069107
0.465339 0.015303 0.083490
0.465339 0.057243 0.076309
0.465339 0.082366 0.027527
0.465339 0.045404 -0.086316
0.465339 -0.052128 0.043901
0.465339 0.055247 0.075264
0.465339 0.075778 -0.017720
0.465339 0.061348 0.075485
0.465339 0.033761 -0.078200
0.465339 -0.006913 0.021366
0.465339 -0.062246 -0.008407
0.465339 -0.013513 0.047104
0.465339 -0.064569 0.075170
0.465339 -0.067171 -0.070877
0.465339 -0.025008 0.028510
0.465339 0.022472 0.066338
0.465339 0.006812 0.064742
0.465339 -0.070257 -0.020437
0.465339 -0.074316 -0.009301
0.465339 -0.040721 0.067083
0.465339 -0.042764 0.044797
0.465339 0.055361 -0.070242
0.465339 0.038583 0.011874
0.465339 0.035198 -0.074547
0.465339 0.059642 0.026235
0.465339 -0.023594 0.045631
0.465339 0.050834 0.051874
0.465339 -0.038285 0.032060
0.465339 0.090461 -0.006167
0.465339 0.064513 -0.019119
0.465339 -0.076174 0.006314
0.465339 -0.011017 0.028784
0.465339 -0.017875 0.023120
0.465339 -0.003317 0.035517
0.465339 -0.004455 -0.061447
0.465339 0.079191 -0.039823
0.465339 -0.025024 0.043139
0.465339 0.005266 0.070642
0.465339 -0.050032 0.070657
0.465339 0.082206 -0.020315
0.465339 -0.040753 0.083380
0.465339 0.032476 -0.058333
0.465339 -0.051369 0.048388
0.465339 -0.030546 0.056939
0.465339 -0.085867 0.049885
0.465339 -0.021941 0.075875
0.465339 0.063579 -0.017755
0.465339 0.044962 0.025842
0.465339 -0.034966 0.052919
0.465339 -0.040326 -0.032870
0.465339 0.089622 0.010110
0.465339 -0.025491 -0.081734
0.465339 -0.016079 0.010656
0.465339 0.061681 0.068304
0.465339 0.019522 -0.084340
0.465339 0.020729 0.036497
0.465339 -0.041018 -0.090636
0.465339 0.029234 -0.029507
0.465339 -0.022763 0.083540
0.465339 0.065981 0.074602
0.465339 -0.040494 -0.021843
0.465339 0.029152 0.070548
0.465339 0.061547 -0.041592
0.465339 -0.040777 -0.084939
0.465339 -0.078338 0.043423
0.465339 0.075250 -0.057727
0.465339 0.030020 0.076838
0.465339 0.091795 0.032128
0.465339 -0.063999 0.018753
0.465339 -0.081246 0.018324
0.465339 0.032359 -0.006931
0.465339 -0.037978 -0.080612
0.465339 0.038733 0.089172
0.465339 -0.020835 0.073221
0.465339 -0.024404 -0.039776
0.465339 0.061662 0.017344
0.465339 -0.062549 0.047388
0.465339 -0.027966 0.026379
0.465339 0.091215 0.020539
0.465339 0.010091 0.046144
0.465339 -0.072557 0.021025
0.465339 0.049484 0.043792
0.465339 -0.055681 0.051360
0.465339 -0.048812 -0.038946
0.465339 0.054348 -0.047153
0.465339 -0.090826 -0.040090
0.465339 -0.056932 -0.041742
0.465339 0.061587 -0.020925
0.465339 0.014808 0.078727
0.465339 -0.038998 0.018439
0.465339 -0.071094 0.006438
0.465339 0.084479 -0.003277
0.465339 0.004599 -0.021438
0.465339 0.083139 -0.028856
0.465339 0.013615 -0.016614
0.465339 0.031530 -0.050374
0.465339 0.004905 0.031318
0.465339 0.051695 -0.010297
0.465339 0.003562 -0.000255
0.465339 0.083000 0.041884
0.465339 -0.074562 0.023240
0.465339 -0.071970 0.024447
0.465339 -0.063947 0.005598
0.465339 0.047413 -0.005661
0.465339 0.038607 0.049157
0.465339 -0.031042 -0.058862
0.465339 0.038950 -0.025896
0.465339 -0.058314 -0.034811
0.465339 -0.046710 0.065199
0.465339 0.006813 -0.039383
0.465339 0.019397 0.092375
0.465339 0.074570 0.015485
0.465339 -0.038050 0.086461
0.465339 0.085686 -0.013135
0.465339 -0.073352 -0.032398
0.465339 0.085513 -0.010944
0.465339 -0.071167 -0.001854
0.465339 0.013190 0.053281
0.465339 -0.019306 -0.067572
0.465339 0.032455 0.069019
0.465339 -0.058308 0.049949
0.465339 -0.092559 0.011627
0.465339 -0.087677 0.005358
0.465339 -0.065042 0.071337
0.465339 0.051906 0.017439
0.465339 0.010646 -0.024492
0.465339 0.076504 -0.044313
0.465339 -0.028791 0.083749
0.465339 -0.058612 -0.022916
0.465339 0.025620 0.035138
0.465339 0.020671 -0.026553
0.465339 -0.009445 -0.013983
0.465339 -0.010559 -0.080059
0.465339 0.072067 0.003843
0.465339 -0.028209 -0.033846
0.465339 -0.065779 -0.060734
0.465339 0.052641 -0.083911
0.465339 -0.059471 -0.003464
0.465339 0.055906 0.007610
0.465339 0.026298 -0.013453
0.465339 0.012387 -0.006185
0.465339 -0.052937 -0.030947
0.465339 0.038579 0.061723
0.465339 -0.022636 -0.092594
0.465339 0.023903 0.063932
0.465339 -0.017598 0.094525
0.465339 -0.035398 -0.070776
0.465339 0.005840 0.099005
0.465339 -0.030337 -0.029698
0.465339 -0.004887 0.048125
0.465339 -0.045082 0.039550
0.465339 0.004426 0.058138
0.465339 -0.068795 0.027950
0.465339 0.015193 -0.041833
0.465339 -0.028359 0.082202
0.465339 0.033124 -0.064223
0.465339 -0.013012 -0.056994
0.465339 -0.047907 -0.044764
0.465339 -0.022096 0.062180
0.465339 0.065099 0.028150
0.465339 -0.038508 0.064917
0.465339 0.020135 0.081298
0.465339 -0.026843 -0.081464
0.465339 0.081141 -0.023883
0.465339 -0.050200 -0.039911
0.465339 -0.055542 0.061287
0.465339 -0.045291 0.072685
0.465339 0.024084 0.078243
0.465339 0.076558 0.030682
0.465339 -0.079995 -0.046744
0.465339 0.023953 0.003721
0.465339 0.046925 0.047140
0.465339 -0.062013 -0.028230
0.465339 0.068997 -0.023661
0.465339 -0.039165 0.053477
0.465339 0.049684 0.024541
0.465339 -0.089564 0.012265
0.465339 0.061194 0.051222
0.465339 -0.034710 0.029812
0.465339 0.025548 0.083378
0.465339 -0.012969 -0.032327
0.465339 -0.009891 -0.042158
0.465339 0.041439 -0.006374
0.465339 0.012288 0.032938
0.465339 -0.011176 0.030252
0.465339 0.013426 -0.058145
0.465339 0.030510 -0.086573
0.465339 0.014698 0.041378
0.465339 -0.035965 0.026260
0.465339 -0.013020 -0.082924
0.465339 0.079692 -0.004940
0.465339 -0.061652 -0.070642
0.465339 0.005801 -0.090462
0.465339 0.004722 0.077803
0.465339 0.050388 0.059745
0.465339 0.003872 0.005398
0.465339 0.068990 -0.057007
0.465339 -0.066156 -0.033868
0.465339 0.079256 -0.030930
0.465339 0.095095 0.030781
0.465339 -0.004331 0.040958
0.465339 -0.012194 -0.086340
0.465339 0.056723 -0.050029
0.465339 0.034078 -0.005473
0.465339 -0.014117 -0.012321
0.465339 -0.086700 -0.030357
0.465339 -0.004409 -0.029106
0.465339 -0.075282 -0.019280
0.465339 0.037107 0.052117
0.465339 0.082268 0.034579
0.465339 0.033727 0.060387
0.465339 -0.008703 -0.087934
0.465339 -0.015576 -0.095620
0.465339 0.019794 0.000730
0.465339 -0.065695 -0.011368
0.465339 0.052082 0.010816
0.465339 0.012941 -0.009060
0.465339 -0.011776 -0.005828
0.465339 0.064397 0.002094
0.465339 -0.006977 0.060488
0.465339 -0.014099 -0.095261
0.465339 0.061537 0.056535
0.465339 -0.077845 0.006465
0.465339 -0.036458 -0.060791
0.465339 0.000756 -0.074894
0.465339 -0.051396 -0.085291
0.465339 -0.029968 -0.049153
0.465339 -0.094468 -0.026584
0.465339 0.041977 0.027208
0.465339 -0.012049 -0.098653
0.465339 0.010491 0.030512
0.465339 0.025324 0.052197
0.465339 0.028693 0.013282
0.465339 -0.036363 -0.075848
0.465339 -0.074896 -0.026319
0.465339 -0.027460 0.016804
0.465339 -0.031777 0.059410
0.465339 0.035188 0.000939
0.465339 -0.043497 -0.008336
0.465339 0.030951 -0.058591
0.465339 -0.019127 -0.077895
0.465339 0.035400 0.040157
0.465339 -0.021441 0.036556
0.465339 -0.037251 -0.008723
0.465339 0.019340 -0.078018
0.465339 0.058037 -0.018782
0.465339 0.013750 -0.036676
0.465339 0.013500 -0.061137
0.465339 0.024858 -0.084863
0.465339 -0.024722 -0.013137
0.465339 0.049800 0.007135
0.465339 0.028632 0.079738
0.465339 -0.043562 -0.034350
0.465339 -0.001896 -0.072024
0.465339 0.066026 0.063320
0.465339 0.001773 -0.061604
0.465339 -0.054740 -0.053765
0.465339 0.030537 -0.061099
0.465339 -0.039458 0.091377
0.465339 -0.007200 0.095330
0.465339 0.048472 -0.038873
0.465339 0.050460 0.011100
0.465339 -0.017680 -0.031425
0.465339 -0.050630 -0.026021
0.465339 -0.059258 -0.007234
0.465339 -0.047011 -0.001421
0.465339 -0.019470 0.064572
0.465339 0.002698 0.034596
0.465339 0.034125 -0.001493
0.465339 0.021587 0.051731
0.465339 -0.095256 -0.002201
0.465339 0.006648 0.066551
0.465339 0.027327 0.002747
0.465339 0.037382 -0.013706
0.465339 0.095367 0.021230
0.465339 -0.049201 -0.050889
0.465339 -0.011198 0.048730
0.465339 -0.044633 0.029934
0.465339 0.002754 -0.086159
0.465339 0.022629 -0.021848
0.465339 -0.081600 -0.025172
0.465339 -0.042906 -0.016436
0.465339 -0.029416 0.095470
0.465339 -0.053061 0.042190
0.465339 -0.077307 0.057741
0.465339 -0.081110 -0.028355
0.465339 0.085747 -0.022855
0.465339 0.092895 -0.036704
0.465339 -0.079107 0.048342
0.465339 0.065733 -0.065004
0.465339 -0.020346 0.027059
0.465339 0.038527 -0.024098
0.465339 -0.011555 -0.048686
0.465339 0.050337 0.016275
0.465339 0.027868 -0.024747
0.465339 0.042683 -0.067218
0.465339 -0.097785 0.003611
0.465339 -0.037672 -0.041129
0.465339 -0.057913 0.064379
0.465339 0.041880 -0.029938
0.465339 0.056365 0.025642
0.465339 0.076362 0.059456
0.465339 -0.084572 -0.028329
0.465339 -0.019881 0.004480
0.465339 0.095561 -0.011402
0.465339 -0.019829 0.032638
0.465339 -0.029152 0.057458
0.465339 -0.030060 0.003661
0.465339 -0.016942 0.083868
0.465339 -0.022815 -0.070969
0.465339 -0.043863 0.040286
0.465339 0.007137 -0.079758
0.465339 -0.045675 0.041210
0.465339 -0.029227 -0.032729
0.465339 -0.017788 0.038372
0.465339 -0.015033 0.040774
0.465339 -0.055853 0.034883
0.465339 -0.009333 0.000994
0.465339 -0.060581 0.069027
0.465339 0.079162 -0.001116
0.465339 -0.024959 -0.015093
0.465339 0.005345 -0.071589
0.465339 0.034372 0.013726
0.465339 0.025130 -0.080465
0.465339 -0.054710 0.004054
0.465339 0.044709 -0.069630
0.465339 0.018058 0.011440
0.465339 -0.003059 -0.064516
0.465339 0.054095 0.029071
0.465339 -0.048151 -0.086965
0.465339 0.096485 -0.025790
0.465339 -0.068412 0.070944
0.465339 0.024612 -0.014667
0.465339 -0.005689 0.071915
0.465339 0.013129 -0.070505
0.465339 0.019191 0.034400
0.465339 -0.020532 -0.013819
0.465339 0.005693 -0.073255
0.465339 0.062711 0.051945
0.465339 0.025683 -0.038069
0.465339 0.090106 -0.042531
0.465339 -0.010816 0.080702
0.465339 -0.019466 -0.092532
0.465339 0.036241 0.074337
0.465339 -0.020851 0.003183
0.465339 0.007910 -0.043293
0.465339 0.087388 0.033507
0.465339 0.039771 0.080698
0.465339 0.056235 -0.032357
0.465339 0.017449 0.026080
0.465339 0.044406 -0.025657
0.465339 -0.026203 -0.064223
0.465339 -0.091232 0.012324
0.465339 -0.007471 0.075232
0.465339 0.051986 -0.018162
0.465339 -0.055258 0.016916
0.465339 0.005525 -0.064184
0.465339 -0.007978 0.041077
0.465339 -0.015109 -0.015589
0.465339 -0.074731 0.040320
0.465339 -0.052833 0.047569
0.465339 -0.065004 -0.024159
0.465339 0.021796 -0.053996
0.465339 0.028312 -0.016988
0.465339 -0.082507 -0.012718
0.465339 -0.088939 -0.012647
0.465339 -0.017631 -0.057159
0.465339 0.006192 0.037728
0.465339 -0.028090 -0.065176
0.465339 0.054118 -0.025437
0.465339 0.023033 -0.061439
0.465339 0.077156 -0.000753
0.465339 -0.000889 0.033401
0.465339 0.045170 -0.060754
0.465339 -0.009018 -0.098668
0.465339 -0.040777 0.036311
0.465339 0.013560 0.002062
0.465339 -0.007562 -0.096400
0.465339 0.076331 0.007626
0.465339 0.069868 0.016213
0.465339 -0.048210 -0.082655
0.465339 0.043276 0.017065
0.465339 0.027404 -0.092717
0.465339 -0.069729 -0.037322
0.465339 0.054130 0.011264
0.465339 -0.033654 0.021431
0.465339 0.017418 0.023346
0.465339 -0.015484 0.032478
0.465339 0.066161 -0.021084
0.465339 0.038023 0.029438
0.465339 -0.001079 -0.051034
0.465339 0.079982 0.000238
0.465339 0.034658 -0.021470
0.465339 -0.089071 -0.000502
0.465339 0.009276 -0.022042
0.465339 -0.000987 0.085338
0.465339 0.055377 0.062000
0.465339 -0.042960 -0.045706
0.465339 0.054720 -0.072850
0.465339 0.005094 0.088577
0.465339 0.005130 0.052348
0.465339 -0.003410 0.052334
0.465339 -0.068743 -0.045482
0.465339 0.060214 -0.078118
0.465339 0.092485 0.011100
0.465339 0.054306 -0.054433
0.465339 0.054838 -0.007535
0.465339 -0.045178 -0.086643
0.465339 0.043599 -0.021959
0.465339 -0.061414 -0.022851
0.465339 0.009954 -0.054876
0.465339 -0.056858 0.055501
0.465339 0.033825 0.004982
0.465339 -0.011388 0.034176
0.465339 -0.085278 -0.014287
0.465339 0.037247 0.060956
0.465339 0.021684 0.068297
0.465339 0.039266 -0.035853
0.465339 -0.080864 0.020547
0.465339 -0.012909 -0.045466
0.465339 -0.018325 0.001346
0.465339 -0.076504 -0.053338
0.465339 -0.099119 -0.003744
0.465339 -0.062862 0.030011
0.465339 0.032710 0.010419
0.465339 0.088577 0.038940
0.465339 -0.051878 0.056192
0.465339 -0.096219 -0.000614
0.465339 0.062042 -0.062440
0.465339 -0.037574 -0.011997
0.465339 -0.019891 0.085980
0.465339 -0.015755 -0.085915
0.465339 -0.015034 0.093837
0.465339 -0.044775 -0.023438
0.465339 0.062027 0.035652
0.465339 0.017858 -0.084224
0.465339 -0.017306 0.060043
0.465339 -0.038025 -0.068924
0.465339 0.021333 0.017412
0.465339 -0.003641 -0.083378
0.465339 0.062089 -0.064410
0.465339 -0.030636 0.075683
0.465339 -0.069667 -0.055898
0.465339 0.048544 0.061310
0.465339 0.006904 0.054213
0.465339 -0.026002 0.093194
0.465339 -0.076375 -0.047474
0.465339 -0.052052 0.066252
0.465339 0.057588 0.052034
0.465339 0.077487 -0.028681
0.465339 -0.033153 0.060484
0.465339 -0.021862 0.026101
0.465339 -0.013948 -0.048548
0.465339 0.089908 -0.036506
0.465339 -0.008801 0.045182
0.465339 -0.021793 0.058060
0.465339 0.047553 0.051939
0.465339 0.017036 0.037751
0.465339 0.052553 -0.013141
0.465339 -0.013350 -0.038281
0.465339 0.060680 -0.004934
0.465339 -0.056888 -0.010287
0.465339 -0.053267 -0.005062
0.465339 -0.028895 0.054066
0.465339 0.085087 -0.029906
0.465339 -0.000677 -0.006659
0.465339 -0.024180 0.050795
0.465339 -0.070294 -0.015910
0.465339 -0.008371 0.043377
0.465339 0.015019 -0.081467
0.465339 -0.011371 0.043411
0.465339 0.060729 -0.048433
0.465339 0.094695 -0.031262
0.465339 -0.072387 -0.054943
0.465339 0.049097 -0.062205
0.465339 -0.004337 -0.065518
0.465339 0.024258 -0.078367
0.465339 0.041005 -0.082950
0.465339 0.052039 0.078952
0.465339 -0.007847 -0.013495
0.465339 -0.035126 -0.089103
0.465339 -0.025253 -0.051050
0.465339 -0.035149 -0.050958
0.465339 -0.063756 0.073379
0.465339 0.029018 -0.026172
0.465339 0.013600 0.056320
0.465339 -0.006228 0.022786
0.465339 -0.077638 0.046570
0.465339 -0.071253 0.038483
0.465339 -0.087193 -0.034290
0.465339 -0.015941 0.054869
0.465339 0.052590 -0.031695
0.465339 0.057237 0.063192
0.465339 0.056560 -0.075979
0.465339 0.034813 0.080214
0.465339 0.017691 0.006095
0.465339 0.049441 -0.058556
0.465339 -0.061858 0.061623
0.465339 -0.016485 -0.072577
0.465339 -0.049027 0.021271
0.465339 -0.035650 -0.034610
0.465339 -0.057597 0.048204
0.465339 0.039609 0.009711
0.465339 -0.034931 0.002593
0.465339 -0.016467 -0.013568
0.465339 -0.075729 0.028898
0.465339 -0.005145 0.083793
0.465339 -0.014809 -0.021996
0.465339 -0.019166 0.093881
0.465339 0.054245 0.055657
0.465339 0.035749 0.054831
0.465339 0.035431 -0.041328
0.465339 -0.059960 -0.032678
0.465339 0.006640 -0.036958
0.465339 0.046777 -0.070027
0.465339 0.043869 -0.000037
0.465339 0.015467 0.090099
0.465339 -0.040207 -0.063150
0.465339 0.022722 -0.087135
0.465339 -0.024769 0.002827
0.465339 -0.024333 0.013438
0.465339 0.012036 -0.067503
0.465339 -0.064836 0.031472
0.465339 0.050629 0.033238
0.465339 0.026442 -0.090051
0.465339 -0.092135 -0.033850
0.465339 -0.026462 -0.072796
0.465339 -0.067270 -0.025989
0.465339 -0.044886 0.035636
0.465339 0.065041 -0.014808
0.465339 0.033099 0.006732
0.465339 -0.073251 -0.019117
0.465339 -0.011688 -0.088899
0.465339 -0.013634 0.007960
0.465339 0.009602 -0.037049
0.465339 0.009524 0.009025
0.465339 -0.063683 0.024755
0.465339 -0.012371 -0.015722
0.465339 0.006805 -0.022454
0.465339 0.050945 0.013452
0.465339 -0.074321 0.044006
0.465339 -0.031996 -0.029964
0.465339 0.013238 -0.094307
0.465339 -0.059825 -0.061021
0.465339 0.098798 0.014667
0.465339 -0.061882 0.001293
0.465339 0.031814 -0.014578
0.465339 -0.011051 -0.063002
0.465339 0.060212 -0.070227
0.465339 -0.075116 -0.054021
0.465339 0.042629 0.089757
0.465339 0.081515 -0.052309
0.465339 -0.037471 0.035030
0.465339 -0.030329 0.015327
0.465339 -0.035156 -0.057201
0.465339 0.018846 -0.017132
0.465339 -0.062054 0.005322
0.465339 -0.010154 0.044052
0.465339 0.086031 0.026881
0.465339 0.079949 -0.051804
0.465339 0.018773 -0.015710
0.465339 -0.087394 -0.036397
0.465339 0.079644 0.053744
0.465339 0.060594 -0.058024
0.465339 0.072685 -0.067231
0.465339 0.055652 -0.010402
0.465339 -0.043367 0.046973
0.465339 0.090450 0.016743
0.465339 -0.023930 -0.066174
0.465339 -0.043142 0.038092
0.465339 0.062979 0.055830
0.465339 -0.034544 0.011027
0.465339 0.034984 0.028526
0.465339 -0.029211 -0.024830
0.465339 -0.062383 -0.074695
0.465339 0.016310 0.041841
0.465339 0.089000 0.012174
0.465339 -0.065241 0.057502
0.465339 -0.002979 -0.086547
0.465339 -0.056819 0.072275
0.465339 0.010254 0.094963
0.465339 -0.082477 0.034283
0.465339 -0.011754 0.015423
0.465339 -0.092013 0.025100
0.465339 -0.016269 0.036657
0.465339 -0.003137 -0.093077
0.465339 -0.004885 -0.020327
0.465339 0.014814 0.000740
0.465339 -0.054860 0.033194
0.465339 0.028569 -0.093807
0.465339 0.077617 -0.062446
0.465339 0.005271 0.011604
0.465339 -0.031709 -0.017624
0.465339 -0.000396 -0.054667
0.465339 -0.020145 -0.088055
0.465339 0.081639 0.055858
0.465339 -0.063042 0.044269
0.465339 0.057953 -0.016580
0.465339 0.011209 -0.011549
0.465339 -0.044066 0.075127
0.465339 0.025198 -0.005574
0.465339 0.046158 -0.045656
0.465339 0.037797 -0.090961
0.465339 0.003175 0.042407
0.465339 -0.056386 0.026302
0.465339 0.071275 0.055663
0.465339 -0.025930 -0.085897
0.465339 0.062893 0.031767
0.465339 0.009526 -0.065587
0.465339 -0.094517 -0.003861
0.465339 -0.013102 -0.025032
0.465339 0.025973 0.006487
0.465339 0.038461 -0.085005
0.465339 -0.018279 -0.026529
0.465339 0.046541 0.026452
0.465339 0.077391 0.012468
0.465339 0.042562 0.080690
0.465339 0.041141 0.012147
0.465339 0.024593 -0.040718
0.465339 -0.065136 0.009100
0.465339 0.014709 0.086524
0.465339 0.051916 -0.042306
0.465339 -0.066833 0.056732
0.465339 0.039177 -0.014203
0.465339 -0.006838 -0.087577
0.465339 -0.027609 0.060167
0.465339 -0.044463 0.083235
0.465339 0.041220 -0.044729
0.465339 -0.056024 -0.030450
0.465339 -0.015567 -0.074073
0.465339 0.058168 0.016489
0.465339 -0.046352 -0.063587
0.465339 -0.013994 0.049814
0.465339 -0.032599 -0.069474
0.465339 -0.039505 0.004438
0.465339 -0.011585 -0.069961
0.465339 0.013898 -0.022762
0.465339 0.024247 -0.062777
0.465339 0.079026 -0.025360
0.465339 -0.056018 0.043995
0.465339 -0.064156 0.048401
0.465339 -0.024527 -0.067862
0.465339 0.041314 -0.035525
