-0.466955 -0.063104 0.020529
-0.466955 0.097306 0.007038
-0.466955 0.097179 -0.008503
-0.466955 0.006675 0.058729
-0.466955 -0.057097 0.033282
-0.466955 -0.058342 0.065558
-0.466955 0.086828 0.025018
-0.466955 0.079787 -0.002963
-0.466955 -0.046549 0.062623
-0.466955 0.048149 -0.022245
-0.466955 0.051247 0.042512
-0.466955 0.063064 0.071092
-0.466955 0.018321 -0.089001
-0.466955 -0.014590 0.078290
-0.466955 0.059761 0.017894
-0.466955 0.056169 0.017648
-0.466955 -0.054146 0.038308
-0.466955 -0.035114 0.018016
-0.466955 -0.091613 0.033849
-0.466955 -0.040531 -0.009776
-0.466955 -0.055606 0.015578
-0.466955 0.024297 0.068277
-0.466955 -0.000093 0.082459
-0.466955 0.042447 -0.087466
-0.466955 0.045794 0.053829
-0.466955 0.006448 -0.090600
-0.466955 0.060669 0.003884
-0.466955 0.022053 0.082505
-0.466955 -0.086913 0.031238
-0.466955 -0.023847 -0.015829
-0.466955 0.001843 0.090668
-0.466955 0.083641 -0.022863
-0.466955 -0.080088 -0.002295
-0.466955 -0.079228 -0.004279
-0.466955 0.016947 0.042712
-0.466955 0.045360 0.057474
-0.466955 -0.024381 -0.012903
-0.466955 0.026125 -0.009530
-0.466955 -0.066895 -0.047306
-0.466955 -0.054851 0.009815
-0.466955 0.038119 0.009400
-0.466955 -0.078516 -0.031806
-0.466955 -0.074137 0.024165
-0.466955 0.004689 0.046940
-0.466955 -0.057211 0.013248
-0.466955 -0.053932 0.004833
-0.466955 -0.010584 0.057631
-0.466955 -0.088154 0.044927
-0.466955 -0.023479 0.070624
-0.466955 0.007456 -0.047376
-0.466955 -0.035462 0.004606
-0.466955 -0.062086 0.034986
-0.466955 0.059559 -0.005927
-0.466955 -0.023129 -0.036366
-0.466955 0.015767 0.047971
-0.466955 0.057988 0.026719
-0.466955 -0.013717 0.092596
-0.466955 -0.016911 0.023383
-0.466955 -0.074889 0.041779
-0.466955 0.065543 0.044514
-0.466955 0.054561 0.035452
-0.466955 -0.017408 -0.046936
-0.466955 -0.079525 0.048599
-0.466955 -0.055176 0.053164
-0.466955 0.055035 0.072156
-0.466955 0.076808 0.005394
-0.466955 -0.032462 0.089488
-0.466955 -0.069292 -0.011720
-0.466955 -0.069251 -0.030830
-0.466955 0.049230 0.057167
-0.466955 -0.076631 0.033022
-0.466955 -0.002200 0.061891
-0.466955 0.062374 -0.027059
-0.466955 0.006707 0.065194
-0.466955 -0.058555 -0.008408
-0.466955 -0.003079 0.058103
-0.466955 -0.079920 -0.000847
-0.466955 -0.049165 0.030435
-0.466955 -0.065488 0.039203
-0.466955 0.067311 0.013783
-0.466955 0.056132 0.047668
-0.466955 -0.061820 -0.069739
-0.466955 0.029408 -0.036316
-0.466955 -0.001462 0.025095
-0.466955 0.034314 -0.025622
-0.466955 -0.089239 0.016733
-0.466955 -0.017769 0.064200
-0.466955 0.077851 -0.059963
-0.466955 -0.061835 0.049856
-0.466955 0.014858 0.023856
-0.466955 0.070456 0.010593
-0.466955 -0.030231 0.071673
-0.466955 0.063779 -0.026601
-0.466955 0.063667 -0.075861
-0.466955 -0.091050 -0.013432
-0.466955 -0.057457 -0.054178
-0.466955 -0.005849 -0.071714
-0.466955 0.087519 0.002884
-0.466955 0.048208 0.035335
-0.466955 -0.076563 -0.060333
-0.466955 0.045469 0.050095
-0.466955 -0.043830 0.057161
-0.466955 -0.023189 -0.069460
-0.466955 0.087612 0.033644
-0.466955 0.020955 0.005873
-0.466955 0.070052 -0.051257
-0.466955 -0.021861 -0.028420
-0.466955 -0.005477 0.055275
-0.466955 -0.055608 -0.018260
-0.466955 0.015153 0.025745
-0.466955 0.033619 0.084864
-0.466955 0.022722 0.071573
-0.466955 0.038901 0.026394
-0.466955 -0.012470 0.027691
-0.466955 -0.030282 -0.004106
-0.466955 -0.024840 -0.058638
-0.466955 0.022969 -0.064796
-0.466955 -0.054808 -0.038874
-0.466955 0.066869 -0.063159
-0.466955 -0.051941 0.033268
-0.466955 0.004266 0.009450
-0.466955 -0.095862 -0.014980
-0.466955 -0.022150 -0.064405
-0.466955 -0.050787 -0.049162
-0.466955 0.065095 0.057307
-0.466955 0.054665 0.008332
-0.466955 -0.004435 0.021587
-0.466955 -0.044655 0.033361
-0.466955 -0.026094 0.091761
-0.466955 -0.013197 0.088923
-0.466955 0.028882 -0.015735
-0.466955 0.001630 0.042502
-0.466955 -0.028005 0.031220
-0.466955 -0.033571 -0.020389
-0.466955 0.030565 -0.029583
-0.466955 0.024123 0.075884
-0.466955 0.009517 0.028098
-0.466955 -0.062176 -0.054656
-0.466955 -0.016914 0.076310
-0.466955 0.063352 -0.067864
-0.466955 -0.036924 -0.076767
-0.466955 0.055297 -0.033716
-0.466955 0.030904 0.063707
-0.466955 0.000284 0.000000
-0.466955 -0.018681 -0.095413
-0.466955 -0.016200 -0.037454
-0.466955 0.016091 0.022743
-0.466955 0.056134 -0.015649
-0.466955 0.083471 0.014489
-0.466955 -0.024201 -0.041449
-0.466955 -0.082302 0.042334
-0.466955 0.039282 0.042443
-0.466955 0.033164 0.081647
-0.466955 0.049930 -0.025619
-0.466955 0.014311 0.095892
-0.466955 0.039022 0.067862
-0.466955 -0.037909 0.043599
-0.466955 -0.018709 0.087793
-0.466955 -0.027375 -0.094038
-0.466955 0.097272 -0.001688
-0.466955 0.063484 0.074572
-0.466955 0.009336 -0.096744
-0.466955 -0.007236 -0.089629
-0.466955 -0.056632 -0.025024
-0.466955 -0.037403 0.066571
-0.466955 0.060885 0.076369
-0.466955 0.037437 0.000826
-0.466955 -0.068218 -0.003456
-0.466955 0.030630 -0.061912
-0.466955 0.022670 0.021145
-0.466955 0.031331 0.050988
-0.466955 -0.004302 -0.037646
-0.466955 0.051287 -0.064350
-0.466955 -0.012647 -0.082436
-0.466955 -0.027675 -0.073288
-0.466955 -0.076947 0.015971
-0.466955 0.070092 -0.027690
-0.466955 -0.016516 -0.087001
-0.466955 -0.001591 -0.026103
-0.466955 -0.019419 0.083059
-0.466955 -0.024626 0.039339
-0.466955 0.011871 -0.079774
-0.466955 0.052254 0.057817
-0.466955 0.037137 0.016712
-0.466955 -0.077359 0.031385
-0.466955 0.060456 -0.039513
-0.466955 0.027680 0.051928
-0.466955 -0.010505 0.088227
-0.466955 -0.078567 -0.048136
-0.466955 -0.094849 0.029314
-0.466955 0.013645 -0.033673
-0.466955 0.054901 0.083571
-0.466955 0.078140 0.023373
-0.466955 -0.001399 -0.054132
-0.466955 -0.032796 0.008193
-0.466955 -0.064486 -0.048136
-0.466955 -0.085472 0.032658
-0.466955 -0.034737 -0.078172
-0.466955 -0.091504 -0.005492
-0.466955 0.042522 -0.010526
-0.466955 0.013870 -0.012694
-0.466955 -0.038144 -0.087463
-0.466955 -0.029169 -0.030582
-0.466955 -0.030459 -0.088739
-0.466955 -0.059229 0.051618
-0.466955 0.063043 0.061353
-0.466955 0.064399 0.014546
-0.466955 0.048051 -0.084997
-0.466955 -0.034072 -0.017007
-0.466955 -0.083211 0.051952
-0.466955 -0.076793 -0.018222
-0.466955 0.082312 0.041366
-0.466955 -0.077616 0.021242
-0.466955 0.009878 0.036136
-0.466955 -0.084788 -0.028859
-0.466955 0.083797 -0.054293
-0.466955 0.031250 0.035893
-0.466955 -0.002089 -0.065026
-0.466955 -0.058357 -0.002269
-0.466955 -0.049973 -0.058222
-0.466955 0.018472 -0.072325
-0.466955 -0.068233 0.062758
-0.466955 -0.045500 -0.054229
-0.466955 -0.034617 -0.082549
-0.466955 0.007285 0.094178
-0.466955 0.001595 -0.082445
-0.466955 -0.070889 0.056572
-0.466955 0.075709 -0.005934
-0.466955 -0.083291 -0.054464
-0.466955 -0.065505 -0.056305
-0.466955 -0.098290 0.012944
-0.466955 -0.009593 -0.030617
-0.466955 0.045198 -0.042707
-0.466955 -0.066861 0.072748
-0.466955 0.000828 0.073529
-0.466955 0.082536 -0.043771
-0.466955 -0.045429 -0.020420
-0.466955 -0.076773 0.017432
-0.466955 -0.031261 0.092908
-0.466955 -0.069512 0.028750
-0.466955 0.054523 0.015607
-0.466955 0.038722 0.057061
-0.466955 0.045303 -0.059142
-0.466955 0.089365 0.044847
-0.466955 0.048348 0.010298
-0.466955 -0.026237 -0.036614
-0.466955 -0.056632 -0.076985
-0.466955 0.063831 0.056819
-0.466955 -0.059602 -0.012591
-0.466955 0.001619 -0.004141
-0.466955 -0.035224 0.022076
-0.466955 -0.098208 0.011059
-0.466955 -0.031007 0.037201
-0.466955 -0.076221 -0.011016
-0.466955 0.067722 0.052548
-0.466955 0.022159 -0.056577
-0.466955 -0.034531 -0.030361
-0.466955 -0.044280 -0.045028
-0.466955 0.062081 -0.068839
-0.466955 -0.022815 -0.089805
-0.466955 -0.077478 0.044094
-0.466955 -0.071836 0.000512
-0.466955 0.029244 -0.030635
-0.466955 0.058183 0.079230
-0.466955 -0.008016 0.086720
-0.466955 0.049871 0.010266
-0.466955 -0.074587 0.029974
-0.466955 -0.057299 -0.049698
-0.466955 0.008403 0.048470
-0.466955 0.035388 -0.066875
-0.466955 -0.010743 -0.004853
-0.466955 -0.024447 -0.017419
-0.466955 -0.051168 0.004590
-0.466955 0.070131 -0.013819
-0.466955 -0.050601 0.055305
-0.466955 0.044713 -0.088915
-0.466955 -0.024302 0.030865
-0.466955 -0.081150 -0.031536
-0.466955 0.086106 0.032768
-0.466955 -0.028626 -0.078757
-0.466955 0.047048 -0.046853
-0.466955 0.049754 0.029876
-0.466955 -0.036066 -0.062956
-0.466955 -0.048395 0.034736
-0.466955 -0.001777 -0.068926
-0.466955 -0.067948 -0.008747
-0.466955 -0.065572 0.032778
-0.466955 -0.019779 0.024319
-0.466955 -0.073309 0.031327
-0.466955 0.019381 0.086301
-0.466955 0.013152 -0.052049
-0.466955 -0.009130 0.029402
-0.466955 0.064255 0.069010
-0.466955 0.038742 0.040326
-0.466955 0.071388 0.066257
-0.466955 -0.097970 -0.017106
-0.466955 0.022799 0.032190
-0.466955 -0.063586 -0.034524
-0.466955 0.035791 0.034724
-0.466955 0.029768 -0.095125
-0.466955 -0.033380 0.068606
-0.466955 0.087396 0.037051
-0.466955 0.015454 -0.024022
-0.466955 -0.093544 -0.008416
-0.466955 -0.060232 -0.008164
-0.466955 0.061067 -0.048954
-0.466955 0.087130 0.029293
-0.466955 0.046624 -0.024939
-0.466955 -0.019091 0.051334
-0.466955 0.023616 0.022858
-0.466955 -0.091723 0.029169
-0.466955 -0.004083 -0.052008
-0.466955 0.077941 -0.049303
-0.466955 -0.006596 -0.091240
-0.466955 -0.041996 0.031944
-0.466955 -0.015495 0.023080
-0.466955 -0.056886 0.026603
-0.466955 -0.009228 -0.060750
-0.466955 0.002526 -0.027115
-0.466955 -0.095127 -0.027736
-0.466955 0.078533 0.057932
-0.466955 -0.049998 -0.014095
-0.466955 0.044108 -0.031774
-0.466955 0.037153 -0.015509
-0.466955 0.039463 0.091493
-0.466955 0.095301 0.000936
-0.466955 0.014838 0.038590
-0.466955 0.043937 -0.054900
-0.466955 0.037415 -0.019874
-0.466955 0.012239 -0.086392
-0.466955 0.021198 0.015212
-0.466955 -0.008881 -0.086227
-0.466955 0.052894 -0.010091
-0.466955 -0.041110 -0.001775
-0.466955 -0.028858 -0.014413
-0.466955 -0.071233 -0.034759
-0.466955 0.034641 0.024395
-0.466955 0.038143 0.025265
-0.466955 -0.081334 0.041125
-0.466955 0.002124 0.020111
-0.466955 0.022943 -0.023866
-0.466955 0.085729 -0.040807
-0.466955 0.062164 -0.077376
-0.466955 -0.034910 -0.008399
-0.466955 0.074227 -0.009842
-0.466955 -0.049173 -0.084341
-0.466955 -0.059834 0.021406
-0.466955 -0.059389 0.013689
-0.466955 -0.063153 -0.060633
-0.466955 -0.091495 0.005302
-0.466955 0.014346 0.050023
-0.466955 0.010552 -0.082849
-0.466955 -0.053859 -0.022096
-0.466955 0.058294 -0.016172
-0.466955 -0.061047 -0.073460
-0.466955 0.036406 0.065800
-0.466955 -0.036657 0.017865
-0.466955 0.009567 -0.020085
-0.466955 -0.090127 -0.037526
-0.466955 -0.001976 -0.014951
-0.466955 -0.057489 0.052235
-0.466955 -0.003792 -0.032695
-0.466955 0.079264 0.054829
-0.466955 -0.008826 -0.056879
-0.466955 -0.066359 -0.036723
-0.466955 0.040619 -0.059999
-0.466955 -0.075320 -0.047972
-0.466955 0.032592 -0.053300
-0.466955 -0.048515 0.001985
-0.466955 -0.008662 0.063007
-0.466955 0.018295 -0.011453
-0.466955 -0.056879 -0.079357
-0.466955 0.032156 -0.060621
-0.466955 0.008995 0.080208
-0.466955 0.032561 0.041274
-0.466955 -0.055287 0.047999
-0.466955 -0.008337 0.027888
-0.466955 0.076290 0.064282
-0.466955 -0.023268 -0.046577
-0.466955 0.052148 -0.062335
-0.466955 0.067418 0.028201
-0.466955 -0.036854 0.004147
-0.466955 -0.000164 -0.017987
-0.466955 0.045311 -0.083814
-0.466955 -0.048459 -0.085946
-0.466955 -0.027718 0.075418
-0.466955 0.085386 0.042304
-0.466955 -0.026708 -0.016406
-0.466955 0.031768 0.083877
-0.466955 0.002179 0.010252
-0.466955 -0.051935 -0.006598
-0.466955 0.024818 -0.074619
-0.466955 0.067045 -0.068428
-0.466955 -0.073024 0.023247
-0.466955 -0.079996 -0.021387
-0.466955 -0.053451 0.043994
-0.466955 0.059119 0.040515
-0.466955 0.060097 -0.030235
-0.466955 -0.082253 0.025934
-0.466955 0.052076 0.002894
-0.466955 0.060031 -0.010427
-0.466955 0.020088 0.011691
-0.466955 -0.054297 -0.017461
-0.466955 -0.003528 0.035380
-0.466955 0.008307 -0.078603
-0.466955 -0.032942 0.015601
-0.466955 -0.013378 0.090315
-0.466955 -0.008989 0.045844
-0.466955 0.071690 -0.028558
-0.466955 0.091119 -0.008713
-0.466955 -0.098881 -0.012517
-0.466955 0.049072 0.079113
-0.466955 0.029251 -0.067841
-0.466955 -0.026726 0.074090
-0.466955 0.004626 0.030530
-0.466955 -0.026842 0.080061
-0.466955 0.093750 -0.013939
-0.466955 -0.001006 -0.063042
-0.466955 0.037350 0.037343
-0.466955 -0.030594 -0.082469
-0.466955 0.044001 -0.047632
-0.466955 -0.059002 0.036992
-0.466955 -0.003456 0.007427
-0.466955 0.065314 -0.075396
-0.466955 0.040092 -0.012984
-0.466955 -0.002562 -0.042754
-0.466955 -0.058086 0.023939
-0.466955 -0.000211 -0.082614
-0.466955 0.023869 0.049676
-0.466955 0.081395 0.037214
-0.466955 -0.050060 0.078729
-0.466955 0.013356 -0.074972
-0.466955 0.022459 0.017174
-0.466955 -0.027809 0.085608
-0.466955 -0.057544 0.079923
-0.466955 0.070010 -0.043220
-0.466955 -0.048896 -0.081498
-0.466955 0.086156 -0.026492
-0.466955 0.074288 -0.019038
-0.466955 0.020739 0.074309
-0.466955 -0.000775 0.046940
-0.466955 0.097975 0.001430
-0.466955 -0.041209 -0.037802
-0.466955 -0.009225 -0.016043
-0.466955 -0.064728 0.054762
-0.466955 -0.029091 -0.019591
-0.466955 0.013545 0.093781
-0.466955 0.020165 0.004810
-0.466955 0.076909 -0.015013
-0.466955 0.043243 0.016437
-0.466955 0.054906 -0.010344
-0.466955 -0.021737 -0.024484
-0.466955 -0.085184 0.044176
-0.466955 0.054840 0.032962
-0.466955 0.027634 0.063925
-0.466955 0.072154 0.050418
-0.466955 0.031772 -0.062726
-0.466955 0.034754 0.005236
-0.466955 0.002381 -0.080926
-0.466955 -0.027533 -0.065704
-0.466955 -0.041986 0.014800
-0.466955 0.094599 0.016677
-0.466955 0.042617 -0.043002
-0.466955 -0.040688 -0.065406
-0.466955 -0.080052 0.053251
-0.466955 -0.053479 -0.062868
-0.466955 0.062419 0.035026
-0.466955 0.042481 0.031853
-0.466955 -0.061021 -0.022996
-0.466955 0.021716 0.027940
-0.466955 -0.005688 0.077997
-0.466955 -0.049773 0.063261
-0.466955 0.011053 -0.025416
-0.466955 0.011053 -0.042223
-0.466955 0.034095 -0.090311
-0.466955 0.000701 -0.074050
-0.466955 0.067232 -0.031087
-0.466955 0.005464 -0.053905
-0.466955 -0.034000 0.000375
-0.466955 0.011934 -0.083649
-0.466955 -0.083740 0.012387
-0.466955 0.000513 0.056343
-0.466955 -0.027428 -0.091896
-0.466955 -0.019431 -0.086287
-0.466955 -0.005240 0.014031
-0.466955 -0.044168 -0.005660
-0.466955 -0.053455 -0.070563
-0.466955 0.018831 -0.097179
-0.466955 -0.020314 0.080769
-0.466955 0.084408 0.001262
-0.466955 0.094622 0.002707
-0.466955 0.001487 -0.012626
-0.466955 0.050763 0.000068
-0.466955 0.014650 0.008961
-0.466955 -0.006253 0.022181
-0.466955 -0.044428 -0.069622
-0.466955 -0.007502 -0.003185
-0.466955 -0.055079 -0.037347
-0.466955 -0.056676 0.049290
-0.466955 0.033304 0.053483
-0.466955 0.087511 -0.017048
-0.466955 0.012918 0.054569
-0.466955 0.072115 -0.025137
-0.466955 -0.039838 -0.023235
-0.466955 -0.028299 0.060911
-0.466955 0.052426 -0.037801
-0.466955 0.059090 -0.040435
-0.466955 0.049012 0.050250
-0.466955 0.088905 0.029039
-0.466955 0.024717 -0.015741
-0.466955 0.052306 -0.039606
-0.466955 0.002939 -0.044299
-0.466955 -0.049186 -0.063795
-0.466955 0.036752 -0.078009
-0.466955 0.014480 0.034686
-0.466955 0.035657 0.083017
-0.466955 -0.073164 0.019790
-0.466955 -0.038025 0.059548
-0.466955 0.074360 -0.007691
-0.466955 -0.012621 0.086524
-0.466955 0.017203 -0.096433
-0.466955 -0.026153 0.069227
-0.466955 0.051436 -0.024006
-0.466955 0.075284 0.020439
-0.466955 0.038056 -0.023522
-0.466955 -0.007707 -0.043071
-0.466955 -0.013549 -0.041891
-0.466955 0.015300 0.066467
-0.466955 0.073688 0.042674
-0.466955 0.011598 0.020992
-0.466955 -0.019919 0.054565
-0.466955 0.039765 0.038316
-0.466955 0.022961 -0.000050
-0.466955 0.026748 0.075034
-0.466955 0.066770 -0.056463
-0.466955 -0.056583 -0.051934
-0.466955 -0.044734 0.018672
-0.466955 -0.078429 0.010917
-0.466955 0.080227 0.045348
-0.466955 0.012430 0.078799
-0.466955 0.047726 0.064941
-0.466955 -0.003427 -0.095679
-0.466955 0.060110 -0.012470
-0.466955 0.050187 0.059808
-0.466955 0.009368 -0.031360
-0.466955 0.017682 0.056108
-0.466955 0.070031 -0.030401
-0.466955 0.010285 0.037530
-0.466955 0.050195 0.019133
-0.466955 -0.067183 -0.007358
-0.466955 0.087209 -0.014104
-0.466955 -0.062809 -0.038646
-0.466955 0.041000 0.070956
-0.466955 -0.010124 -0.008106
-0.466955 -0.022240 -0.042976
-0.466955 0.076714 -0.026988
-0.466955 0.047572 -0.056598
-0.466955 0.088257 0.021282
-0.466955 0.028849 -0.040978
-0.466955 -0.032179 -0.082979
-0.466955 0.011082 0.044203
-0.466955 0.025684 -0.002539
-0.466955 -0.067500 -0.040670
-0.466955 -0.075943 0.044882
-0.466955 0.044331 0.013085
-0.466955 0.043726 -0.011423
-0.466955 -0.067012 0.050507
-0.466955 -0.041949 -0.077345
-0.466955 0.060451 0.069917
-0.466955 0.043317 0.028670
-0.466955 0.026360 0.046070
-0.466955 0.068550 0.022773
-0.466955 -0.064280 0.000168
-0.466955 0.012539 0.056081
-0.466955 -0.002364 -0.058994
-0.466955 0.018605 -0.049664
-0.466955 0.076013 0.031365
-0.466955 -0.045458 0.002391
-0.466955 0.067371 -0.005499
-0.466955 -0.029645 -0.049193
-0.466955 -0.056163 -0.016026
-0.466955 -0.034318 0.083589
-0.466955 -0.000656 0.074891
-0.466955 0.002638 0.021716
-0.466955 -0.037907 -0.048565
-0.466955 0.018199 0.035190
-0.466955 0.070517 -0.035950
-0.466955 -0.024594 0.002296
-0.466955 0.013926 -0.015829
-0.466955 0.026571 -0.030377
-0.466955 0.075630 -0.051704
-0.466955 -0.073553 0.064199
-0.466955 -0.007374 0.078237
-0.466955 -0.018196 0.011534
-0.466955 0.029909 0.046352
-0.466955 -0.048379 0.046454
-0.466955 -0.065651 -0.071806
-0.466955 -0.045871 0.077103
-0.466955 0.045011 -0.005735
-0.466955 0.040308 -0.052156
-0.466955 0.037579 0.086425
-0.466955 -0.019549 -0.088620
-0.466955 -0.060518 0.032148
-0.466955 -0.018391 -0.006736
-0.466955 -0.005238 0.035120
-0.466955 -0.011755 -0.092506
-0.466955 0.087477 -0.005965
-0.466955 0.010190 0.079370
-0.466955 0.058454 -0.012609
-0.466955 -0.024498 0.080717
-0.466955 0.003199 -0.082549
-0.466955 -0.077789 0.034099
-0.466955 -0.035937 0.083067
-0.466955 -0.018495 0.089319
-0.466955 0.072696 0.037006
-0.466955 -0.001646 0.039143
-0.466955 -0.030158 -0.043323
-0.466955 -0.087605 -0.010020
-0.466955 0.020810 0.003397
-0.466955 0.003752 0.098848
-0.466955 0.009886 0.021142
-0.466955 -0.026601 0.014663
-0.466955 0.074604 -0.041912
-0.466955 -0.025353 0.087085
-0.466955 0.012686 0.028657
-0.466955 -0.009295 0.097205
-0.466955 0.053246 0.012898
-0.466955 0.056640 0.050965
-0.466955 0.053688 0.032093
-0.466955 0.053670 -0.043167
-0.466955 0.037261 0.058870
-0.466955 -0.020488 -0.053189
-0.466955 0.068805 -0.034558
-0.466955 0.016480 -0.066325
-0.466955 -0.027742 -0.028544
-0.466955 -0.041681 -0.072897
-0.466955 0.045203 0.069983
-0.466955 -0.040211 0.088914
-0.466955 0.007049 -0.033025
-0.466955 0.001433 -0.032409
-0.466955 -0.055662 -0.019834
-0.466955 0.004060 -0.065340
-0.466955 -0.060589 -0.036483
-0.466955 -0.047283 -0.048962
-0.466955 0.066943 0.049602
-0.466955 -0.007444 -0.075469
-0.466955 0.070070 -0.057555
-0.466955 0.099624 -0.006541
-0.466955 0.014381 -0.007933
-0.466955 0.054815 -0.022782
-0.466955 0.073402 0.001322
-0.466955 -0.082009 -0.033913
-0.466955 0.020634 -0.061312
-0.466955 0.050880 -0.056713
-0.466955 -0.070369 -0.062021
-0.466955 0.040257 -0.047568
-0.466955 -0.067198 -0.014486
-0.466955 0.052870 -0.078951
-0.466955 -0.007851 -0.094126
-0.466955 0.068015 0.065441
-0.466955 -0.019291 -0.077983
-0.466955 0.084307 0.012880
-0.466955 -0.058457 0.033869
-0.466955 -0.028150 0.052901
-0.466955 -0.014134 0.067120
-0.466955 0.055358 0.031232
-0.466955 -0.031438 -0.084318
-0.466955 -0.094689 0.021636
-0.466955 -0.008749 0.068310
-0.466955 0.008517 -0.044813
-0.466955 0.083670 0.002979
-0.466955 -0.047132 -0.021679
-0.466955 -0.004442 0.057907
-0.466955 0.043392 -0.039933
-0.466955 -0.000435 0.090128
-0.466955 -0.010659 0.022229
-0.466955 -0.023896 -0.022864
-0.466955 -0.005614 0.075868
-0.466955 0.045254 0.027959
-0.466955 -0.097293 0.006647
-0.466955 -0.000930 -0.027647
-0.466955 0.064288 -0.021596
-0.466955 -0.093145 0.019569
-0.466955 -0.057226 0.036267
-0.466955 -0.008829 -0.034529
-0.466955 0.092356 0.037923
-0.466955 0.061657 -0.012447
-0.466955 -0.016672 0.062367
-0.466955 0.044734 -0.021176
-0.466955 0.038334 0.021124
-0.466955 -0.042996 0.045119
-0.466955 0.010579 0.031395
-0.466955 0.050069 -0.011754
-0.466955 -0.009554 0.034702
-0.466955 -0.079168 0.018707
-0.466955 0.001599 -0.088413
-0.466955 -0.075361 0.027858
-0.466955 -0.010454 0.071205
-0.466955 -0.034467 0.078328
-0.466955 0.088115 -0.032425
-0.466955 -0.021979 0.059522
-0.466955 0.028129 0.053422
-0.466955 -0.018310 0.046171
-0.466955 -0.039489 -0.001269
-0.466955 -0.021908 0.011460
-0.466955 0.005868 0.082023
-0.466955 -0.083562 -0.051715
-0.466955 0.027594 0.072949
-0.466955 0.023177 0.085053
-0.466955 -0.022625 -0.083009
-0.466955 -0.028479 -0.056937
-0.466955 -0.012369 0.049000
-0.466955 0.028933 0.078356
-0.466955 0.078718 0.007264
-0.466955 -0.009062 0.043959
-0.466955 -0.051360 -0.024053
-0.466955 -0.018431 0.071281
-0.466955 -0.066154 -0.063704
-0.466955 -0.056170 -0.033239
-0.466955 0.025701 0.095529
-0.466955 -0.044009 -0.010204
-0.466955 -0.057327 0.003174
-0.466955 -0.021018 -0.002773
-0.466955 0.028443 0.055875
-0.466955 -0.078882 -0.039346
-0.466955 0.060879 0.043912
-0.466955 -0.067041 0.031025
-0.466955 0.066501 0.015225
-0.466955 -0.062005 0.037997
-0.466955 0.017540 -0.025683
-0.466955 0.045782 -0.050397
-0.466955 0.013843 0.036126
-0.466955 -0.054944 0.029820
-0.466955 -0.022490 -0.027004
-0.466955 0.036991 0.019677
-0.466955 -0.043996 -0.018782
-0.466955 -0.013994 0.021469
-0.466955 -0.088711 -0.011807
-0.466955 0.033249 0.064966
-0.466955 0.019074 -0.068553
-0.466955 -0.051521 0.061911
-0.466955 0.027603 -0.035506
-0.466955 -0.070738 0.041593
-0.466955 -0.026221 -0.012010
-0.466955 -0.011395 -0.000053
-0.466955 -0.077664 -0.025175
-0.466955 -0.082050 -0.047631
-0.466955 -0.061332 -0.071372
-0.466955 -0.036542 -0.064328
-0.466955 0.056256 0.052429
-0.466955 -0.007522 -0.086927
-0.466955 0.077615 -0.000519
-0.466955 0.075193 -0.012799
-0.466955 0.034770 -0.059109
-0.466955 0.068995 -0.008022
-0.466955 -0.050438 -0.006843
-0.466955 0.046914 -0.059274
-0.466955 0.011674 0.071537
-0.466955 -0.034609 0.020506
-0.466955 0.066843 0.030752
-0.466955 0.067187 0.042446
-0.466955 0.023842 -0.008327
-0.466955 0.072081 0.026390
-0.466955 0.063102 -0.071977
-0.466955 0.051816 -0.026242
-0.466955 0.007456 0.003499
-0.466955 0.024579 -0.029992
-0.466955 -0.073328 -0.002687
-0.466955 0.077865 -0.040372
-0.466955 0.052505 -0.060347
-0.466955 0.013938 -0.024309
-0.466955 -0.003636 0.011259
-0.466955 0.050841 0.036887
-0.466955 -0.053854 0.021670
-0.466955 -0.014861 -0.077745
-0.466955 0.016722 0.002916
-0.466955 -0.056429 0.069438
-0.466955 -0.088078 0.034925
-0.466955 -0.071817 0.035825
-0.466955 -0.021821 -0.032037
-0.466955 0.047840 0.049096
-0.466955 -0.000917 0.097692
-0.466955 -0.034846 0.068104
-0.466955 -0.037418 0.002420
-0.466955 0.064311 -0.056009
-0.466955 -0.036812 0.075041
-0.466955 0.000044 -0.097624
-0.466955 -0.068765 0.064142
-0.466955 -0.054625 -0.049864
-0.466955 -0.082011 0.016454
-0.466955 -0.008683 -0.064724
-0.466955 0.049340 0.073520
-0.466955 0.087326 -0.031007
-0.466955 0.033003 -0.024977
-0.466955 0.057477 -0.030184
-0.466955 -0.045725 0.045460
-0.466955 -0.050487 0.029969
-0.466955 0.082954 0.025688
-0.466955 -0.038256 -0.041460
-0.466955 0.072514 -0.003203
-0.466955 -0.048308 0.041464
-0.466955 0.009284 0.098407
-0.466955 0.049326 -0.074240
-0.466955 -0.044815 0.088778
-0.466955 0.061489 -0.034498
-0.466955 0.021112 -0.043608
-0.466955 -0.045303 0.047265
-0.466955 0.083447 -0.049087
-0.466955 0.028885 0.037116
-0.466955 0.045455 0.016240
-0.466955 -0.021134 0.043192
-0.466955 0.061130 0.053847
-0.466955 0.009776 -0.004106
-0.466955 -0.020102 -0.031228
-0.466955 0.002517 -0.022032
-0.466955 -0.071981 -0.008790
-0.466955 -0.038126 -0.089031
-0.466955 0.025635 0.055103
-0.466955 -0.022969 0.053330
-0.466955 0.073711 0.023195
-0.466955 -0.065899 0.049378
-0.466955 -0.000754 0.016894
-0.466955 -0.060273 -0.002057
-0.466955 -0.016825 0.036012
-0.466955 -0.077950 -0.046453
-0.466955 -0.064491 0.075603
-0.466955 -0.070009 -0.053737
-0.466955 -0.085563 0.019362
-0.466955 -0.058376 0.044521
-0.466955 0.032181 -0.089244
-0.466955 0.021823 0.094133
-0.466955 0.003343 0.018511
-0.466955 0.060233 0.073937
-0.466955 -0.037814 0.088019
-0.466955 -0.014720 0.035109
-0.466955 -0.092266 0.012744
-0.466955 -0.025164 -0.031890
-0.466955 -0.068746 0.059633
-0.466955 0.070981 0.013231
-0.466955 0.071859 0.031899
-0.466955 -0.070490 0.007182
-0.466955 0.061336 -0.055707
-0.466955 0.044797 0.058791
-0.466955 -0.098685 -0.000845
-0.466955 0.054532 0.056222
-0.466955 -0.031038 0.067330
-0.466955 0.029992 0.016789
-0.466955 -0.003421 0.086566
-0.466955 0.087014 0.019782
-0.466955 -0.025801 0.072824
-0.466955 -0.068459 -0.021674
-0.466955 -0.022291 0.082750
-0.466955 -0.069670 -0.067374
-0.466955 0.062242 0.027481
-0.466955 -0.041716 0.030256
-0.466955 0.017385 -0.058117
-0.466955 -0.063467 0.038543
-0.466955 -0.025330 -0.056874
-0.466955 0.083514 -0.005240
-0.466955 -0.038475 -0.076379
-0.466955 -0.041316 -0.020572
-0.466955 0.069239 -0.061173
-0.466955 -0.057490 -0.039392
-0.466955 -0.015385 0.053623
-0.466955 -0.048893 -0.045835
-0.466955 0.041928 0.064873
-0.466955 -0.062631 -0.067482
-0.466955 0.068690 -0.038406
-0.466955 -0.008111 -0.024667
-0.466955 -0.029822 -0.075844
-0.466955 0.094901 -0.021180
-0.466955 -0.010743 -0.067412
-0.466955 -0.048421 0.032181
-0.466955 0.002655 0.027227
-0.466955 0.063151 -0.014239
-0.466955 0.078835 0.016885
-0.466955 0.037215 0.079242
-0.466955 -0.027215 0.029970
-0.466955 0.006179 0.077472
-0.466955 0.031957 0.057235
-0.466955 -0.048489 0.080931
-0.466955 0.006529 -0.045883
-0.466955 -0.064866 0.062047
-0.466955 -0.025669 0.056367
-0.466955 -0.073731 0.025766
-0.466955 0.031652 -0.080952
-0.466955 -0.040746 -0.061274
-0.466955 -0.075377 -0.057337
-0.466955 0.032698 0.036690
-0.466955 -0.086779 0.045039
-0.466955 0.029866 -0.048479
-0.466955 -0.065497 0.014454
-0.466955 0.034730 -0.040303
-0.466955 0.021378 0.029394
-0.466955 0.052059 0.072353
-0.466955 0.033366 -0.041057
-0.466955 0.029283 0.062830
-0.466955 0.023988 0.065414
-0.466955 0.014896 -0.040475
-0.466955 0.069109 -0.048064
-0.466955 -0.013407 -0.020579
-0.466955 -0.042990 0.073057
-0.466955 0.013465 -0.005914
-0.466955 -0.020022 0.061873
-0.466955 0.041850 -0.027772
-0.466955 -0.075775 -0.063990
-0.466955 0.013973 0.029763
-0.466955 -0.016911 0.045929
-0.466955 0.006049 0.060022
-0.466955 -0.066667 0.058723
-0.466955 -0.030448 -0.093792
-0.466955 -0.035221 0.043055
-0.466955 -0.043092 -0.045859
-0.466955 -0.087943 -0.019852
-0.466955 -0.039367 0.090906
-0.466955 -0.031307 -0.002662
-0.466955 -0.028040 -0.044367
-0.466955 -0.012856 0.066002
-0.466955 0.014789 0.090302
-0.466955 0.075827 0.055242
-0.466955 0.026446 -0.081338
-0.466955 0.025025 -0.012809
-0.466955 0.095723 0.024948
-0.466955 -0.013377 -0.003921
-0.466955 0.004256 0.012950
-0.466955 0.088385 -0.001637
-0.466955 0.002651 -0.084476
-0.466955 0.070567 -0.069219
-0.466955 0.065843 -0.034872
-0.466955 0.023234 -0.043267
-0.466955 -0.000384 -0.033623
-0.466955 -0.075832 0.025575
-0.466955 -0.016777 -0.052469
-0.466955 -0.034493 -0.061575
-0.466955 0.008807 0.072681
-0.466955 0.076996 0.002322
-0.466955 0.046088 -0.045526
-0.466955 -0.079048 0.022657
-0.466955 0.017264 -0.018635
-0.466955 -0.042894 0.033997
-0.466955 -0.054372 0.048984
-0.466955 -0.028716 -0.095309
-0.466955 -0.068908 0.053934
-0.466955 0.006073 -0.035769
-0.466955 0.026759 0.001408
-0.466955 -0.058897 -0.035603
-0.466955 0.036895 -0.055912
-0.466955 0.028626 0.032054
-0.466955 -0.078162 0.057312
-0.466955 -0.075276 0.036379
-0.466955 0.081690 0.044798
-0.466955 0.094369 -0.012573
-0.466955 0.064981 -0.000880
-0.466955 0.067108 -0.072343
-0.466955 -0.004608 -0.077348
-0.466955 0.093163 -0.024920
-0.466955 -0.030247 0.080738
-0.466955 -0.048045 -0.060974
-0.466955 0.041172 -0.043601
-0.466955 -0.022982 0.090833
-0.466955 0.092675 -0.007829
-0.466955 0.044510 0.054635
-0.466955 0.001374 0.005194
-0.466955 -0.064319 0.065821
-0.466955 -0.013205 -0.092829
-0.466955 0.047553 -0.029712
-0.466955 0.076394 -0.063195
-0.466955 0.081763 0.020155
-0.466955 0.087704 -0.024316
-0.466955 -0.005017 0.033202
-0.466955 0.082161 -0.038564
-0.466955 0.053643 -0.005269
-0.466955 -0.024516 0.082655
-0.466955 -0.078270 -0.018265
-0.466955 0.042113 0.073504
-0.466955 0.074929 -0.024320
-0.466955 0.006564 0.055959
-0.466955 0.080891 0.049964
-0.466955 -0.053623 0.075709
-0.466955 0.013972 0.063495
-0.466955 -0.061592 0.057994
-0.466955 -0.034943 -0.042665
-0.466955 0.032853 0.011942
-0.466955 -0.002469 -0.024282
-0.466955 0.005752 0.031566
-0.466955 0.078549 -0.047693
-0.466955 0.025977 0.044217
-0.466955 -0.048905 -0.043173
-0.466955 0.030622 -0.057431
-0.466955 0.021424 -0.094600
-0.466955 -0.076500 -0.012370
-0.466955 -0.047488 0.068663
-0.466955 -0.024454 -0.043668
-0.466955 -0.055280 0.017525
-0.466955 -0.041799 0.052896
-0.466955 0.054761 -0.036411
-0.466955 0.072321 -0.021992
-0.466955 -0.082299 0.056082
-0.466955 -0.053601 -0.006657
-0.466955 0.001873 0.003191
-0.466955 0.076427 0.038278
-0.466955 0.085577 0.002196
-0.466955 -0.045969 0.032868
-0.466955 -0.044514 -0.085464
-0.466955 -0.039811 0.078601
-0.466955 -0.035239 -0.006786
-0.466955 0.093498 0.014829
-0.466955 0.094259 0.011798
-0.466955 0.016833 -0.040420
-0.466955 -0.042292 0.037119
-0.466955 -0.035194 -0.039961
-0.466955 0.039519 0.044086
-0.466955 -0.071675 -0.001066
-0.466955 0.046451 0.046720
-0.466955 0.040213 -0.033444
-0.466955 0.049247 -0.081960
-0.466955 0.009857 0.048055
-0.466955 0.068354 0.012416
-0.466955 0.051823 0.020367
-0.466955 0.084643 -0.026577
-0.466955 0.060774 -0.002106
-0.466955 -0.019009 -0.017747
-0.466955 -0.070206 0.053159
-0.466955 -0.028583 -0.046271
-0.466955 -0.073897 -0.055814
-0.466955 -0.044978 -0.036813
-0.466955 0.025989 0.068766
-0.466955 0.087379 -0.044118
-0.466955 -0.035111 0.092892
-0.466955 0.093524 -0.001081
-0.466955 -0.050835 -0.066112
-0.466955 0.093242 -0.002761
-0.466955 -0.024745 -0.026178
-0.466955 -0.032233 -0.049053
-0.466955 0.043116 0.042482
-0.466955 0.046209 -0.079187
-0.466955 -0.028027 0.022261
-0.466955 0.059105 -0.055845
-0.466955 -0.064434 0.056198
-0.466955 -0.015496 -0.046728
-0.466955 -0.056370 0.031853
-0.466955 0.066116 -0.007496
-0.466955 -0.074157 0.033731
-0.466955 0.048687 0.015068
-0.466955 -0.062469 -0.004314
-0.466955 0.057799 0.030154
-0.466955 0.091156 -0.037942
-0.466955 0.079784 -0.058994
-0.466955 0.024047 0.033240
-0.466955 -0.007615 0.038456
-0.466955 0.038372 -0.045013
-0.466955 -0.028829 -0.059622
-0.466955 0.027896 0.006723
-0.466955 -0.006109 0.063885
-0.466955 0.082579 -0.045140
-0.466955 0.028431 -0.079445
-0.466955 -0.072893 -0.054527
-0.466955 -0.052693 -0.012940
-0.466955 -0.090151 -0.039643
-0.466955 -0.038625 0.047961
-0.466955 0.042597 -0.085846
-0.466955 -0.042836 -0.071779
-0.466955 0.010100 -0.009260
-0.466955 0.052762 -0.076567
-0.466955 0.005716 0.001430
-0.466955 -0.064071 -0.070805
-0.466955 -0.052949 -0.057568
-0.466955 0.016121 0.009804
-0.466955 0.094829 0.021626
-0.466955 -0.056396 0.059759
-0.466955 -0.024100 -0.027412
-0.466955 -0.049266 -0.012567
-0.466955 0.030838 0.004492
-0.466955 0.042797 -0.014888
-0.466955 -0.063441 -0.076261
-0.466955 -0.033104 0.030446
-0.466955 0.022763 0.059663
-0.466955 0.075644 -0.048819
-0.466955 -0.096461 0.025111
-0.466955 -0.030320 0.039626
-0.466955 0.049527 -0.068367
-0.466955 0.005587 -0.000495
-0.466955 0.095673 0.027062
-0.466955 -0.050514 -0.034469
-0.466955 -0.026706 0.022533
-0.466955 -0.004138 -0.023784
-0.466955 0.014032 -0.065790
-0.466955 0.050303 0.053680
-0.466955 0.004323 0.096761
-0.466955 0.081752 -0.018607
-0.466955 -0.069747 -0.040329
-0.466955 0.060227 0.007314
-0.466955 0.046756 -0.083381
-0.466955 -0.004360 0.024739
-0.466955 0.010963 -0.077547
-0.466955 0.051778 0.052865
-0.466955 -0.024636 0.064669
-0.466955 -0.016533 -0.013387
-0.466955 -0.032931 -0.018460
-0.466955 -0.016731 -0.090210
-0.466955 0.074571 0.021928
-0.466955 -0.076210 -0.027363
-0.466955 0.023248 -0.073719
-0.466955 0.073930 -0.033826
-0.466955 0.048946 0.087135
-0.466955 0.081906 -0.029317
-0.466955 0.029061 0.004099
-0.466955 0.062637 0.067229
-0.466955 -0.025474 0.009566
-0.466955 0.000042 0.088847
-0.466955 0.005701 0.026322
-0.466955 -0.009620 0.060346
-0.466955 -0.041305 0.003080
-0.466955 -0.081772 0.020825
-0.466955 -0.068069 -0.049080
-0.466955 -0.043813 0.047321
-0.466955 -0.015860 0.098416
-0.466955 0.016943 -0.015024
-0.466955 -0.035246 0.001039
-0.466955 0.019226 0.070562
-0.466955 0.068323 -0.067867
-0.466955 0.079028 0.035183
-0.466955 -0.015173 -0.044998
-0.466955 0.093793 -0.028811
-0.466955 -0.080426 0.017347
-0.466955 0.062415 -0.070616
-0.466955 -0.037261 0.041123
-0.466955 -0.049784 0.024493
-0.466955 -0.010981 0.037285
-0.466955 -0.040835 0.053951
-0.466955 0.008803 -0.077143
-0.466955 -0.050681 -0.052659
-0.466955 0.050146 0.013316
-0.466955 0.031502 -0.016864
-0.466955 0.042890 0.014586
-0.466955 -0.038345 -0.056415
-0.466955 -0.015353 -0.066015
-0.466955 0.018485 0.023805
-0.466955 0.061993 -0.054326
-0.466955 0.019959 -0.031504
-0.466955 -0.045075 0.023282
-0.466955 -0.099046 -0.007086
-0.466955 -0.003055 -0.025504
-0.466955 -0.019065 -0.009397
-0.466955 0.007765 -0.097301
-0.466955 -0.015847 0.058211
-0.466955 0.074043 -0.017267
-0.466955 -0.024260 0.059449
-0.466955 0.074119 0.066986
-0.466955 0.002948 -0.059614
-0.466955 0.046011 -0.054832
-0.466955 -0.073524 0.035684
-0.466955 -0.058454 0.035282
-0.466955 0.070104 -0.052775
-0.466955 -0.043647 -0.050967
-0.466955 -0.070058 -0.013528
-0.466955 0.018213 0.080227
-0.466955 0.074964 0.027992
-0.466955 -0.080057 0.015917
-0.466955 0.036175 0.015006
-0.466955 -0.078857 -0.008008
-0.466955 -0.034650 0.087870
-0.466955 0.082272 -0.031578
-0.466955 0.094170 -0.010140
-0.466955 0.090805 -0.022809
-0.466955 -0.030028 0.065685
-0.466955 0.025281 -0.001045
-0.466955 0.047240 0.070178
-0.466955 -0.047828 -0.038300
-0.466955 -0.021453 0.023166
-0.466955 0.035338 -0.042353
-0.466955 -0.095420 -0.024571
-0.466955 -0.054604 0.061568
-0.466955 -0.094190 0.032428
-0.466955 0.061427 -0.010452
-0.466955 -0.042737 -0.085563
-0.466955 -0.009502 0.020631
-0.466955 0.041969 -0.074802
-0.466955 -0.091382 0.008154
-0.466955 -0.081507 -0.040404
-0.466955 0.016796 -0.006000
-0.466955 0.005914 0.052022
-0.466955 -0.015612 -0.056585
-0.466955 0.002511 -0.075325
-0.466955 0.091027 -0.021271
-0.466955 0.016194 0.039787
-0.466955 0.039616 0.002318
-0.466955 0.074494 0.040829
-0.466955 -0.035416 0.031266
-0.466955 0.042910 0.036812
-0.466955 -0.049162 -0.000089
-0.466955 0.014787 -0.054175
-0.466955 0.093517 0.034026
-0.466955 -0.068472 -0.023175
-0.466955 0.055690 -0.066251
-0.466955 0.076780 0.025259
-0.466955 0.083981 0.047624
-0.466955 -0.040270 -0.069623
-0.466955 -0.034266 -0.071536
-0.466955 -0.031084 -0.000777
-0.466955 -0.020244 -0.047442
-0.466955 0.018178 0.012039
-0.466955 -0.016735 0.015048
-0.466955 0.030541 0.088106
-0.466955 -0.037416 0.023607
-0.466955 -0.030029 -0.080643
-0.466955 -0.006285 -0.076855
-0.466955 0.004737 0.069187
-0.466955 -0.087554 -0.007553
-0.466955 0.023531 0.001245
-0.466955 0.061475 -0.025585
-0.466955 0.047710 -0.031546
-0.466955 0.065920 -0.015080
-0.466955 0.068592 0.006377
-0.466955 -0.033747 0.025312
-0.466955 0.050612 -0.059442
-0.466955 0.038856 0.058583
-0.466955 -0.053737 -0.040402
-0.466955 0.041228 0.077541
-0.466955 0.015450 0.083071
-0.466955 -0.047550 0.022595
-0.466955 0.017754 0.025139
-0.466955 0.067468 0.067074
-0.466955 -0.035826 0.069619
-0.466955 0.086795 -0.033207
-0.466955 0.084671 -0.021432
-0.466955 0.085963 0.018391
-0.466955 0.045463 -0.002173
-0.466955 -0.085936 0.016723
-0.466955 -0.063676 -0.046447
-0.466955 -0.082322 0.038732
-0.466955 0.062547 0.017090
-0.466955 0.062651 -0.042908
-0.466955 0.032131 -0.052024
-0.466955 0.008784 -0.018833
-0.466955 -0.012547 0.081154
-0.466955 0.077956 -0.007472
-0.466955 -0.057071 -0.018821
-0.466955 -0.034668 0.061177
-0.466955 0.045730 0.036357
-0.466955 -0.002577 -0.013524
-0.466955 -0.029678 -0.044822
-0.466955 0.043565 -0.059414
-0.466955 0.015167 0.074197
-0.466955 0.056933 -0.036764
-0.466955 -0.018881 -0.084335
-0.466955 0.018180 0.028774
-0.466955 0.029975 0.066655
-0.466955 -0.082183 0.012580
-0.466955 0.040964 0.025649
-0.466955 -0.050626 -0.080472
-0.466955 -0.043401 -0.074477
-0.466955 -0.057739 -0.014056
-0.466955 0.039827 -0.044374
-0.466955 0.011794 0.048405
-0.466955 -0.021900 -0.081550
-0.466955 -0.001790 0.092769
-0.466955 -0.061257 0.011187
-0.466955 0.048658 0.072215
-0.466955 -0.092759 0.021030
-0.466955 -0.043023 -0.000262
-0.466955 -0.065102 0.036148
-0.466955 0.049935 -0.043886
-0.466955 -0.070656 0.001486
-0.466955 -0.022468 0.097027
-0.466955 -0.066998 -0.042903
-0.466955 -0.006666 0.069692
-0.466955 0.072957 -0.008012
-0.466955 -0.017490 0.024829
-0.466955 0.046184 -0.011518
-0.466955 -0.027111 0.007312
-0.466955 -0.001295 -0.059994
-0.466955 0.023387 -0.080934
-0.466955 0.009063 0.004147
-0.466955 -0.070679 0.058424
-0.466955 -0.043840 0.077304
-0.466955 -0.019152 -0.010993
-0.466955 -0.006436 0.041118
-0.466955 0.016089 -0.020740
-0.466955 0.044072 -0.087291
-0.466955 -0.018035 0.000773
-0.466955 -0.036385 0.068086
-0.466955 -0.066809 -0.069647
-0.466955 0.056242 -0.010781
-0.466955 -0.036067 0.044664
-0.466955 -0.066797 -0.032294
-0.466955 -0.001295 0.088159
-0.466955 -0.017043 0.044491
-0.466955 0.026107 0.022800
-0.466955 -0.061165 0.054051
-0.466955 -0.092411 -0.028126
-0.466955 -0.027333 -0.014400
-0.466955 -0.052352 0.045014
-0.466955 -0.030953 0.045452
-0.466955 0.084218 -0.031040
-0.466955 -0.031142 0.058147
-0.466955 0.024177 0.091070
-0.466955 -0.029655 0.076433
-0.466955 0.058231 0.014926
-0.466955 -0.032963 0.028078
-0.466955 0.068312 -0.018586
-0.466955 -0.056666 -0.021756
-0.466955 0.086239 -0.035471
-0.466955 -0.052608 0.055820
-0.466955 -0.012414 -0.016389
-0.466955 -0.050278 0.056884
-0.466955 0.014711 -0.080796
-0.466955 -0.000955 0.037728
-0.466955 -0.043090 -0.068217
-0.466955 -0.041672 0.062566
-0.466955 0.017743 0.058906
-0.466955 -0.023449 0.013088
-0.466955 -0.013377 0.011464
-0.466955 0.002987 0.008956
-0.466955 -0.036333 0.014887
-0.466955 0.024590 -0.046483
-0.466955 -0.022261 0.056501
-0.466955 0.080778 0.055251
-0.466955 0.070942 0.049233
-0.466955 -0.046724 -0.071410
-0.466955 0.025683 0.076179
-0.466955 0.036151 0.041263
-0.466955 0.024161 -0.086712
-0.466955 0.073756 -0.059007
-0.466955 0.073635 0.029787
-0.466955 -0.011267 0.046287
-0.466955 -0.007338 -0.080662
-0.466955 -0.001612 0.053132
-0.466955 -0.046811 0.051161
-0.466955 -0.087695 -0.013623
-0.466955 -0.022823 0.078426
-0.466955 -0.017379 -0.055568
-0.466955 -0.031025 0.022881
-0.466955 -0.087972 -0.042423
-0.466955 -0.050271 0.020130
-0.466955 -0.052220 0.066940
-0.466955 -0.012990 -0.040232
-0.466955 -0.059881 -0.066494
-0.466955 -0.068336 -0.066420
-0.466955 -0.036571 -0.003498
-0.466955 -0.076743 -0.050261
-0.466955 -0.057456 -0.028079
-0.466955 0.024896 -0.049548
-0.466955 -0.091151 -0.030811
-0.466955 0.062822 -0.064177
-0.466955 0.007184 -0.038797
-0.466955 0.057675 0.001652
-0.466955 -0.067425 -0.024060
-0.466955 -0.057207 -0.047928
-0.466955 0.016294 -0.032847
-0.466955 0.072310 -0.057246
-0.466955 0.046926 -0.087944
-0.466955 -0.069937 -0.045532
-0.466955 0.062699 -0.022384
-0.466955 0.047892 0.000928
-0.466955 0.001294 -0.077500
-0.466955 -0.090051 0.039142
-0.466955 -0.051215 0.017785
-0.466955 -0.062323 0.067641
-0.466955 -0.049913 0.048532
-0.466955 0.087190 0.038646
-0.466955 0.053133 0.010019
-0.466955 -0.043368 -0.023447
-0.466955 0.034456 -0.091981
-0.466955 -0.041115 0.075845
-0.466955 -0.043644 0.052795
-0.466955 -0.006692 0.042564
-0.466955 -0.021536 0.003321
-0.466955 -0.058804 -0.072868
-0.466955 0.028803 0.025222
-0.466955 0.030744 -0.002964
-0.466955 -0.079866 -0.010552
-0.466955 -0.006972 -0.068911
-0.466955 -0.090952 -0.010341
-0.466955 0.017705 0.088985
-0.466955 0.064767 -0.015877
-0.466955 -0.027481 -0.019081
-0.466955 -0.026288 0.055070
-0.466955 -0.026404 -0.010061
-0.466955 -0.078762 -0.019773
-0.466955 -0.093884 0.001414
-0.466955 -0.024462 0.091235
-0.466955 -0.051484 -0.021467
-0.466955 0.021039 0.010414
-0.466955 0.068813 -0.032514
-0.466955 -0.008925 0.078639
-0.466955 0.049238 0.016864
-0.466955 0.063995 0.053352
-0.466955 0.015358 0.030113
-0.466955 -0.041732 -0.015197
-0.466955 0.067312 0.046136
-0.466955 -0.037186 0.029039
-0.466955 0.021508 -0.074077
-0.466955 0.052257 0.011188
-0.466955 0.029515 0.021188
-0.466955 0.068698 -0.030901
-0.466955 0.020646 0.050197
-0.466955 -0.022999 -0.011842
-0.466955 0.061852 -0.020863
-0.466955 -0.035456 0.047958
-0.466955 0.056348 -0.061093
-0.466955 0.098993 0.012379
-0.466955 0.007178 0.036260
-0.466955 -0.002678 0.071292
-0.466955 0.098834 -0.005460
-0.466955 -0.037282 0.058077
-0.466955 -0.000278 -0.087433
-0.466955 -0.006575 0.009153
-0.466955 0.035077 0.027337
-0.466955 0.014455 -0.038381
-0.466955 -0.029752 -0.040141
-0.466955 0.004908 0.062805
-0.466955 0.056762 -0.008660
-0.466955 0.004334 0.081204
-0.466955 0.045487 0.010059
-0.466955 -0.086276 0.036993
-0.466955 0.063526 -0.012741
-0.466955 -0.089664 0.040853
-0.466955 -0.008318 0.042244
-0.466955 0.038904 -0.046772
-0.466955 -0.025979 -0.047609
-0.466955 0.010364 0.067946
-0.466955 -0.050131 -0.044586
-0.466955 -0.012868 0.053853
-0.466955 0.000903 0.036493
-0.466955 -0.002481 -0.035759
-0.466955 0.031631 0.006085
-0.466955 -0.082439 -0.044105
-0.466955 0.069344 0.020637
-0.466955 0.099904 0.000659
-0.466955 -0.070540 0.032340
-0.466955 0.065917 -0.006108
-0.466955 -0.033472 0.077199
-0.466955 -0.012930 -0.037002
-0.466955 -0.028953 0.064072
-0.466955 0.014699 -0.021568
-0.466955 0.025052 0.016502
-0.466955 0.066478 0.053346
-0.466955 -0.015234 -0.053745
-0.466955 0.009824 -0.037903
-0.466955 0.075673 0.062455
-0.466955 0.044782 -0.078158
-0.466955 0.007685 -0.082143
-0.466955 -0.016036 -0.049538
-0.466955 -0.024780 -0.055520
-0.466955 -0.048970 -0.057125
-0.466955 -0.045016 -0.011154
-0.466955 0.021093 0.090123
-0.466955 -0.040764 -0.006633
-0.466955 -0.069652 0.055476
-0.466955 0.049546 0.065881
-0.466955 0.083823 0.008459
-0.466955 -0.049728 -0.079398
-0.466955 -0.062853 -0.032829
-0.466955 0.001816 0.064811
-0.466955 0.023165 0.055717
-0.466955 0.037475 0.010819
-0.466955 0.032107 -0.068366
-0.466955 -0.055272 -0.021297
-0.466955 0.012372 -0.059246
-0.466955 -0.039630 -0.081440
-0.466955 -0.054777 0.046476
-0.466955 0.010936 -0.063379
-0.466955 -0.051716 0.048471
-0.466955 -0.066861 0.006905
-0.466955 -0.094202 -0.011464
-0.466955 0.083167 -0.021591
-0.466955 -0.052600 0.005665
-0.466955 0.026806 -0.011151
-0.466955 -0.014318 0.057665
-0.466955 -0.075960 -0.053092
-0.466955 0.041655 -0.030324
-0.466955 0.023248 -0.015941
-0.466955 -0.080145 0.051374
-0.466955 -0.072730 -0.030174
-0.466955 0.005526 -0.056033
-0.466955 0.000401 -0.003047
-0.466955 0.063049 -0.057169
-0.466955 0.049636 -0.006326
-0.466955 -0.080072 -0.026395
-0.466955 0.064151 -0.050660
-0.466955 0.021265 -0.064771
-0.466955 0.025522 0.026034
-0.466955 0.073153 -0.052891
-0.466955 -0.027591 0.025245
-0.466955 0.019823 -0.087863
-0.466955 0.009783 0.043505
-0.466955 0.015805 0.088604
-0.466955 -0.001833 0.079530
-0.466955 -0.088474 0.009688
-0.466955 -0.039523 -0.074796
-0.466955 0.041374 0.009564
-0.466955 -0.065746 -0.017683
-0.466955 0.007698 -0.091497
-0.466955 0.026301 -0.007883
-0.466955 0.021687 -0.055060
-0.466955 -0.071024 0.008701
-0.466955 0.042321 -0.026161
-0.466955 -0.000974 0.076286
-0.466955 -0.040517 0.014490
-0.466955 0.009536 -0.053801
-0.466955 0.010718 -0.033289
-0.466955 -0.029769 -0.005525
-0.466955 -0.003108 0.001204
-0.466955 0.031968 0.042894
-0.466955 0.077800 0.009204
-0.466955 -0.061050 0.052402
-0.466955 -0.014946 -0.081526
-0.466955 -0.032673 0.087752
-0.466955 0.049421 -0.037034
-0.466955 -0.018901 0.020092
-0.466955 -0.032190 0.004392
-0.466955 -0.077184 0.042482
-0.466955 -0.035913 -0.016161
-0.466955 -0.030357 -0.064025
-0.466955 -0.026103 0.067631
-0.466955 0.010367 -0.052576
-0.466955 -0.014625 0.025725
-0.466955 -0.082813 0.031942
-0.466955 0.058816 -0.027544
-0.466955 0.017205 -0.076925
-0.466955 0.001462 -0.024831
-0.466955 -0.068957 0.038912
-0.466955 -0.028546 0.077474
-0.466955 0.061830 -0.060433
-0.466955 0.059412 0.024060
-0.466955 0.032697 -0.018061
-0.466955 -0.076419 0.022888
-0.466955 -0.069884 -0.032370
-0.466955 -0.059308 0.041117
-0.466955 -0.032235 -0.087560
-0.466955 0.032351 -0.093804
-0.466955 0.050532 -0.034580
-0.466955 -0.081616 0.035502
-0.466955 -0.006562 0.002124
-0.466955 0.084244 -0.043762
-0.466955 -0.036219 -0.018894
-0.466955 -0.026412 -0.061068
-0.466955 0.023540 0.035570
-0.466955 0.048770 0.004755
-0.466955 -0.073325 0.048151
-0.466955 0.012107 0.050892
-0.466955 0.049789 -0.053784
-0.466955 0.002688 0.092997
-0.466955 -0.037301 -0.037205
-0.466955 -0.000409 -0.075160
-0.466955 -0.032056 -0.016913
-0.466955 -0.067143 -0.053105
-0.466955 -0.073949 -0.047265
-0.466955 -0.023289 -0.063423
-0.466955 -0.068505 0.072374
-0.466955 -0.007431 -0.033894
-0.466955 -0.030577 0.019841
-0.466955 0.063666 -0.052257
-0.466955 0.058918 0.061053
-0.466955 0.069033 -0.064662
-0.466955 0.029409 0.018108
-0.466955 -0.034378 0.044333
-0.466955 0.071349 0.068122
-0.466955 0.014238 -0.055724
-0.466955 0.005396 0.027999
-0.466955 -0.027542 0.055722
-0.466955 0.056654 0.003236
-0.466955 -0.064472 -0.069450
-0.466955 -0.070209 0.065067
-0.466955 -0.020080 0.070916
-0.466955 0.049872 -0.075797
-0.466955 0.027269 0.024176
-0.466955 0.079728 -0.043998
-0.466955 0.049893 0.055553
-0.466955 0.085758 -0.013914
-0.466955 0.071243 -0.064256
-0.466955 0.049473 0.058611
-0.466955 -0.025825 0.093397
-0.466955 -0.055372 -0.078018
-0.466955 -0.020780 -0.067410
-0.466955 -0.085754 0.041578
-0.466955 -0.031603 -0.080167
-0.466955 0.049725 -0.021938
-0.466955 0.017348 -0.092036
-0.466955 -0.049085 0.082893
-0.466955 0.077132 -0.051972
-0.466955 -0.025575 0.021490
-0.466955 0.068642 0.045756
-0.466955 0.014666 0.084377
-0.466955 -0.023691 0.034836
-0.466955 0.047982 0.021874
-0.466955 -0.054789 -0.052242
-0.466955 -0.010478 -0.014064
-0.466955 -0.050779 0.053433
-0.466955 0.012136 0.058146
-0.466955 0.034907 -0.038064
-0.466955 0.014902 0.012441
-0.466955 0.027929 -0.018575
-0.466955 0.016148 -0.037603
-0.466955 -0.079152 0.006270
-0.466955 0.095834 -0.011048
-0.466955 -0.041083 -0.051972
-0.466955 -0.036136 -0.030348
-0.466955 0.058348 -0.036885
-0.466955 0.067552 0.050946
-0.466955 -0.055661 -0.053635
-0.466955 -0.007402 -0.023456
-0.466955 0.009169 0.010159
-0.466955 -0.016963 -0.072275
-0.466955 0.009444 0.060110
-0.466955 -0.041271 0.078914
-0.466955 0.067759 -0.052615
-0.466955 -0.056888 -0.023505
-0.466955 0.019878 0.097113
-0.466955 -0.082161 0.050664
-0.466955 -0.050469 -0.009244
-0.466955 -0.072072 0.030613
-0.466955 -0.053948 -0.044784
-0.466955 -0.002499 -0.052082
-0.466955 0.084504 0.036330
-0.466955 0.030038 -0.046376
-0.466955 0.085431 0.030520
-0.466955 0.057313 0.006640
-0.466955 -0.086361 -0.036347
-0.466955 0.024611 -0.031547
-0.466955 0.023011 -0.092879
-0.466955 -0.048432 0.013868
-0.466955 0.083851 0.027277
-0.466955 0.016033 0.051462
-0.466955 0.004076 -0.088928
-0.466955 -0.020130 -0.024733
-0.466955 -0.064234 0.018880
-0.466955 0.080449 0.026587
-0.466955 -0.042161 0.025404
-0.466955 0.068493 0.058376
-0.466955 0.049946 -0.062482
-0.466955 -0.090402 0.015831
-0.466955 -0.032046 -0.008839
-0.466955 0.046682 -0.057598
-0.466955 0.024763 -0.082873
-0.466955 -0.081496 -0.014345
-0.466955 -0.000826 0.042751
-0.466955 0.020281 0.076619
-0.466955 -0.044381 0.048569
-0.466955 0.086857 0.001577
-0.466955 -0.024689 -0.014432
-0.466955 -0.029146 0.026172
-0.466955 0.029080 -0.057602
-0.466955 0.015095 -0.060597
-0.466955 -0.044101 -0.027417
-0.466955 0.023092 0.006871
-0.466955 -0.067586 0.008680
-0.466955 0.026354 -0.016482
-0.466955 -0.044265 -0.001312
-0.466955 -0.085565 -0.016288
-0.466955 0.026671 0.061940
-0.466955 0.057276 0.038112
-0.466955 -0.049957 -0.062257
-0.466955 0.061500 -0.052850
