0.465339 -0.058679 0.004561
0.465339 0.039969 -0.073338
0.465339 0.062316 -0.066823
0.465339 0.059816 -0.025050
0.465339 0.051948 -0.082180
0.465339 -0.049139 -0.047919
0.465339 -0.085700 0.046592
0.465339 -0.067124 0.021504
0.465339 0.012358 -0.054294
0.465339 0.038550 -0.016637
0.465339 0.001630 0.043237
0.465339 -0.005530 0.011973
0.465339 0.050890 -0.062933
0.465339 0.013166 -0.030691
0.465339 -0.027375 -0.094553
0.465339 -0.043374 -0.016796
0.465339 -0.052666 -0.053171
0.465339 -0.034809 -0.049708
0.465339 -0.013808 0.086627
0.465339 -0.070417 0.040213
0.465339 -0.031985 -0.079999
0.465339 0.063371 -0.026740
0.465339 -0.037531 0.057755
0.465339 -0.012667 0.068217
0.465339 0.029514 0.062641
0.465339 0.029159 0.003589
0.465339 0.032638 0.052829
0.465339 0.061807 -0.048957
0.465339 0.004775 0.096050
0.465339 0.025452 -0.034523
0.465339 -0.027045 -0.080953
0.465339 0.070279 -0.041104
0.465339 0.034394 -0.030041
0.465339 -0.033041 -0.086466
0.465339 0.046798 0.027413
0.465339 -0.083802 -0.010089
0.465339 0.078483 0.029437
0.465339 -0.028525 -0.056350
0.465339 0.081996 -0.037509
0.465339 0.059253 -0.044993
0.465339 0.062168 -0.001054
0.465339 0.015584 0.074623
0.465339 0.072504 0.048641
0.465339 -0.003825 -0.032530
0.465339 0.077411 -0.004093
0.465339 -0.016975 -0.007226
0.465339 -0.007977 0.067636
0.465339 0.030002 -0.040298
0.465339 -0.082867 0.023690
0.465339 -0.033863 -0.054303
0.465339 0.084123 0.007094
0.465339 -0.037212 -0.073695
0.465339 0.053372 -0.049259
0.465339 0.065018 0.063226
0.465339 -0.065821 0.068801
0.465339 0.037623 -0.082896
0.465339 -0.032677 -0.053515
0.465339 0.003973 -0.008851
0.465339 0.009807 -0.091287
0.465339 -0.083674 -0.003838
0.465339 -0.081937 0.056977
0.465339 0.049373 0.043258
0.465339 -0.015018 -0.084932
0.465339 0.026768 -0.043539
0.465339 -0.004405 0.064174
0.465339 0.076362 -0.047966
0.465339 -0.047653 -0.002468
0.465339 0.057462 -0.038635
0.465339 0.017304 -0.047072
0.465339 -0.047656 0.069547
0.465339 0.005171 0.018303
0.465339 0.090428 -0.025142
0.465339 -0.005689 -0.065714
0.465339 0.080754 -0.003609
0.465339 -0.003828 -0.087554
0.465339 -0.037136 -0.031753
0.465339 0.001164 -0.084905
0.465339 0.050745 0.054841
0.465339 0.001928 -0.043222
0.465339 0.031277 0.018262
0.465339 0.048941 0.045249
0.465339 0.053924 -0.023383
0.465339 -0.009129 -0.076475
0.465339 -0.012542 0.066554
0.465339 0.024205 0.005644
0.465339 0.051546 -0.011059
0.465339 -0.014208 0.051625
0.465339 0.034871 0.038842
0.465339 -0.081556 -0.051641
0.465339 -0.089037 -0.043645
0.465339 0.016916 -0.010854
0.465339 -0.034828 -0.037257
0.465339 -0.008796 -0.089764
0.465339 0.042663 -0.049342
0.465339 -0.024647 0.080874
0.465339 -0.037284 0.055915
0.465339 -0.036469 0.069641
0.465339 -0.011703 -0.003760
0.465339 0.048311 0.055230
0.465339 0.004092 0.083742
0.465339 0.031002 -0.010794
0.465339 -0.000162 0.091365
0.465339 0.004988 -0.061691
0.465339 -0.056527 -0.008253
0.465339 -0.031203 0.010998
0.465339 0.035468 -0.014076
0.465339 0.037966 0.081704
0.465339 0.003136 0.094510
0.465339 -0.084663 0.008982
0.465339 0.085914 -0.006604
0.465339 0.071716 -0.005649
0.465339 0.026577 0.014862
0.465339 -0.034917 0.066191
0.465339 0.076079 0.052449
0.465339 0.085992 0.038433
0.465339 0.008477 -0.090283
0.465339 0.020220 -0.039676
0.465339 0.064829 0.003659
0.465339 0.080642 0.027655
0.465339 -0.044060 -0.006394
0.465339 0.005084 0.061649
0.465339 0.045056 0.077800
0.465339 -0.084486 -0.015815
0.465339 0.008199 -0.061981
0.465339 0.026594 -0.035853
0.465339 -0.044866 0.022979
0.465339 -0.067115 -0.051531
0.465339 0.031424 -0.053084
0.465339 0.010939 0.059248
0.465339 -0.012724 0.091077
0.465339 -0.038884 -0.017752
0.465339 -0.073253 -0.064647
0.465339 -0.041473 -0.031632
0.465339 0.061756 -0.033671
0.465339 0.040155 -0.005867
0.465339 -0.088243 -0.031635
0.465339 -0.077342 -0.027015
0.465339 0.044598 0.071010
0.465339 0.067212 -0.008352
0.465339 0.029767 0.006607
0.465339 -0.053893 -0.050992
0.465339 -0.011383 -0.015267
0.465339 0.019185 0.095036
0.465339 -0.047910 -0.072675
0.465339 0.011369 0.002285
0.465339 0.021172 0.097711
0.465339 0.025429 -0.009759
0.465339 0.090992 0.021954
0.465339 -0.002651 -0.028320
0.465339 0.035127 0.022458
0.465339 -0.061748 0.021198
0.465339 0.088814 0.024076
0.465339 0.056432 0.005174
0.465339 0.085363 0.045292
0.465339 0.026719 0.057482
0.465339 -0.039416 -0.051353
0.465339 -0.048241 0.072720
0.465339 0.069226 -0.068980
0.465339 0.054725 -0.033769
0.465339 0.021047 -0.093737
0.465339 0.049535 -0.084148
0.465339 0.009465 0.037921
0.465339 0.021787 -0.035555
0.465339 -0.084589 0.005868
0.465339 -0.012096 0.014732
0.465339 0.072090 0.058556
0.465339 0.038179 -0.045120
0.465339 -0.011910 -0.025432
0.465339 0.022857 0.047408
0.465339 0.027516 0.026056
0.465339 -0.001654 -0.020837
0.465339 -0.027801 0.034578
0.465339 0.028646 -0.067467
0.465339 -0.067852 -0.009950
0.465339 -0.044649 0.054262
0.465339 -0.054281 -0.080895
0.465339 0.028868 -0.023292
0.465339 0.030852 0.058836
0.465339 -0.078713 0.041950
0.465339 0.029424 0.019001
0.465339 0.026100 0.051573
0.465339 -0.022349 -0.077990
0.465339 -0.004809 0.090260
0.465339 0.053488 -0.036573
0.465339 -0.017680 -0.093976
0.465339 0.061640 0.044838
0.465339 0.016210 -0.092037
0.465339 -0.015169 -0.013589
0.465339 -0.018382 -0.053674
0.465339 -0.050929 -0.020519
0.465339 -0.064181 0.040317
0.465339 -0.085642 0.048393
0.465339 -0.024756 0.023222
0.465339 0.024262 0.084731
0.465339 0.060238 0.015416
0.465339 0.046809 -0.060690
0.465339 -0.056540 0.004707
0.465339 -0.042346 -0.065119
0.465339 -0.061552 -0.001116
0.465339 -0.088204 0.037910
0.465339 0.080499 -0.002224
0.465339 0.066263 -0.061338
0.465339 -0.064045 -0.028297
0.465339 0.065915 0.064763
0.465339 0.025335 -0.042359
0.465339 0.048666 -0.044084
0.465339 0.066221 -0.006264
0.465339 0.057464 -0.009398
0.465339 -0.067635 0.013200
0.465339 -0.065724 -0.030493
0.465339 -0.047359 0.039580
0.465339 0.027098 0.021511
0.465339 -0.034588 -0.079339
0.465339 -0.007959 0.008027
0.465339 -0.015610 -0.020881
0.465339 0.030231 -0.061672
0.465339 -0.040838 -0.015400
0.465339 0.051333 -0.013520
0.465339 -0.050681 0.050972
0.465339 -0.017046 -0.050895
0.465339 0.047099 0.037938
0.465339 0.039695 -0.040749
0.465339 -0.021204 0.048128
0.465339 0.050664 -0.016594
0.465339 -0.030763 -0.064643
0.465339 -0.083988 0.042917
0.465339 -0.045685 -0.005676
0.465339 -0.039647 -0.019416
0.465339 -0.049584 -0.018671
0.465339 -0.020804 0.088690
0.465339 -0.033382 0.030731
0.465339 0.039244 -0.012057
0.465339 0.026574 0.055377
0.465339 -0.081381 0.032494
0.465339 -0.044485 0.024804
0.465339 -0.082468 -0.038169
0.465339 0.079733 -0.049164
0.465339 -0.008329 0.014556
0.465339 0.048269 -0.021526
0.465339 0.026717 -0.092793
0.465339 0.025472 -0.051977
0.465339 -0.088825 -0.021409
0.465339 -0.077559 0.023453
0.465339 0.067808 0.064246
0.465339 0.065321 0.033729
0.465339 0.072652 -0.028775
0.465339 -0.061279 0.022693
0.465339 -0.074757 0.018715
0.465339 -0.053809 -0.083789
0.465339 -0.082548 -0.009261
0.465339 0.060008 -0.074997
0.465339 -0.078320 0.058401
0.465339 -0.096943 0.006590
0.465339 0.032985 0.070946
0.465339 0.025792 0.032988
0.465339 0.088491 0.007224
0.465339 -0.030103 0.009559
0.465339 -0.001915 -0.084229
0.465339 0.082062 -0.044695
0.465339 0.019319 0.071628
0.465339 -0.025409 0.010596
0.465339 0.044061 -0.004891
0.465339 0.043177 0.012710
0.465339 0.056749 0.007124
0.465339 0.063111 0.017558
0.465339 0.065208 0.067234
0.465339 -0.066048 -0.004247
0.465339 0.077803 -0.051665
0.465339 0.037406 0.034944
0.465339 0.029480 0.016180
0.465339 -0.037462 0.089803
0.465339 0.034144 0.084783
0.465339 -0.035866 0.001570
0.465339 0.006611 0.094778
0.465339 0.037974 -0.038607
0.465339 0.038357 -0.081074
0.465339 -0.017492 -0.017373
0.465339 -0.018056 0.093546
0.465339 -0.033875 0.000029
0.465339 0.038850 0.078401
0.465339 0.059234 -0.053009
0.465339 -0.020172 0.068410
0.465339 -0.077033 -0.029494
0.465339 -0.032903 -0.093062
0.465339 -0.008657 -0.007928
0.465339 0.068939 0.051018
0.465339 0.030119 0.010493
0.465339 0.055681 0.027089
0.465339 -0.008109 0.061130
0.465339 -0.032955 0.075260
0.465339 0.099411 0.009815
0.465339 -0.011455 -0.038662
0.465339 0.074337 0.027347
0.465339 0.050122 -0.050151
0.465339 -0.050772 0.023260
0.465339 0.030654 0.040129
0.465339 0.037870 0.048433
0.465339 -0.014393 -0.080332
0.465339 -0.018232 -0.008261
0.465339 0.092781 0.001559
0.465339 0.045946 -0.054449
0.465339 -0.096608 -0.024619
0.465339 0.075855 -0.041461
0.465339 -0.031635 -0.083317
0.465339 -0.015807 -0.005718
0.465339 -0.086278 0.042967
0.465339 -0.014881 0.003869
0.465339 0.005369 -0.084572
0.465339 0.051052 0.040168
0.465339 -0.011308 -0.054430
0.465339 0.098866 0.012720
0.465339 0.017941 0.080735
0.465339 0.059125 -0.005250
0.465339 -0.021619 0.055948
0.465339 0.046156 0.057439
0.465339 -0.080309 0.058606
0.465339 -0.018317 -0.068158
0.465339 -0.029679 0.053120
0.465339 -0.042593 -0.054258
0.465339 -0.062699 0.028481
0.465339 0.011803 0.080312
0.465339 -0.022530 0.083140
0.465339 -0.057479 -0.042886
0.465339 -0.022995 -0.046155
0.465339 -0.036128 -0.092818
0.465339 0.025521 -0.087577
0.465339 -0.002140 0.046393
0.465339 -0.013815 -0.076379
0.465339 0.036540 0.050185
0.465339 -0.024752 -0.069905
0.465339 -0.094060 -0.022787
0.465339 -0.023951 0.000480
0.465339 -0.025692 -0.037023
0.465339 0.018686 -0.030179
0.465339 -0.082598 -0.053050
0.465339 0.029667 -0.092492
0.465339 -0.089301 0.007170
0.465339 -0.030587 0.044094
0.465339 0.072931 -0.050780
0.465339 0.036473 -0.049929
0.465339 -0.032604 -0.069972
0.465339 0.004092 0.090425
0.465339 -0.053223 0.027111
0.465339 -0.022755 0.067130
0.465339 -0.004194 -0.004365
0.465339 0.085103 0.024243
0.465339 0.065705 0.011454
0.465339 -0.079538 -0.013436
0.465339 -0.049061 0.056483
0.465339 -0.002959 0.018002
0.465339 -0.008057 0.004422
0.465339 -0.024691 0.069833
0.465339 -0.024981 0.015566
0.465339 0.014390 0.046644
0.465339 0.058095 -0.066412
0.465339 0.085453 -0.013752
0.465339 0.024846 0.055223
0.465339 0.070828 0.020192
0.465339 0.066529 0.000906
0.465339 0.033901 0.024367
0.465339 -0.044325 0.043035
0.465339 -0.000548 0.075162
0.465339 -0.019407 -0.018135
0.465339 -0.072807 0.023346
0.465339 -0.081550 -0.039368
0.465339 0.039184 -0.050345
0.465339 -0.027213 0.088089
0.465339 0.052359 0.078029
0.465339 0.014267 0.088010
0.465339 0.062825 0.037173
0.465339 0.048865 0.015943
0.465339 -0.000533 0.036826
0.465339 -0.039478 -0.015739
0.465339 0.041769 -0.069434
0.465339 0.024700 0.052149
0.465339 -0.068108 0.058220
0.465339 0.004936 0.028223
0.465339 -0.032869 0.085217
0.465339 0.031922 -0.064111
0.465339 -0.006383 0.092661
0.465339 0.008359 0.011717
0.465339 -0.095753 -0.004057
0.465339 0.091934 0.002977
0.465339 -0.004573 -0.095426
0.465339 -0.021186 -0.023397
0.465339 0.029215 -0.080601
0.465339 -0.007352 0.027483
0.465339 0.006934 0.005967
0.465339 0.065658 -0.010719
0.465339 0.072518 0.060758
0.465339 -0.094097 -0.017816
0.465339 -0.074923 -0.029119
0.465339 -0.021406 0.018550
0.465339 0.064177 -0.019022
0.465339 -0.008840 -0.084532
0.465339 -0.076760 -0.013529
0.465339 0.011432 0.052634
0.465339 0.054110 -0.018501
0.465339 -0.026308 -0.020297
0.465339 0.027428 0.035237
0.465339 -0.081357 -0.030106
0.465339 0.002283 0.032101
0.465339 -0.001086 0.057210
0.465339 -0.020712 -0.077547
0.465339 0.028770 0.036641
0.465339 -0.092880 -0.016314
0.465339 -0.041408 -0.037710
0.465339 0.031217 -0.039121
0.465339 0.012859 0.040144
0.465339 -0.036520 -0.010954
0.465339 0.009182 0.079593
0.465339 -0.061071 0.055560
0.465339 -0.035308 -0.084007
0.465339 -0.029436 0.094083
0.465339 0.053301 -0.076013
0.465339 0.089596 -0.010564
0.465339 0.076099 -0.050048
0.465339 -0.053194 -0.014530
0.465339 -0.062388 0.052337
0.465339 0.026986 0.017625
0.465339 -0.083783 -0.043030
0.465339 0.018008 -0.002598
0.465339 -0.001252 -0.041721
0.465339 -0.015877 -0.083140
0.465339 -0.041325 -0.057414
0.465339 -0.025378 -0.057065
0.465339 -0.055054 0.006202
0.465339 0.064554 0.030161
0.465339 -0.011821 0.064644
0.465339 -0.048763 0.004283
0.465339 0.068339 0.024765
0.465339 0.086114 -0.049301
0.465339 0.025766 -0.046878
0.465339 -0.023914 0.017371
0.465339 -0.090132 0.040278
0.465339 -0.084846 -0.039599
0.465339 -0.046279 -0.027338
0.465339 0.031438 0.037626
0.465339 -0.078433 -0.057863
0.465339 -0.010222 0.015368
0.465339 -0.005963 -0.006491
0.465339 0.017501 -0.064854
0.465339 -0.026190 0.052506
0.465339 -0.027283 0.020613
0.465339 0.004928 0.064142
0.465339 0.025160 0.069515
0.465339 -0.082122 -0.022315
0.465339 -0.027396 -0.045114
0.465339 0.046910 0.032369
0.465339 -0.013672 0.047404
0.465339 -0.059060 0.072755
0.465339 -0.079329 -0.007584
0.465339 0.023370 -0.027903
0.465339 0.096792 -0.007705
0.465339 0.027981 -0.085705
0.465339 0.005768 -0.051635
0.465339 -0.002786 -0.014788
0.465339 -0.083884 0.046186
0.465339 0.085066 0.008792
0.465339 0.012788 -0.016628
0.465339 0.003755 0.099948
0.465339 0.085878 -0.023997
0.465339 0.048583 -0.042533
0.465339 0.014027 -0.082546
0.465339 -0.046718 -0.049356
0.465339 -0.043075 -0.037348
0.465339 -0.009595 0.059491
0.465339 0.038295 0.038319
0.465339 0.038177 0.092304
0.465339 0.058323 0.049259
0.465339 0.014637 0.031984
0.465339 0.017198 -0.004097
0.465339 -0.059459 -0.024899
0.465339 -0.080148 -0.034181
0.465339 -0.077546 -0.044269
0.465339 0.036109 -0.069707
0.465339 -0.017446 -0.055397
0.465339 -0.007394 -0.037343
0.465339 0.024393 -0.018823
0.465339 -0.091332 -0.005020
0.465339 0.073437 0.055178
0.465339 0.050126 -0.043684
0.465339 0.065932 0.048950
0.465339 0.085781 0.031571
0.465339 -0.038534 -0.024067
0.465339 -0.000329 -0.003503
0.465339 0.070688 -0.048867
0.465339 -0.021659 0.080342
0.465339 -0.059412 0.060511
0.465339 0.022437 0.073531
0.465339 0.075224 -0.023234
0.465339 0.035305 -0.034097
0.465339 -0.011576 0.079940
0.465339 0.009242 0.036295
0.465339 0.045347 -0.057277
0.465339 -0.057592 0.012777
0.465339 -0.075225 0.048984
0.465339 0.079404 0.023690
0.465339 -0.051404 -0.015442
0.465339 0.049386 0.080772
0.465339 0.076907 -0.005813
0.465339 -0.066052 -0.072607
0.465339 0.033094 0.033025
0.465339 0.058214 0.033284
0.465339 0.019815 -0.047780
0.465339 0.013275 0.061766
0.465339 -0.053970 0.032512
0.465339 -0.072974 0.059562
0.465339 -0.044015 0.064882
0.465339 0.034608 -0.081305
0.465339 -0.087399 0.013236
0.465339 0.027362 -0.049335
0.465339 0.021035 0.041813
0.465339 -0.036519 0.053742
0.465339 0.081086 -0.040985
0.465339 -0.015560 -0.069770
0.465339 0.089186 0.027299
0.465339 0.011726 0.061127
0.465339 -0.010662 0.005129
0.465339 0.088295 -0.006945
0.465339 -0.083295 0.039813
0.465339 -0.001541 0.065183
0.465339 -0.018289 0.098176
0.465339 -0.039833 -0.040841
0.465339 -0.001331 0.014656
0.465339 -0.001898 -0.003612
0.465339 0.092475 0.012073
0.465339 0.044346 -0.012324
0.465339 -0.078811 -0.060767
0.465339 -0.001011 0.007532
0.465339 -0.002182 0.047966
0.465339 0.054654 -0.078767
0.465339 -0.014936 0.029764
0.465339 -0.002303 0.083151
0.465339 -0.069293 -0.069390
0.465339 -0.052400 0.032335
0.465339 -0.078993 0.044292
0.465339 -0.019435 -0.080578
0.465339 -0.050248 -0.071846
0.465339 -0.066819 -0.039752
0.465339 0.053240 -0.082595
0.465339 -0.017519 -0.014840
0.465339 0.013390 -0.021659
0.465339 -0.050496 0.005693
0.465339 0.016721 -0.056075
0.465339 0.094361 -0.003383
0.465339 -0.009382 0.096646
0.465339 -0.030530 -0.070659
0.465339 -0.085873 -0.007122
0.465339 0.058243 -0.006256
0.465339 -0.016154 0.072598
0.465339 0.084366 -0.012490
0.465339 -0.019399 0.059393
0.465339 0.061712 0.038987
0.465339 0.050110 -0.014469
0.465339 -0.044804 0.071519
0.465339 0.043125 0.080568
0.465339 0.055008 0.050427
0.465339 -0.042393 -0.042109
0.465339 0.011571 -0.095935
0.465339 0.052399 0.015621
0.465339 -0.017295 0.000085
0.465339 0.045134 0.082693
0.465339 -0.048219 -0.069300
0.465339 -0.064437 0.047764
0.465339 0.010150 0.001665
0.465339 -0.066113 -0.007092
0.465339 -0.060839 0.024171
0.465339 -0.073375 0.008806
0.465339 0.052934 0.032534
0.465339 0.092802 0.029803
0.465339 -0.085129 -0.051381
0.465339 0.034585 0.009579
0.465339 0.048183 -0.055690
0.465339 0.071197 -0.027876
0.465339 0.085225 -0.044066
0.465339 -0.070207 -0.062167
0.465339 0.058488 -0.056224
0.465339 -0.055952 0.044344
0.465339 -0.087244 -0.003311
0.465339 -0.006963 0.055414
0.465339 0.012961 -0.026346
0.465339 0.058153 0.066668
0.465339 0.010801 0.048613
0.465339 -0.064536 0.045734
0.465339 0.010463 -0.086507
0.465339 -0.054166 -0.052610
0.465339 0.042572 -0.045863
0.465339 -0.020394 -0.069514
0.465339 -0.046613 -0.076352
0.465339 -0.009252 0.048592
0.465339 -0.014720 -0.024287
0.465339 -0.024362 0.054460
0.465339 0.066488 0.016598
0.465339 0.034821 -0.024580
0.465339 0.018105 -0.073555
0.465339 -0.018416 0.064356
0.465339 -0.054818 0.064688
0.465339 -0.045126 0.070064
0.465339 -0.091114 -0.011140
0.465339 -0.039900 -0.023068
0.465339 0.036509 0.090038
0.465339 0.002866 -0.056555
0.465339 0.066931 -0.045314
0.465339 0.059928 -0.061082
0.465339 0.027089 0.008570
0.465339 0.046842 0.083884
0.465339 -0.074480 -0.014483
0.465339 0.031818 0.076788
0.465339 -0.012297 0.081439
0.465339 0.057807 0.047761
0.465339 0.041444 0.065942
0.465339 0.056915 0.010165
0.465339 0.052340 0.062160
0.465339 0.055985 -0.041959
0.465339 0.052624 0.005859
0.465339 -0.011707 -0.079857
0.465339 0.036074 0.024367
0.465339 -0.055199 0.038412
0.465339 -0.035415 0.055435
0.465339 -0.032551 -0.034646
0.465339 0.069439 0.046512
0.465339 -0.012364 -0.083542
0.465339 0.010111 0.042835
0.465339 -0.023443 -0.033579
0.465339 0.057954 0.061422
0.465339 -0.017660 -0.041279
0.465339 -0.040404 0.032847
0.465339 -0.034711 0.002745
0.465339 0.078189 -0.013230
0.465339 -0.041250 0.090707
0.465339 -0.057551 -0.002521
0.465339 0.076581 0.020731
0.465339 -0.055627 0.042325
0.465339 0.060885 -0.030627
0.465339 -0.030605 -0.000521
0.465339 0.031297 0.000171
0.465339 -0.043805 -0.031976
0.465339 0.015247 -0.022399
0.465339 0.037339 -0.046626
0.465339 0.015407 0.083035
0.465339 0.019032 -0.009567
0.465339 0.058314 0.068310
0.465339 -0.044271 0.059086
0.465339 -0.014969 0.024044
0.465339 -0.030607 -0.006022
0.465339 0.094060 0.006667
0.465339 0.046590 -0.038682
0.465339 -0.042788 0.087478
0.465339 -0.050421 -0.078498
0.465339 0.041927 -0.019370
0.465339 -0.080970 0.029387
0.465339 0.066079 -0.043930
0.465339 0.065852 -0.066886
0.465339 -0.046842 0.020795
0.465339 -0.076595 0.048337
0.465339 0.021256 0.008163
0.465339 -0.004501 0.003263
0.465339 0.000362 0.007192
0.465339 0.002570 -0.089923
0.465339 -0.041872 0.073230
0.465339 -0.006272 -0.041315
0.465339 -0.071809 -0.041721
0.465339 0.028077 0.027386
0.465339 -0.016985 0.009342
0.465339 0.026830 0.085055
0.465339 0.030468 -0.008832
0.465339 0.040001 -0.029762
0.465339 -0.073337 -0.002501
0.465339 -0.047352 -0.028904
0.465339 0.016850 -0.017114
0.465339 -0.049469 0.001670
0.465339 0.097144 -0.002182
0.465339 0.019207 0.093576
0.465339 0.008573 -0.027703
0.465339 -0.030962 0.058652
0.465339 -0.053579 0.020428
0.465339 -0.024409 0.035454
0.465339 0.043208 -0.071364
0.465339 -0.063805 -0.059648
0.465339 0.043386 -0.058730
0.465339 -0.046274 -0.024941
0.465339 0.013444 -0.011514
0.465339 -0.018280 0.081782
0.465339 0.068204 0.056506
0.465339 0.031834 0.064482
0.465339 -0.019686 0.065425
0.465339 0.062219 -0.051529
0.465339 -0.031596 -0.038166
0.465339 0.051773 -0.053358
0.465339 -0.046266 -0.003864
0.465339 -0.061803 0.003815
0.465339 0.026677 0.063045
0.465339 -0.013826 -0.025575
0.465339 0.050014 0.077588
0.465339 -0.016481 0.098203
0.465339 0.001410 -0.090801
0.465339 -0.084714 -0.032242
0.465339 0.063652 -0.017783
0.465339 0.083883 0.020932
0.465339 -0.013694 -0.035537
0.465339 -0.022031 -0.070553
0.465339 -0.017938 0.007937
0.465339 0.014454 0.037468
0.465339 0.070775 0.018076
0.465339 -0.056170 0.027366
0.465339 -0.031492 0.017009
0.465339 0.028397 0.060416
0.465339 -0.012537 -0.034045
0.465339 -0.001420 -0.047065
0.465339 -0.069428 0.029503
0.465339 0.000291 -0.039465
0.465339 -0.083435 -0.027248
0.465339 -0.083424 0.053861
0.465339 0.048502 -0.049801
0.465339 0.033854 0.055636
0.465339 0.027430 -0.018601
0.465339 -0.003659 0.031220
0.465339 -0.024207 -0.025908
0.465339 -0.010160 0.058065
0.465339 -0.028586 0.067750
0.465339 0.057098 -0.029789
0.465339 -0.021715 -0.041938
0.465339 -0.044425 -0.037525
0.465339 -0.022745 0.014459
0.465339 -0.034821 -0.090630
0.465339 -0.038954 0.003533
0.465339 0.077473 -0.039699
0.465339 0.045902 0.040628
0.465339 0.026998 0.061520
0.465339 -0.074298 -0.008678
0.465339 0.024232 0.095441
0.465339 0.049048 -0.047981
0.465339 0.085912 -0.015214
0.465339 0.040723 -0.033666
0.465339 -0.049935 0.073632
0.465339 0.032539 0.067792
0.465339 0.034426 0.030324
0.465339 0.013614 -0.067835
0.465339 0.054290 -0.016944
0.465339 0.038067 -0.003384
0.465339 0.030193 -0.078531
0.465339 0.044827 -0.038517
0.465339 -0.080220 -0.017211
0.465339 0.021523 0.005031
0.465339 -0.032724 -0.061835
0.465339 0.077866 -0.048582
0.465339 0.017994 -0.007445
0.465339 -0.006239 -0.074395
0.465339 0.079313 0.004360
0.465339 -0.077405 -0.061629
0.465339 -0.039631 0.086314
0.465339 0.067281 -0.002100
0.465339 -0.076644 -0.001434
0.465339 0.020284 -0.036426
0.465339 -0.034449 0.013720
0.465339 -0.004316 -0.037014
0.465339 -0.056261 -0.014963
0.465339 -0.066189 0.004324
0.465339 0.013324 -0.086751
0.465339 0.069972 0.016716
0.465339 -0.081356 0.003313
0.465339 -0.057281 -0.069404
0.465339 -0.065141 0.036762
0.465339 -0.081240 0.024416
0.465339 0.043649 -0.057257
0.465339 -0.091274 -0.018591
0.465339 0.001895 0.038172
0.465339 -0.060794 -0.069252
0.465339 -0.026882 -0.056043
0.465339 0.018361 0.005145
0.465339 0.043241 0.085870
0.465339 -0.012790 -0.088290
0.465339 -0.005287 -0.027230
0.465339 0.075074 0.014273
0.465339 -0.080336 0.023108
0.465339 0.050909 -0.085368
0.465339 -0.007180 0.093786
0.465339 0.002969 -0.058112
0.465339 -0.034357 -0.072608
0.465339 0.041612 0.031802
0.465339 0.047597 -0.077372
0.465339 0.023887 -0.041698
0.465339 -0.015133 -0.086307
0.465339 -0.056236 -0.012811
0.465339 0.062104 -0.017275
0.465339 0.073914 -0.064845
0.465339 0.080626 0.024330
0.465339 -0.004291 0.077857
0.465339 -0.035479 -0.068763
0.465339 -0.065844 -0.050160
0.465339 -0.042064 0.050821
0.465339 -0.024779 0.002028
0.465339 0.009478 -0.004118
0.465339 0.009921 0.086122
0.465339 -0.093512 -0.029179
0.465339 -0.024386 0.093627
0.465339 0.083878 -0.045361
0.465339 -0.031183 -0.074344
0.465339 0.075286 0.048162
0.465339 0.020430 0.010045
0.465339 0.013177 -0.027753
0.465339 0.011793 -0.010716
0.465339 0.044941 -0.010513
0.465339 0.082219 0.010591
0.465339 -0.043230 0.084256
0.465339 0.081050 0.042758
0.465339 -0.090814 -0.020161
0.465339 0.049237 0.063020
0.465339 -0.012645 -0.022483
0.465339 0.079408 0.015401
0.465339 0.095992 -0.004284
0.465339 -0.055035 0.078973
0.465339 -0.042708 0.034837
0.465339 -0.027005 -0.061347
0.465339 0.064827 -0.040901
0.465339 -0.022800 0.003740
0.465339 0.009365 0.071711
0.465339 -0.006352 0.060582
0.465339 -0.092549 -0.023686
0.465339 0.057431 0.004216
0.465339 -0.021267 -0.085930
0.465339 0.060734 -0.059625
0.465339 -0.068330 0.070139
0.465339 0.025686 -0.079346
0.465339 -0.069430 -0.008998
0.465339 -0.046996 0.072001
0.465339 -0.011372 0.056988
0.465339 -0.020692 -0.000972
0.465339 0.059578 0.079250
0.465339 -0.022287 0.010280
0.465339 -0.022272 0.023400
0.465339 0.006883 0.015670
0.465339 -0.001236 0.060792
0.465339 0.047344 0.064213
0.465339 0.000035 -0.035725
0.465339 0.039516 0.082782
0.465339 -0.015435 -0.061224
0.465339 -0.060414 -0.041752
0.465339 0.044488 0.076535
0.465339 0.064382 0.039612
0.465339 -0.035982 -0.022938
0.465339 -0.088619 -0.003585
0.465339 -0.041434 0.042102
0.465339 0.012889 -0.038157
0.465339 -0.046278 -0.074131
0.465339 -0.044388 -0.080597
0.465339 0.067315 -0.019544
0.465339 0.064020 0.038141
0.465339 0.047672 0.045899
0.465339 0.048517 0.020343
0.465339 0.088190 0.028342
0.465339 0.045687 -0.030946
0.465339 -0.047710 0.062691
0.465339 -0.000699 -0.005073
0.465339 0.028615 0.075100
0.465339 0.075368 -0.015636
0.465339 0.020527 -0.018344
0.465339 0.062958 0.003144
0.465339 0.059192 0.036791
0.465339 0.019247 0.059817
0.465339 0.070778 -0.004444
0.465339 -0.050107 -0.082860
0.465339 -0.012105 0.072174
0.465339 0.051454 -0.046387
0.465339 -0.025882 -0.063232
0.465339 0.053952 0.066308
0.465339 0.021646 -0.083602
0.465339 0.004343 0.015420
0.465339 0.019111 0.018142
0.465339 0.049594 0.076073
0.465339 0.044173 0.009389
0.465339 -0.073223 -0.052270
0.465339 0.048078 -0.035688
0.465339 -0.037388 -0.053036
0.465339 0.062515 -0.029483
0.465339 -0.000377 -0.099277
0.465339 -0.082693 0.029928
0.465339 -0.031420 0.046509
0.465339 0.021578 0.014477
0.465339 -0.077829 -0.016633
0.465339 -0.051556 0.067501
0.465339 0.000296 -0.027001
0.465339 0.029975 -0.043269
0.465339 0.017022 -0.018523
0.465339 -0.017694 0.003246
0.465339 0.016649 0.041319
0.465339 -0.002552 -0.005330
0.465339 -0.013708 0.019685
0.465339 -0.043319 0.020132
0.465339 0.077377 0.061494
0.465339 0.065516 -0.059418
0.465339 -0.051072 0.039568
0.465339 0.028371 -0.008247
0.465339 -0.048269 0.000795
0.465339 0.000887 -0.037266
0.465339 -0.062429 -0.029355
0.465339 -0.003272 0.050629
0.465339 0.005222 0.073596
0.465339 0.016852 -0.060585
0.465339 -0.078785 0.029651
0.465339 0.058050 0.012619
0.465339 -0.056981 -0.020753
0.465339 0.052882 0.045336
0.465339 0.001758 0.029843
0.465339 -0.029613 -0.082314
0.465339 -0.043123 0.070346
0.465339 0.087852 -0.013138
0.465339 -0.065565 -0.028574
0.465339 0.048166 0.081540
0.465339 -0.010916 0.097025
0.465339 0.016951 0.056871
0.465339 -0.030012 0.039159
0.465339 -0.063452 0.077062
0.465339 0.036229 -0.011882
0.465339 -0.078752 -0.041665
0.465339 0.029889 -0.052354
0.465339 0.050637 -0.022401
0.465339 -0.001635 0.020487
0.465339 -0.049608 0.085753
0.465339 -0.066807 0.042390
0.465339 0.079472 -0.004610
0.465339 -0.025544 -0.093878
0.465339 -0.033828 0.083102
0.465339 0.026069 0.091163
0.465339 0.006008 -0.060749
0.465339 0.027413 -0.076342
0.465339 -0.009660 0.012750
0.465339 0.053247 0.021706
0.465339 0.010738 0.072136
0.465339 0.032836 -0.030123
0.465339 -0.020996 -0.005218
0.465339 0.018946 0.092263
0.465339 0.086869 0.016953
0.465339 0.056077 0.022472
0.465339 -0.027811 -0.064457
0.465339 -0.042062 0.019311
0.465339 -0.050252 -0.000343
0.465339 0.083912 0.051281
0.465339 -0.092506 -0.019353
0.465339 0.038767 -0.026547
0.465339 -0.006796 -0.093551
0.465339 -0.073514 -0.041877
0.465339 0.011586 0.068772
0.465339 -0.048768 -0.076092
0.465339 -0.034077 -0.035191
0.465339 -0.030073 0.063992
0.465339 -0.029264 -0.065360
0.465339 0.025871 -0.016642
0.465339 -0.070624 0.015730
0.465339 -0.018193 -0.050098
0.465339 0.044787 -0.033607
0.465339 -0.095928 0.003674
0.465339 0.019945 -0.031362
0.465339 -0.064773 0.067684
0.465339 -0.072198 -0.030431
0.465339 -0.043930 -0.066242
0.465339 0.053840 -0.012817
0.465339 0.076914 0.025552
0.465339 -0.000977 0.069446
0.465339 0.057177 0.064250
0.465339 0.088751 -0.009402
0.465339 0.076310 -0.051518
0.465339 -0.083482 -0.023068
0.465339 0.048886 -0.022826
0.465339 0.003009 -0.049910
0.465339 -0.006165 0.008960
0.465339 -0.006544 0.001836
0.465339 0.011407 0.009712
0.465339 0.031086 -0.018799
0.465339 0.013459 -0.015064
0.465339 -0.074788 0.030218
0.465339 -0.003332 0.002607
0.465339 0.055313 -0.046551
0.465339 -0.000664 0.078703
0.465339 0.066419 0.008471
0.465339 -0.000621 0.009035
0.465339 -0.017257 0.067655
0.465339 -0.035167 0.009752
0.465339 -0.027699 -0.027478
0.465339 -0.019045 -0.093005
0.465339 -0.059122 0.044155
0.465339 0.061156 0.072683
0.465339 0.001805 0.097795
0.465339 -0.014515 0.062420
0.465339 0.003837 -0.043189
0.465339 0.050424 0.061744
0.465339 0.027752 -0.011002
0.465339 -0.023576 -0.040806
0.465339 -0.034742 -0.023686
0.465339 -0.027131 -0.091064
0.465339 -0.010590 0.003499
0.465339 0.067994 -0.055098
0.465339 -0.042703 -0.032899
0.465339 0.018442 0.063144
0.465339 0.087643 -0.019154
0.465339 -0.051362 0.061063
0.465339 0.074225 -0.052831
0.465339 0.043161 0.036274
0.465339 0.027688 0.077059
0.465339 -0.010830 -0.072207
0.465339 -0.054031 -0.005780
0.465339 -0.017958 -0.066678
0.465339 -0.012777 -0.055645
0.465339 -0.061783 0.053986
0.465339 -0.043214 0.004680
0.465339 0.063119 0.008387
0.465339 -0.014390 0.080035
0.465339 -0.034590 0.059000
0.465339 0.050196 -0.069670
0.465339 -0.015627 0.074661
0.465339 0.064213 -0.016197
0.465339 0.032460 0.092469
0.465339 0.054858 0.003160
0.465339 -0.022825 0.026645
0.465339 0.052368 0.051980
0.465339 -0.066080 -0.038221
0.465339 -0.030991 0.052409
0.465339 -0.082032 0.035195
0.465339 -0.057301 0.028112
0.465339 -0.050492 -0.035334
0.465339 -0.021250 -0.050366
0.465339 -0.015799 -0.081309
0.465339 0.053262 0.041545
0.465339 0.089497 -0.027833
0.465339 -0.052337 0.010094
0.465339 0.003650 0.044724
0.465339 0.095799 -0.002601
0.465339 -0.025317 -0.068251
0.465339 0.070678 -0.039778
0.465339 -0.016452 -0.088697
0.465339 0.001204 -0.050946
0.465339 0.037738 0.017920
0.465339 0.002560 0.065524
0.465339 -0.006154 0.078502
0.465339 -0.042915 -0.019590
0.465339 0.064822 0.028308
0.465339 -0.010772 0.054758
0.465339 0.011690 -0.022369
0.465339 0.077030 -0.030026
0.465339 0.079120 -0.037877
0.465339 -0.060243 0.034473
0.465339 -0.069253 0.050544
0.465339 -0.066360 -0.013878
0.465339 -0.007412 0.046991
0.465339 -0.012439 -0.001983
0.465339 0.036844 -0.025750
0.465339 0.056454 0.016280
0.465339 0.041514 0.050851
0.465339 0.054425 0.018459
0.465339 -0.010452 0.089177
0.465339 -0.065668 0.010080
0.465339 -0.030848 0.071982
0.465339 -0.034302 -0.076679
0.465339 0.060038 0.068810
0.465339 -0.089047 0.021278
0.465339 0.085964 -0.012325
0.465339 0.049990 0.010272
0.465339 0.070591 -0.050390
0.465339 0.032296 0.085121
0.465339 0.004557 0.067344
0.465339 0.014302 0.073449
0.465339 0.044913 0.046177
0.465339 -0.068795 -0.017817
0.465339 0.024587 0.015793
0.465339 0.048169 -0.075553
0.465339 -0.087126 -0.042670
0.465339 0.067582 -0.005074
0.465339 0.011401 0.016592
0.465339 -0.015691 -0.095499
0.465339 0.044770 0.007861
0.465339 0.067724 -0.021352
0.465339 0.057866 0.016970
0.465339 -0.021931 0.051926
0.465339 0.017585 0.033342
0.465339 -0.043302 -0.023077
0.465339 -0.017276 0.077035
0.465339 0.073508 0.032139
0.465339 -0.017836 0.075800
0.465339 -0.004759 0.059837
0.465339 0.060122 0.038400
0.465339 0.023305 -0.003835
0.465339 -0.052912 0.030896
0.465339 -0.023252 0.021581
0.465339 0.059354 0.042691
0.465339 -0.010167 0.086938
0.465339 -0.023718 -0.055843
0.465339 0.050422 -0.064895
0.465339 0.062466 -0.021479
0.465339 0.064247 0.010719
0.465339 0.032265 0.058175
0.465339 -0.065256 -0.008860
0.465339 0.010773 0.045388
0.465339 0.075805 -0.059637
0.465339 0.080522 0.057054
0.465339 -0.026790 -0.000957
0.465339 -0.079712 -0.047867
0.465339 0.062825 0.058423
0.465339 0.002246 -0.098869
0.465339 0.063533 0.052354
0.465339 -0.067861 0.008048
0.465339 0.099773 -0.003818
0.465339 -0.053846 -0.040182
0.465339 0.060313 0.021388
0.465339 0.035548 -0.084041
0.465339 -0.047340 0.084967
0.465339 0.037522 0.001774
0.465339 -0.083066 0.051946
0.465339 0.056110 0.049441
0.465339 -0.076746 -0.006661
0.465339 0.012368 0.062860
0.465339 0.006505 0.030922
0.465339 0.084763 -0.025860
0.465339 0.015236 0.049003
0.465339 0.015573 0.064868
0.465339 0.023647 -0.023277
0.465339 0.042541 -0.084123
0.465339 0.005512 -0.073395
0.465339 0.007246 0.048161
0.465339 -0.077826 0.059725
0.465339 0.042725 -0.021982
0.465339 0.040393 0.084135
0.465339 -0.022682 -0.073661
0.465339 0.015153 -0.017287
0.465339 -0.002758 -0.056113
0.465339 -0.048221 0.016454
0.465339 0.023532 0.063553
0.465339 0.052996 -0.042404
0.465339 0.085529 0.042888
0.465339 0.077319 -0.062636
0.465339 0.015198 -0.019676
0.465339 -0.071976 0.031046
0.465339 0.043119 -0.042378
0.465339 0.086085 0.010294
0.465339 0.060637 0.026186
0.465339 0.074357 0.046804
0.465339 -0.025871 -0.054883
0.465339 0.062956 0.069237
0.465339 0.037479 0.012315
0.465339 0.066978 -0.068701
0.465339 -0.009295 0.088122
0.465339 -0.001734 -0.026626
0.465339 -0.000516 0.045864
0.465339 0.078195 0.032670
0.465339 0.061936 0.054613
0.465339 -0.055232 0.012110
0.465339 -0.088243 0.032481
0.465339 0.006556 0.038220
0.465339 -0.003102 -0.082924
0.465339 -0.014809 0.021060
0.465339 -0.060164 -0.002792
0.465339 0.031897 0.066101
0.465339 0.005214 -0.006061
0.465339 -0.009470 0.031828
0.465339 -0.088861 -0.011366
0.465339 -0.060118 -0.017928
0.465339 -0.016542 -0.054186
0.465339 -0.043183 0.081099
0.465339 0.014833 0.076131
0.465339 0.012002 0.024098
0.465339 0.071678 0.006757
0.465339 0.000710 0.032322
0.465339 0.051185 -0.076476
0.465339 -0.017176 0.074502
0.465339 0.041448 -0.007013
0.465339 -0.083657 0.015982
0.465339 0.066143 0.053826
0.465339 0.009154 -0.070615
0.465339 -0.056400 -0.061896
0.465339 0.007447 0.036985
0.465339 -0.041179 -0.066031
0.465339 -0.004750 -0.075161
0.465339 0.064607 -0.060985
0.465339 -0.025662 -0.030532
0.465339 -0.036999 0.061563
0.465339 -0.065401 0.039094
0.465339 0.085861 0.001413
0.465339 0.053081 0.023431
0.465339 0.004298 0.088872
0.465339 -0.029241 -0.063728
0.465339 -0.007453 0.086211
0.465339 0.008159 0.087214
0.465339 0.044455 0.081001
0.465339 -0.082531 0.055240
0.465339 0.049363 0.033322
0.465339 -0.048739 -0.005707
0.465339 -0.028665 -0.044146
0.465339 0.072111 0.023562
0.465339 -0.066885 0.040091
0.465339 0.063743 -0.068600
0.465339 -0.076484 -0.024845
0.465339 -0.075279 0.011411
0.465339 -0.044116 -0.085716
0.465339 0.040701 0.055189
0.465339 0.039080 -0.061215
0.465339 0.046070 0.063581
0.465339 0.086694 0.002514
0.465339 0.082377 0.050362
0.465339 -0.014315 0.055400
0.465339 0.003960 -0.084080
0.465339 0.018696 -0.010981
0.465339 -0.028964 -0.011173
0.465339 0.032132 0.034792
0.465339 0.058233 0.014392
0.465339 0.008739 -0.054549
0.465339 -0.011598 0.069220
0.465339 0.036022 -0.087863
0.465339 -0.056387 -0.053719
0.465339 0.028472 0.063717
0.465339 0.063355 -0.005675
0.465339 0.016126 -0.053653
0.465339 -0.068071 -0.034168
0.465339 0.045325 0.010470
0.465339 -0.003995 -0.072353
0.465339 0.031314 -0.004667
0.465339 0.074136 -0.034200
0.465339 0.034964 0.086138
0.465339 0.047849 -0.087225
0.465339 -0.022342 -0.021117
0.465339 0.047096 0.013590
0.465339 0.023409 0.017085
0.465339 0.033956 -0.083482
0.465339 0.025875 0.042553
0.465339 -0.035349 -0.006769
0.465339 -0.045994 -0.062954
0.465339 -0.063754 -0.050269
0.465339 0.008760 -0.024901
0.465339 -0.097659 0.000540
0.465339 0.016206 -0.038627
0.465339 0.014523 0.060124
0.465339 0.002139 0.002300
0.465339 0.030395 0.050151
0.465339 0.062370 0.021481
0.465339 -0.022936 0.086331
0.465339 0.069848 -0.026607
0.465339 0.008454 -0.030621
0.465339 0.055467 -0.077626
0.465339 0.084200 0.032811
0.465339 0.018386 -0.056063
0.465339 -0.078300 -0.053629
0.465339 -0.041474 0.009089
0.465339 0.019621 0.028990
0.465339 -0.067557 0.065162
0.465339 0.008885 -0.096699
0.465339 0.078794 0.054930
0.465339 -0.023139 -0.051638
0.465339 0.062608 -0.076768
0.465339 0.093807 -0.018965
0.465339 -0.014613 -0.008261
0.465339 -0.010397 0.064801
0.465339 0.031660 -0.022416
0.465339 0.080471 -0.036912
0.465339 0.019854 0.004003
0.465339 0.087349 0.012833
0.465339 0.067449 -0.012878
0.465339 0.098298 0.017447
0.465339 0.075836 -0.002025
0.465339 0.037986 0.009217
0.465339 0.055134 -0.021598
0.465339 -0.009300 -0.014132
0.465339 0.086205 -0.001850
0.465339 -0.010175 -0.046490
0.465339 0.002532 0.075869
0.465339 -0.009998 -0.047949
0.465339 0.011957 0.042258
0.465339 -0.093406 -0.005463
0.465339 0.005180 0.031630
0.465339 -0.086836 0.047798
0.465339 -0.035395 -0.027177
0.465339 -0.020238 0.071427
0.465339 0.082663 0.036481
0.465339 -0.063650 0.057736
0.465339 0.072627 -0.022924
0.465339 -0.047603 0.024374
0.465339 -0.010502 0.028503
0.465339 0.080261 -0.008783
0.465339 -0.039210 -0.085668
0.465339 -0.023675 -0.061129
0.465339 -0.020964 0.015120
0.465339 0.046434 0.007599
0.465339 0.050196 0.035767
0.465339 0.032362 -0.067562
0.465339 0.072907 0.009616
0.465339 -0.032197 -0.015193
0.465339 0.031785 0.048887
0.465339 -0.017069 -0.011563
0.465339 0.041449 -0.000195
0.465339 -0.008812 0.051370
0.465339 0.048858 0.064560
0.465339 -0.008729 -0.095618
0.465339 0.047524 0.047500
0.465339 -0.015952 0.079331
0.465339 -0.040451 0.016524
0.465339 0.007828 -0.005161
0.465339 -0.006916 -0.055272
0.465339 -0.024912 0.003455
0.465339 0.027545 0.093909
0.465339 0.013214 0.045672
0.465339 -0.079848 -0.049812
0.465339 0.016277 0.068503
0.465339 0.059772 0.006520
0.465339 0.077797 0.016843
0.465339 -0.027314 -0.076081
0.465339 0.072823 -0.052816
0.465339 0.004163 0.007055
0.465339 -0.013458 -0.047244
0.465339 0.079531 -0.050791
0.465339 -0.099088 0.005879
0.465339 -0.007611 -0.061344
0.465339 0.035457 -0.001496
0.465339 -0.075753 0.037198
0.465339 0.093207 0.020467
0.465339 -0.028122 0.066292
0.465339 -0.035791 -0.059188
0.465339 0.056974 -0.007611
0.465339 -0.003893 -0.027496
0.465339 0.033110 -0.046936
0.465339 -0.050244 -0.008762
0.465339 -0.046006 0.003344
0.465339 -0.005338 -0.032049
0.465339 -0.071044 0.032764
0.465339 -0.031836 0.088491
0.465339 0.053880 -0.032210
0.465339 -0.055589 0.062225
0.465339 0.087551 -0.039125
0.465339 -0.021246 0.022511
0.465339 0.066627 0.043489
0.465339 0.068735 0.043981
0.465339 -0.051687 -0.009953
0.465339 0.023785 -0.081304
0.465339 0.024735 -0.058518
0.465339 0.039025 0.051806
0.465339 0.036900 -0.068014
0.465339 0.033954 0.067858
0.465339 0.042964 0.046377
0.465339 -0.043279 -0.050866
0.465339 0.038562 0.042983
0.465339 0.030496 0.093908
0.465339 -0.077880 0.047729
0.465339 0.075363 -0.000095
0.465339 -0.038742 -0.045019
0.465339 -0.028602 -0.091086
0.465339 0.023020 -0.039500
0.465339 -0.015896 -0.029784
0.465339 0.049144 -0.032113
0.465339 0.024428 -0.079936
0.465339 -0.052081 0.075918
0.465339 -0.028722 0.061120
0.465339 -0.013180 0.087985
0.465339 -0.022479 -0.010987
0.465339 0.019818 -0.086010
0.465339 0.043546 0.004661
0.465339 -0.021969 0.024999
0.465339 0.041995 0.056301
0.465339 0.031194 -0.037620
0.465339 -0.057468 -0.041062
0.465339 0.023298 0.091618
0.465339 -0.077115 -0.038078
0.465339 -0.012782 0.062639
0.465339 0.002273 0.011419
0.465339 0.053133 -0.054074
0.465339 -0.047711 0.058230
0.465339 -0.028167 0.039218
0.465339 -0.027397 0.060594
0.465339 0.058443 0.007360
0.465339 0.033037 -0.057489
0.465339 0.052803 -0.073115
0.465339 -0.035925 0.027199
0.465339 0.048531 0.050634
0.465339 0.074363 0.012912
0.465339 0.038994 0.049955
0.465339 0.032272 -0.040056
0.465339 0.049313 0.056452
0.465339 0.088460 0.017220
0.465339 0.016131 -0.089009
0.465339 -0.021958 -0.044547
0.465339 -0.023236 0.037076
0.465339 -0.031482 -0.002774
0.465339 0.085814 -0.041645
0.465339 0.015944 -0.030474
0.465339 0.010118 0.041112
0.465339 0.049831 -0.056581
0.465339 -0.065119 -0.048390
0.465339 -0.045336 -0.045692
0.465339 0.003031 -0.079559
0.465339 -0.008584 0.063395
0.465339 -0.018371 -0.077477
0.465339 -0.071827 0.029610
0.465339 0.043879 -0.000648
0.465339 -0.027566 0.070763
0.465339 -0.024053 0.087606
0.465339 -0.019705 -0.084663
0.465339 -0.058343 0.055028
0.465339 0.016210 0.015174
0.465339 0.067551 -0.061800
0.465339 -0.093718 0.019059
0.465339 0.050347 0.044648
0.465339 0.051923 -0.000193
0.465339 -0.018610 0.078081
0.465339 0.042914 0.049302
0.465339 -0.064501 0.010980
0.465339 -0.010214 0.023568
0.465339 -0.031728 0.079927
0.465339 -0.020611 0.021071
0.465339 -0.060989 -0.061533
0.465339 0.069214 0.013243
0.465339 -0.025807 0.054180
0.465339 0.075714 -0.030724
0.465339 0.004434 0.060198
0.465339 -0.020665 -0.055136
0.465339 0.031001 -0.015865
0.465339 -0.046157 -0.056531
0.465339 -0.059389 0.063358
0.465339 -0.062633 -0.015560
0.465339 -0.061885 -0.027536
0.465339 -0.015672 -0.051558
0.465339 0.070864 -0.029505
0.465339 -0.010900 0.033412
0.465339 0.089352 0.031314
0.465339 -0.047733 -0.083276
0.465339 -0.072162 0.056159
0.465339 -0.009792 0.075911
0.465339 0.061986 0.052950
0.465339 0.065411 -0.017367
0.465339 0.012513 -0.005722
0.465339 -0.073874 0.047916
0.465339 0.070518 -0.001349
0.465339 -0.043943 -0.053433
0.465339 0.095157 0.029082
0.465339 -0.045659 -0.052043
0.465339 0.051432 0.018521
0.465339 -0.001734 -0.062998
0.465339 0.039186 0.075340
0.465339 -0.089804 0.038754
0.465339 0.028424 -0.089434
0.465339 0.030833 0.036301
0.465339 0.056640 0.062922
0.465339 0.086801 0.034782
0.465339 0.077119 0.043335
0.465339 0.047881 0.069237
0.465339 0.019141 0.006963
0.465339 0.065216 -0.045384
0.465339 0.066094 0.057566
0.465339 -0.056189 -0.001681
0.465339 -0.053143 0.065919
0.465339 0.060013 0.010205
0.465339 -0.093399 0.003359
0.465339 -0.060572 -0.019634
0.465339 -0.046618 0.035798
0.465339 0.038252 0.046092
0.465339 -0.036099 0.057170
0.465339 -0.015509 0.036258
0.465339 -0.024981 0.009110
0.465339 0.068744 -0.001045
0.465339 -0.033989 0.056248
0.465339 0.009158 0.025525
0.465339 0.048196 0.031300
0.465339 0.077284 0.041974
0.465339 -0.049278 -0.077578
0.465339 0.008144 0.052332
0.465339 0.057111 0.052535
0.465339 0.021737 0.031642
0.465339 -0.086220 0.023663
0.465339 0.056350 0.047957
0.465339 -0.023192 -0.042303
0.465339 0.015334 0.034702
0.465339 0.007821 -0.029340
0.465339 -0.041571 0.021896
0.465339 -0.047061 0.032367
0.465339 -0.062829 0.066497
0.465339 -0.069216 -0.048589
0.465339 -0.035473 0.038501
0.465339 -0.061914 -0.022616
0.465339 0.057315 -0.077017
0.465339 0.075766 -0.019364
0.465339 -0.060605 0.072193
0.465339 0.000060 -0.072110
0.465339 -0.088077 -0.012553
0.465339 -0.027087 0.005935
0.465339 -0.058634 0.057264
0.465339 0.041370 0.052248
0.465339 0.064520 0.024815
0.465339 0.005997 0.056420
0.465339 -0.036013 -0.075717
0.465339 0.056702 -0.012544
0.465339 -0.084627 0.051456
0.465339 -0.085211 -0.019620
0.465339 0.029966 -0.036323
0.465339 0.061893 0.067253
0.465339 0.000594 0.019638
0.465339 0.067278 0.049636
0.465339 -0.041833 -0.069314
0.465339 0.059171 -0.065168
0.465339 0.065197 0.061704
0.465339 0.007447 0.013626
0.465339 0.060728 -0.023008
0.465339 0.040101 0.042434
0.465339 0.065561 0.069844
0.465339 0.002309 -0.076024
0.465339 -0.033241 -0.046766
0.465339 -0.069909 -0.044468
0.465339 -0.019972 -0.045773
0.465339 0.005064 0.065977
0.465339 0.055505 -0.023121
0.465339 0.076895 -0.053281
0.465339 0.030614 -0.069576
0.465339 0.072875 -0.059953
0.465339 0.007278 0.010333
0.465339 0.025729 -0.045242
0.465339 -0.044848 -0.023616
0.465339 -0.079785 0.060008
0.465339 0.062610 -0.047424
0.465339 0.019810 0.039880
0.465339 0.006624 0.025068
0.465339 0.019285 -0.001613
0.465339 0.018327 -0.022363
0.465339 0.018047 -0.097810
0.465339 -0.035251 -0.044022
0.465339 -0.054170 0.048691
0.465339 0.012400 0.037379
0.465339 -0.029907 -0.019002
0.465339 0.013490 -0.019961
0.465339 0.070957 0.065672
0.465339 -0.090373 -0.002780
0.465339 -0.047146 -0.019732
0.465339 0.054527 0.038634
0.465339 0.050399 0.066632
0.465339 0.052519 -0.030259
0.465339 -0.025553 0.019006
0.465339 -0.053296 -0.058417
0.465339 -0.052255 0.079289
0.465339 -0.036974 -0.087516
0.465339 0.088310 0.009900
0.465339 -0.060906 -0.039637
0.465339 -0.059380 -0.008128
0.465339 -0.065271 0.056860
0.465339 0.057772 -0.064309
0.465339 0.003838 0.019998
0.465339 0.040285 0.053322
0.465339 -0.050453 -0.005885
0.465339 -0.010290 -0.003585
0.465339 0.006716 0.028130
0.465339 0.066274 -0.054506
0.465339 0.045127 -0.059226
0.465339 -0.040152 0.000214
0.465339 0.030126 0.048172
0.465339 0.033508 0.008306
0.465339 -0.022371 -0.084292
0.465339 -0.031205 0.024288
0.465339 -0.020795 -0.017764
0.465339 -0.084037 -0.038001
0.465339 0.023278 -0.043232
0.465339 -0.016432 0.055921
0.465339 0.091020 -0.030782
0.465339 0.074298 0.041621
0.465339 -0.062347 0.025401
0.465339 0.008573 -0.063482
0.465339 -0.018886 -0.070472
0.465339 -0.071250 0.019013
0.465339 -0.011965 -0.084857
0.465339 0.011181 -0.012368
0.465339 0.000606 0.048991
0.465339 0.071980 0.021892
0.465339 0.041309 0.074537
0.465339 0.034308 -0.075020
0.465339 -0.013658 0.092713
0.465339 -0.087827 -0.022642
0.465339 -0.061523 -0.044706
0.465339 0.070701 -0.033581
0.465339 0.056939 0.011768
0.465339 -0.032364 -0.039530
0.465339 0.085153 0.017356
0.465339 0.037254 0.053330
0.465339 0.083738 0.015466
0.465339 0.054761 0.028321
0.465339 0.046324 -0.088288
0.465339 0.081033 -0.028138
0.465339 0.077382 0.009140
0.465339 -0.046972 -0.070322
0.465339 -0.023352 0.051728
0.465339 0.005933 0.092990
0.465339 -0.095550 -0.009856
0.465339 -0.087550 0.041902
0.465339 0.006521 -0.034343
0.465339 0.006966 -0.089741
0.465339 -0.087610 -0.005413
0.465339 -0.029550 0.016304
0.465339 0.083500 0.023952
0.465339 -0.051989 -0.035373
0.465339 -0.035087 -0.066235
0.465339 -0.069504 0.007404
0.465339 -0.051502 -0.038250
0.465339 0.090092 0.000864
0.465339 -0.087532 -0.044118
0.465339 -0.042124 -0.077430
0.465339 0.030864 0.086349
0.465339 0.009037 0.097409
0.465339 0.083472 -0.054091
0.465339 -0.009645 0.027198
0.465339 0.043386 -0.014604
0.465339 -0.028279 -0.088262
0.465339 0.000080 -0.059540
0.465339 -0.032074 0.021057
0.465339 -0.053455 -0.056508
0.465339 -0.036566 0.018521
0.465339 0.009606 0.076205
0.465339 -0.018558 -0.037386
0.465339 0.042874 0.016360
0.465339 0.075856 0.063482
0.465339 -0.097167 -0.001022
0.465339 0.027227 -0.015975
0.465339 0.055600 0.008798
0.465339 0.054459 0.075683
0.465339 -0.092318 0.007800
0.465339 0.008542 -0.047062
0.465339 -0.016589 -0.036698
0.465339 -0.027984 0.007851
0.465339 -0.078200 0.016491
0.465339 0.040389 0.070548
0.465339 0.015596 -0.062052
0.465339 -0.022946 -0.037948
0.465339 0.000826 -0.098229
0.465339 -0.084174 0.034053
0.465339 -0.032959 -0.081068
0.465339 0.017534 -0.023729
0.465339 -0.018545 0.024733
0.465339 0.041792 0.083218
0.465339 -0.070931 -0.069203
0.465339 0.074962 0.031984
0.465339 0.062242 -0.012512
0.465339 -0.063932 0.051513
0.465339 -0.080688 -0.008965
0.465339 0.052895 -0.080867
0.465339 0.082759 -0.033847
0.465339 -0.034634 0.085070
0.465339 -0.010221 -0.064095
0.465339 0.031051 -0.024883
0.465339 -0.019005 0.045433
0.465339 0.007761 -0.074816
0.465339 -0.017412 0.041319
0.465339 0.044865 -0.024190
0.465339 0.026226 0.005900
0.465339 0.030018 -0.063988
0.465339 -0.069628 0.033968
0.465339 -0.022383 -0.005909
0.465339 -0.088768 -0.006231
0.465339 0.011767 0.038772
0.465339 0.070465 0.021593
0.465339 0.019990 -0.045039
0.465339 -0.009307 0.007341
0.465339 -0.029871 0.014724
0.465339 0.020655 -0.015376
0.465339 -0.050315 -0.061687
0.465339 0.067758 0.035590
0.465339 0.042597 -0.055494
0.465339 0.056822 0.020990
0.465339 -0.034973 -0.074456
0.465339 -0.040531 0.074338
0.465339 0.026326 0.095196
0.465339 -0.030701 -0.011044
0.465339 -0.076372 0.059486
0.465339 -0.008643 -0.043229
0.465339 0.015918 0.047672
0.465339 -0.085241 0.032485
0.465339 -0.062477 -0.072677
0.465339 -0.059789 0.065442
0.465339 0.057212 0.076726
0.465339 -0.014746 0.071060
0.465339 -0.045151 -0.032319
0.465339 -0.038410 -0.007604
0.465339 0.036429 -0.082135
0.465339 -0.051893 -0.051455
0.465339 -0.018758 0.016686
0.465339 -0.079259 0.039032
0.465339 0.038961 0.001999
0.465339 -0.026103 0.033955
0.465339 0.018156 0.098050
0.465339 0.027412 -0.026142
0.465339 0.029096 -0.014288
0.465339 -0.032765 0.005321
0.465339 -0.072871 -0.039491
0.465339 -0.010254 0.038375
0.465339 0.037129 0.077070
0.465339 0.058437 0.009957
0.465339 -0.064824 0.075436
0.465339 0.000800 -0.006685
0.465339 -0.076114 0.020872
0.465339 -0.074932 0.038364
0.465339 0.048458 -0.014981
0.465339 -0.056756 -0.063768
0.465339 -0.048064 0.011178
0.465339 0.040851 0.041237
0.465339 -0.008332 0.098784
0.465339 -0.003085 -0.078176
0.465339 -0.014616 -0.011227
0.465339 0.007896 -0.095277
0.465339 0.002835 0.086787
0.465339 -0.039906 0.052144
0.465339 0.034733 0.013550
0.465339 -0.051004 -0.048340
0.465339 -0.086042 -0.027024
0.465339 0.035734 0.061015
0.465339 0.044948 0.037602
0.465339 0.067086 -0.042888
0.465339 -0.038134 -0.051802
0.465339 0.024683 0.072644
0.465339 0.013735 -0.046214
0.465339 -0.061579 -0.064996
0.465339 -0.051733 -0.049753
0.465339 0.002276 -0.009725
0.465339 -0.028481 0.009924
0.465339 -0.087419 0.019300
0.465339 -0.094802 -0.007607
0.465339 -0.064458 0.050191
0.465339 -0.096878 0.015748
