0.465339 0.070077 -0.026546
0.465339 -0.045976 -0.071673
0.465339 0.044081 0.049090
0.465339 0.001173 -0.040602
0.465339 -0.024273 -0.050871
0.465339 -0.051714 -0.027713
0.465339 -0.031881 -0.007011
0.465339 -0.088196 -0.028092
0.465339 0.048980 0.057926
0.465339 -0.090994 0.037258
0.465339 -0.031659 0.018603
0.465339 0.031490 -0.076664
0.465339 -0.011275 -0.008799
0.465339 -0.069439 -0.030735
0.465339 0.011252 -0.040827
0.465339 0.040010 -0.030399
0.465339 -0.070830 0.061935
0.465339 -0.032223 0.082695
0.465339 0.088784 0.033308
0.465339 -0.002078 -0.056295
0.465339 -0.018965 0.046773
0.465339 0.015766 -0.082830
0.465339 0.019298 0.063756
0.465339 -0.002170 0.037459
0.465339 0.037108 0.085240
0.465339 -0.001354 0.044294
0.465339 -0.005125 -0.018479
0.465339 -0.088190 0.035280
0.465339 0.002856 -0.002154
0.465339 0.055436 -0.076253
0.465339 -0.029143 0.078699
0.465339 0.068755 0.069037
0.465339 0.066241 -0.056960
0.465339 0.055451 0.005278
0.465339 0.039040 0.053870
0.465339 0.006359 0.034898
0.465339 -0.022903 -0.022871
0.465339 -0.008876 -0.034961
0.465339 0.064445 -0.074647
0.465339 -0.003595 -0.072209
0.465339 -0.033293 0.024938
0.465339 0.059322 0.062711
0.465339 0.084372 -0.013537
0.465339 0.069170 0.056088
0.465339 0.038777 0.083289
0.465339 -0.034563 -0.058581
0.465339 -0.053331 0.028059
0.465339 -0.043308 0.071141
0.465339 0.037948 -0.054932
0.465339 0.050939 -0.006956
0.465339 -0.073614 0.033706
0.465339 0.053553 0.053019
0.465339 0.030840 -0.000166
0.465339 0.029718 -0.094629
0.465339 0.048925 0.037750
0.465339 -0.070317 0.070171
0.465339 -0.081205 -0.045872
0.465339 0.024129 0.009619
0.465339 -0.029176 -0.017704
0.465339 -0.048631 0.003299
0.465339 0.004739 -0.076880
0.465339 -0.015771 0.010990
0.465339 -0.028688 -0.027784
0.465339 0.018738 -0.025122
0.465339 -0.080343 0.058951
0.465339 -0.030097 -0.086268
0.465339 -0.050833 0.012048
0.465339 0.036020 0.012702
0.465339 0.032226 -0.052163
0.465339 0.009912 -0.025447
0.465339 -0.052837 0.045505
0.465339 -0.058508 -0.048498
0.465339 0.025941 -0.036502
0.465339 -0.038505 0.085616
0.465339 0.069431 -0.035455
0.465339 0.063217 0.069816
0.465339 0.077373 0.048019
0.465339 0.015623 0.009387
0.465339 -0.039977 0.062504
0.465339 0.070306 0.049640
0.465339 -0.038347 -0.014565
0.465339 -0.015379 0.072805
0.465339 0.081388 0.002227
0.465339 -0.049213 0.007928
0.465339 0.039361 0.007708
0.465339 -0.019507 0.025742
0.465339 0.031434 -0.038472
0.465339 0.036057 0.059185
0.465339 -0.030813 -0.031936
0.465339 0.037622 0.071187
0.465339 -0.071302 -0.025351
0.465339 -0.067682 0.026236
0.465339 -0.027610 0.012780
0.465339 0.085601 -0.025989
0.465339 -0.026484 -0.007644
0.465339 0.054431 -0.034896
0.465339 -0.009084 0.046361
0.465339 0.027133 -0.042612
0.465339 0.001286 0.069353
0.465339 0.000761 0.025033
0.465339 0.029186 -0.033311
0.465339 0.055054 -0.036921
0.465339 0.031913 -0.034914
0.465339 -0.000369 -0.032910
0.465339 -0.061918 -0.028916
0.465339 0.086841 -0.035131
0.465339 0.074755 0.021575
0.465339 0.008167 -0.079158
0.465339 -0.077424 -0.020733
0.465339 -0.071214 0.042534
0.465339 -0.077405 0.027701
0.465339 0.066351 0.042834
0.465339 -0.010715 0.084649
0.465339 0.062788 -0.070732
0.465339 -0.080606 0.032748
0.465339 0.076919 -0.002245
0.465339 0.003571 -0.063336
0.465339 -0.010073 0.087155
0.465339 0.029127 -0.060305
0.465339 -0.036715 -0.063114
0.465339 0.004795 -0.066362
0.465339 -0.095080 0.015305
0.465339 -0.067844 -0.056424
0.465339 0.062206 -0.024737
0.465339 0.047767 0.017766
0.465339 -0.054176 0.062775
0.465339 0.093820 -0.019810
0.465339 -0.057551 -0.050517
0.465339 -0.052517 0.049812
0.465339 -0.071887 0.026035
0.465339 -0.015033 -0.050815
0.465339 -0.067432 -0.046036
0.465339 -0.065844 0.038663
0.465339 0.043547 -0.042069
0.465339 -0.030328 0.030840
0.465339 -0.063076 -0.046441
0.465339 -0.004692 0.001422
0.465339 -0.027966 0.036244
0.465339 0.068041 -0.001798
0.465339 -0.030481 -0.014997
0.465339 0.074864 -0.025917
0.465339 -0.069082 0.046019
0.465339 -0.011826 -0.019222
0.465339 -0.011772 -0.015506
0.465339 0.027097 -0.064801
0.465339 -0.013465 -0.051981
0.465339 0.020817 0.059182
0.465339 0.042295 0.080673
0.465339 0.038010 0.000788
0.465339 -0.027612 0.089557
0.465339 -0.080286 -0.014529
0.465339 -0.003838 -0.086091
0.465339 0.068539 -0.020012
0.465339 -0.065988 0.045358
0.465339 0.044489 0.068601
0.465339 -0.072852 -0.055347
0.465339 -0.029685 0.089131
0.465339 -0.000691 -0.077293
0.465339 -0.032253 0.012393
0.465339 -0.036578 -0.002520
0.465339 -0.027423 -0.018950
0.465339 0.090593 -0.015381
0.465339 -0.039982 -0.008775
0.465339 -0.092949 0.035904
0.465339 -0.043382 -0.019616
0.465339 -0.092717 -0.014445
0.465339 0.047674 -0.013428
0.465339 0.057736 -0.018984
0.465339 -0.042127 -0.063107
0.465339 0.044888 -0.022568
0.465339 0.016529 0.055196
0.465339 0.026069 -0.032775
0.465339 0.090801 0.032775
0.465339 -0.020252 0.000563
0.465339 -0.046926 0.015107
0.465339 -0.086022 0.023442
0.465339 0.063028 -0.010069
0.465339 -0.025606 -0.028599
0.465339 0.052578 0.030068
0.465339 0.062915 -0.072791
0.465339 -0.007521 0.061629
0.465339 0.043922 0.024488
0.465339 -0.044476 0.002795
0.465339 -0.041687 -0.032317
0.465339 -0.072582 -0.026811
0.465339 0.055826 0.013521
0.465339 -0.042739 -0.048407
0.465339 -0.030818 0.015709
0.465339 0.098961 0.013217
0.465339 0.059227 -0.000560
0.465339 -0.063558 -0.029578
0.465339 0.021673 0.010883
0.465339 0.053980 0.072386
0.465339 -0.053386 -0.030766
0.465339 -0.032015 0.014353
0.465339 0.081493 -0.004645
0.465339 0.030175 -0.034539
0.465339 0.062578 0.008938
0.465339 0.068443 0.018314
0.465339 -0.081701 -0.039913
0.465339 0.096083 0.020950
0.465339 -0.029355 0.087558
0.465339 0.042681 -0.088276
0.465339 -0.077411 -0.000270
0.465339 0.048170 0.011204
0.465339 0.037763 0.003692
0.465339 0.075367 0.057168
0.465339 -0.032781 -0.027438
0.465339 -0.070816 -0.008769
0.465339 0.054031 0.039061
0.465339 -0.033086 0.069251
0.465339 0.024688 -0.031040
0.465339 -0.064245 -0.004748
0.465339 0.012885 -0.029510
0.465339 0.035020 0.020640
0.465339 -0.095323 -0.022412
0.465339 0.015505 -0.073891
0.465339 -0.007128 0.003128
0.465339 -0.003258 -0.075200
0.465339 -0.061376 -0.040629
0.465339 -0.035370 0.067542
0.465339 0.058237 -0.032174
0.465339 -0.007350 0.051039
0.465339 -0.015183 -0.052312
0.465339 -0.068091 0.039217
0.465339 0.030736 -0.082744
0.465339 -0.075080 -0.062070
0.465339 -0.028702 -0.031781
0.465339 0.045139 -0.075631
0.465339 0.041506 -0.063768
0.465339 0.000612 0.090162
0.465339 0.052305 -0.006603
0.465339 -0.004844 0.037024
0.465339 0.087155 0.014052
0.465339 -0.049176 0.082865
0.465339 -0.003852 0.013233
0.465339 -0.021872 -0.009223
0.465339 0.032063 -0.010086
0.465339 0.017868 0.049346
0.465339 -0.020040 0.044098
0.465339 -0.046067 -0.018004
0.465339 0.012448 -0.001427
0.465339 0.036989 -0.027079
0.465339 0.028003 -0.044420
0.465339 -0.007390 -0.033925
0.465339 -0.048987 0.052505
0.465339 0.038551 0.027693
0.465339 -0.067976 0.059625
0.465339 -0.060204 -0.027678
0.465339 0.026837 -0.045406
0.465339 -0.019105 0.021255
0.465339 0.029549 -0.023941
0.465339 0.048194 -0.047728
0.465339 -0.018882 -0.026482
0.465339 -0.037879 -0.038589
0.465339 -0.042342 0.004807
0.465339 0.014746 -0.068131
0.465339 -0.033309 0.013719
0.465339 -0.048067 0.044866
0.465339 -0.015557 0.013129
0.465339 -0.022071 -0.076352
0.465339 -0.075886 0.029377
0.465339 0.031434 0.089018
0.465339 -0.024969 0.036490
0.465339 -0.024530 0.017885
0.465339 0.041271 0.039343
0.465339 -0.025695 0.056618
0.465339 0.023350 -0.015002
0.465339 -0.035104 -0.003637
0.465339 0.024791 0.048192
0.465339 -0.056163 0.029360
0.465339 0.004095 -0.085659
0.465339 0.033738 -0.027332
0.465339 0.017462 0.026963
0.465339 0.010479 0.035630
0.465339 0.093767 -0.006695
0.465339 0.049207 -0.012006
0.465339 0.041625 0.012818
0.465339 0.073279 0.010510
0.465339 0.041734 0.087946
0.465339 0.012729 0.028315
0.465339 -0.025512 -0.093925
0.465339 0.000264 -0.009712
0.465339 -0.066323 -0.049631
0.465339 0.094013 0.022904
0.465339 -0.021504 -0.054139
0.465339 -0.026542 0.075046
0.465339 0.047709 0.043893
0.465339 -0.075594 -0.045913
0.465339 0.016437 -0.026885
0.465339 0.084332 -0.041137
0.465339 -0.024237 -0.052325
0.465339 -0.018928 -0.012788
0.465339 0.013209 -0.080952
0.465339 -0.029452 0.040427
0.465339 -0.000054 0.012317
0.465339 0.073007 0.064124
0.465339 0.001984 -0.059004
0.465339 0.051266 0.064847
0.465339 -0.035341 -0.063447
0.465339 -0.048672 0.067745
0.465339 -0.010651 0.006737
0.465339 0.011832 -0.077294
0.465339 0.085416 0.035651
0.465339 -0.036481 0.083232
0.465339 -0.035182 0.023062
0.465339 0.036995 0.017248
0.465339 0.054812 0.080993
0.465339 -0.008179 -0.071612
0.465339 -0.078231 0.012325
0.465339 -0.022266 0.029261
0.465339 0.082779 0.049791
0.465339 0.001681 -0.082713
0.465339 -0.009397 -0.008833
0.465339 -0.048043 -0.076510
0.465339 0.064002 -0.063605
0.465339 0.031768 0.017065
0.465339 0.030879 -0.036805
0.465339 0.007116 0.020906
0.465339 -0.064483 0.037770
0.465339 -0.049315 -0.079432
0.465339 -0.014426 -0.017126
0.465339 0.006883 -0.004198
0.465339 -0.022508 -0.035348
0.465339 -0.003033 0.021414
0.465339 -0.018807 -0.065674
0.465339 -0.031935 -0.033331
0.465339 -0.006011 -0.048672
0.465339 -0.063347 0.052773
0.465339 0.079343 -0.009632
0.465339 0.075403 0.064946
0.465339 0.028676 -0.053311
0.465339 0.084049 -0.028819
0.465339 0.059872 0.010278
0.465339 0.064740 -0.007083
0.465339 0.072632 -0.040929
0.465339 0.080239 0.005499
0.465339 0.056464 -0.034206
0.465339 -0.010084 0.082908
0.465339 -0.053337 0.057382
0.465339 -0.000391 0.074298
0.465339 0.067857 -0.063374
0.465339 0.047895 -0.026663
0.465339 -0.006116 0.082357
0.465339 0.000761 -0.077776
0.465339 0.066264 -0.014516
0.465339 0.017083 -0.004490
0.465339 0.035707 0.092828
0.465339 0.015837 -0.069118
0.465339 -0.037628 -0.069138
0.465339 0.026547 0.047983
0.465339 -0.038930 -0.022948
0.465339 0.045657 -0.071549
0.465339 0.068106 0.004941
0.465339 -0.028877 -0.025782
0.465339 -0.012576 0.018821
0.465339 -0.000426 -0.099308
0.465339 0.058400 -0.070235
0.465339 0.037017 0.067051
0.465339 -0.039919 0.022169
0.465339 0.058028 0.067692
0.465339 -0.047790 -0.039097
0.465339 0.034465 0.045885
0.465339 0.039605 0.050039
0.465339 -0.086307 -0.039583
0.465339 0.061147 0.062172
0.465339 -0.010774 -0.027390
0.465339 -0.037980 -0.081485
0.465339 -0.098383 0.004911
0.465339 -0.044748 -0.084081
0.465339 0.002113 -0.071042
0.465339 -0.071880 -0.054196
0.465339 0.013785 0.058370
0.465339 0.064551 0.063284
0.465339 0.061529 -0.041078
0.465339 -0.019892 -0.058458
0.465339 -0.086255 0.009407
0.465339 0.026887 -0.077918
0.465339 0.026308 0.095729
0.465339 -0.076799 -0.027209
0.465339 -0.040420 0.069062
0.465339 0.025309 -0.081004
0.465339 0.009179 -0.046732
0.465339 -0.020828 0.049112
0.465339 0.057630 -0.007909
0.465339 0.042984 0.085404
0.465339 0.061734 -0.058897
0.465339 0.088062 0.023259
0.465339 -0.086153 -0.042643
0.465339 -0.034183 -0.070321
0.465339 0.049049 0.054001
0.465339 -0.055297 -0.060338
0.465339 -0.009017 0.084255
0.465339 0.062974 -0.034106
0.465339 0.031513 0.060789
0.465339 -0.054146 0.013816
0.465339 -0.054815 -0.058384
0.465339 0.005755 -0.086072
0.465339 0.054669 0.012260
0.465339 -0.001603 -0.066992
0.465339 -0.014461 0.079899
0.465339 0.078081 -0.053826
0.465339 -0.013582 -0.050576
0.465339 -0.075430 -0.049475
0.465339 0.015225 -0.090244
0.465339 0.011360 0.070069
0.465339 -0.064004 0.069190
0.465339 -0.065949 0.071312
0.465339 -0.054489 0.078489
0.465339 0.071814 -0.020137
0.465339 -0.002114 -0.065759
0.465339 -0.062875 0.035540
0.465339 -0.043097 -0.009857
0.465339 -0.074626 -0.022665
0.465339 -0.023697 -0.004409
0.465339 0.060377 0.037486
0.465339 0.047312 0.070532
0.465339 -0.076552 -0.013730
0.465339 -0.014803 0.029069
0.465339 0.085937 0.004928
0.465339 0.086632 -0.015097
0.465339 -0.082780 0.011281
0.465339 0.061115 -0.064293
0.465339 -0.056781 0.064522
0.465339 0.057382 0.074028
0.465339 -0.015330 0.005916
0.465339 0.011159 0.014070
0.465339 -0.027159 -0.071252
0.465339 -0.010170 0.059127
0.465339 -0.059332 -0.017786
0.465339 -0.029207 0.012221
0.465339 0.074508 -0.063514
0.465339 0.029080 -0.037376
0.465339 0.033903 -0.063780
0.465339 0.033807 -0.088121
0.465339 0.015721 -0.049166
0.465339 -0.037707 -0.088097
0.465339 0.007411 -0.014934
0.465339 -0.084123 0.045639
0.465339 -0.063833 -0.027951
0.465339 0.050786 -0.023210
0.465339 -0.031912 -0.074461
0.465339 -0.026266 0.082952
0.465339 -0.018790 0.056613
0.465339 0.039855 -0.086876
0.465339 0.059768 0.034280
0.465339 0.060219 -0.065893
0.465339 -0.001648 0.024458
0.465339 -0.063238 -0.000047
0.465339 0.057450 -0.028473
0.465339 0.019939 -0.009894
0.465339 0.029440 0.005806
0.465339 -0.009787 -0.031557
0.465339 0.034326 0.038098
0.465339 0.040768 0.090985
0.465339 0.065350 -0.073199
0.465339 0.050695 0.082669
0.465339 -0.022211 0.077758
0.465339 -0.066103 -0.031755
0.465339 0.072430 0.033071
0.465339 0.078881 0.010763
0.465339 0.065146 0.032702
0.465339 0.027224 0.081531
0.465339 -0.085634 0.045247
0.465339 -0.062956 -0.018658
0.465339 0.042512 0.063113
0.465339 0.051302 0.079799
0.465339 0.003460 -0.023301
0.465339 -0.028591 0.023694
0.465339 -0.067734 -0.072975
0.465339 -0.022715 -0.078073
0.465339 -0.080514 0.046164
0.465339 -0.034187 -0.071792
0.465339 -0.014122 -0.094802
0.465339 -0.052295 -0.055044
0.465339 0.049831 0.012233
0.465339 -0.077736 0.044057
0.465339 0.056956 0.062144
0.465339 -0.051407 -0.024392
0.465339 -0.001774 0.079751
0.465339 0.037120 -0.056443
0.465339 -0.017149 0.085927
0.465339 -0.032299 -0.001296
0.465339 -0.024331 -0.061962
0.465339 0.038194 0.026232
0.465339 -0.054897 0.001997
0.465339 0.037489 0.010351
0.465339 -0.034955 0.025488
0.465339 -0.077153 0.047201
0.465339 0.046389 -0.030102
0.465339 0.011213 -0.045373
0.465339 -0.028344 -0.045349
0.465339 -0.026740 0.004173
0.465339 0.035346 -0.047326
0.465339 -0.022675 -0.014833
0.465339 0.029776 -0.001369
0.465339 0.056459 -0.030125
0.465339 -0.002844 0.014566
0.465339 0.064395 0.040575
0.465339 0.063669 0.071804
0.465339 -0.074324 -0.054983
0.465339 -0.015875 0.090075
0.465339 -0.024820 -0.066927
0.465339 -0.013643 -0.007012
0.465339 -0.047610 0.029641
0.465339 -0.024509 0.006401
0.465339 0.026157 0.033670
0.465339 -0.003392 -0.021556
0.465339 -0.090590 0.040129
0.465339 -0.061862 -0.070282
0.465339 -0.033509 -0.007274
0.465339 -0.007348 -0.001599
0.465339 -0.027919 0.025086
0.465339 0.075656 -0.030493
0.465339 -0.024897 0.074082
0.465339 -0.094202 -0.031830
0.465339 0.056203 -0.019471
0.465339 0.072814 0.016605
0.465339 0.003813 -0.018151
0.465339 0.033240 -0.034393
0.465339 0.074481 0.026033
0.465339 0.008619 0.080023
0.465339 0.063086 0.063949
0.465339 -0.049419 0.020080
0.465339 0.032562 0.083993
0.465339 -0.003152 0.047470
0.465339 -0.014911 -0.036623
0.465339 0.002162 -0.044244
0.465339 -0.036778 -0.033123
0.465339 0.049159 -0.062569
0.465339 -0.016709 -0.018983
0.465339 -0.085137 -0.021034
0.465339 -0.062626 0.031535
0.465339 0.054101 0.029373
0.465339 -0.002366 -0.068577
0.465339 0.010302 -0.008304
0.465339 -0.016882 -0.070994
0.465339 -0.024698 0.086125
0.465339 0.036023 0.022156
0.465339 -0.089890 -0.026427
0.465339 -0.082055 -0.007674
0.465339 -0.049079 0.009602
0.465339 -0.079386 -0.031686
0.465339 0.014869 0.061732
0.465339 0.059239 0.005905
0.465339 -0.033654 0.037826
0.465339 -0.031636 0.001757
0.465339 0.073518 0.067773
0.465339 -0.030752 0.006330
0.465339 0.037486 0.065781
0.465339 0.011340 -0.080782
0.465339 0.067546 0.044161
0.465339 -0.007688 0.047712
0.465339 0.060746 -0.017117
0.465339 -0.062270 -0.030587
0.465339 -0.000425 0.094615
0.465339 -0.023712 -0.021793
0.465339 0.003800 -0.021744
0.465339 0.054614 0.048058
0.465339 0.082532 -0.010580
0.465339 0.018887 0.098030
0.465339 -0.063812 0.063372
0.465339 -0.047546 0.002227
0.465339 0.023984 0.036264
0.465339 0.053605 0.078656
0.465339 0.004328 0.066802
0.465339 0.051708 0.050485
0.465339 -0.038773 -0.072548
0.465339 -0.009234 -0.079077
0.465339 -0.083021 -0.046166
0.465339 0.044624 -0.027646
0.465339 0.080366 0.037922
0.465339 -0.058180 0.074504
0.465339 -0.045282 -0.036434
0.465339 -0.030595 0.055335
0.465339 -0.040861 0.044603
0.465339 -0.036102 0.089609
0.465339 -0.060910 -0.004742
0.465339 -0.022393 -0.018883
0.465339 -0.002442 0.035366
0.465339 0.077154 0.004934
0.465339 -0.073799 -0.039075
0.465339 -0.049433 -0.004018
0.465339 0.076512 -0.013833
0.465339 -0.070332 0.058386
0.465339 0.079488 -0.042673
0.465339 -0.035589 -0.088136
0.465339 -0.056211 0.052557
0.465339 0.043721 -0.059209
0.465339 -0.045412 -0.074333
0.465339 -0.047856 0.040818
0.465339 -0.062195 0.016460
0.465339 -0.009773 -0.013327
0.465339 -0.012667 -0.061383
0.465339 0.015782 -0.063386
0.465339 -0.006806 0.087294
0.465339 -0.039366 0.082458
0.465339 0.070145 0.036742
0.465339 0.008612 -0.070824
0.465339 -0.022000 0.002351
0.465339 -0.037056 0.023394
0.465339 -0.010396 -0.014619
0.465339 -0.073601 0.009005
0.465339 0.094792 0.019922
0.465339 0.045094 0.085796
0.465339 0.007727 -0.018753
0.465339 -0.009950 0.060624
0.465339 -0.062781 0.046224
0.465339 0.087036 0.032304
0.465339 0.078845 0.032785
0.465339 0.014399 -0.033215
0.465339 -0.009070 -0.070544
0.465339 0.014948 0.074804
0.465339 -0.030394 0.085246
0.465339 -0.075359 0.053266
0.465339 0.021121 0.005264
0.465339 0.091551 -0.008012
0.465339 -0.072898 0.012751
0.465339 0.046089 -0.085192
0.465339 0.019200 0.050188
0.465339 -0.080887 0.015716
0.465339 0.041869 0.079198
0.465339 0.009466 -0.054472
0.465339 -0.043899 0.063635
0.465339 0.031552 -0.021659
0.465339 0.056938 0.045315
0.465339 0.096187 -0.007340
0.465339 0.070663 0.043634
0.465339 -0.064572 0.024669
0.465339 0.026203 -0.068707
0.465339 -0.002469 -0.064105
0.465339 0.047641 -0.035884
0.465339 0.053000 0.011111
0.465339 0.064992 -0.005145
0.465339 -0.057391 0.040184
0.465339 0.071509 0.027007
0.465339 -0.001568 -0.013587
0.465339 0.065811 0.005585
0.465339 0.043645 -0.089477
0.465339 -0.092222 -0.033983
0.465339 0.051092 0.009665
0.465339 -0.037295 -0.085705
0.465339 0.097315 -0.010720
0.465339 0.065636 -0.002456
0.465339 -0.047034 -0.060354
0.465339 0.086236 0.026716
0.465339 -0.011965 0.091698
0.465339 -0.036210 0.053486
0.465339 -0.072771 0.041397
0.465339 0.015801 0.082343
0.465339 -0.025103 -0.014574
0.465339 0.071308 -0.032700
0.465339 0.005803 0.085931
0.465339 -0.066214 -0.044002
0.465339 0.011443 0.023193
0.465339 -0.042117 0.081737
0.465339 0.005867 0.009496
0.465339 0.005134 0.001172
0.465339 0.085707 -0.007523
0.465339 0.077676 0.006339
0.465339 -0.074301 0.007418
0.465339 -0.055545 -0.014902
0.465339 0.052983 -0.073542
0.465339 -0.052428 0.030952
0.465339 0.059719 0.039273
0.465339 -0.060297 0.053520
0.465339 -0.037553 -0.009971
0.465339 0.011574 0.041245
0.465339 -0.015186 -0.072368
0.465339 -0.024852 -0.002878
0.465339 0.003766 0.097135
0.465339 -0.003395 0.022896
0.465339 0.049356 -0.076051
0.465339 -0.010540 0.030508
0.465339 0.096840 -0.016882
0.465339 -0.095017 -0.008540
0.465339 -0.041300 -0.034225
0.465339 0.072359 -0.034130
0.465339 0.013347 0.070548
0.465339 0.070429 -0.031521
0.465339 -0.042383 -0.011410
0.465339 -0.082051 -0.043192
0.465339 -0.033502 -0.034041
0.465339 -0.084780 0.029655
0.465339 -0.013939 -0.021133
0.465339 -0.007371 0.011348
0.465339 -0.083262 0.054493
0.465339 0.024671 0.065701
0.465339 0.083917 -0.050437
0.465339 0.063153 0.053353
0.465339 0.066309 0.072726
0.465339 0.052220 -0.075706
0.465339 -0.011110 0.057683
0.465339 -0.011008 0.072886
0.465339 0.036922 -0.069193
0.465339 -0.005744 -0.052591
0.465339 -0.055932 -0.071978
0.465339 0.022496 -0.091719
0.465339 -0.087461 0.040256
0.465339 0.020453 -0.092195
0.465339 0.029949 -0.073735
0.465339 -0.060081 0.002218
0.465339 -0.016780 0.067565
0.465339 0.055794 0.003186
0.465339 -0.070627 0.063330
0.465339 0.033168 0.036981
0.465339 -0.042274 0.064637
0.465339 -0.047969 -0.064912
0.465339 -0.084606 -0.034297
0.465339 -0.064323 0.018590
0.465339 0.010301 0.046242
0.465339 0.010628 -0.001487
0.465339 0.023539 0.084147
0.465339 -0.046361 0.082863
0.465339 0.012719 -0.017405
0.465339 -0.021202 -0.036736
0.465339 0.077538 -0.006356
0.465339 0.086779 -0.048969
0.465339 0.093663 0.003338
0.465339 0.045067 0.088921
0.465339 -0.028479 0.018179
0.465339 0.009154 -0.050015
0.465339 0.002285 0.079585
0.465339 0.068042 0.003412
0.465339 0.023890 0.005493
0.465339 -0.046615 -0.001920
0.465339 0.051128 -0.064032
0.465339 0.021253 0.052344
0.465339 0.065841 -0.047861
0.465339 -0.093504 -0.009485
0.465339 0.058308 -0.066414
0.465339 -0.069545 0.001491
0.465339 -0.042186 0.079758
0.465339 0.058088 0.076621
0.465339 -0.036476 0.066606
0.465339 0.046777 0.020113
0.465339 -0.048193 0.032694
0.465339 -0.041967 -0.008795
0.465339 0.036130 0.019029
0.465339 0.079885 0.034656
0.465339 -0.048723 0.042806
0.465339 0.047840 -0.034007
0.465339 0.006902 -0.081141
0.465339 0.009317 -0.076541
0.465339 -0.003321 0.089882
0.465339 0.034079 -0.057406
0.465339 0.056859 -0.040923
0.465339 -0.080661 -0.043863
0.465339 0.094166 -0.010048
0.465339 -0.040236 0.067067
0.465339 -0.061491 -0.059862
0.465339 -0.031560 -0.083450
0.465339 -0.002766 0.085082
0.465339 -0.038339 -0.082814
0.465339 0.048742 0.075279
0.465339 0.029295 0.050002
0.465339 -0.066112 0.033976
0.465339 0.020576 0.066048
0.465339 0.038437 0.040984
0.465339 -0.079381 0.057899
0.465339 0.020040 0.096322
0.465339 -0.008319 -0.065634
0.465339 -0.020808 0.025236
0.465339 -0.024029 -0.032248
0.465339 -0.017014 0.057328
0.465339 0.000111 -0.014744
0.465339 0.075844 -0.034875
0.465339 0.064924 0.054529
0.465339 -0.000639 0.040634
0.465339 0.048473 0.059204
0.465339 -0.096938 -0.012501
0.465339 0.034772 0.090221
0.465339 0.014610 -0.064695
0.465339 -0.068986 0.023538
0.465339 0.004706 -0.067827
0.465339 0.068446 -0.041373
0.465339 -0.066102 -0.037016
0.465339 0.045917 -0.017221
0.465339 0.034036 0.077549
0.465339 0.018507 0.040262
0.465339 0.000910 0.057751
0.465339 0.086918 0.039454
0.465339 0.023299 -0.088189
0.465339 -0.066916 -0.039143
0.465339 0.061640 -0.010706
0.465339 -0.065872 0.017971
0.465339 -0.078421 0.028585
0.465339 0.020094 -0.014034
0.465339 0.021686 0.058157
0.465339 -0.046441 0.052158
0.465339 -0.032402 -0.005554
0.465339 0.036645 0.057034
0.465339 -0.035595 -0.030828
0.465339 -0.016896 -0.089745
0.465339 -0.001036 0.077675
0.465339 0.089451 0.002049
0.465339 -0.081507 -0.012350
0.465339 -0.098556 -0.001996
0.465339 -0.040177 -0.065377
0.465339 0.005512 0.062357
0.465339 -0.041680 0.041101
0.465339 -0.056346 -0.025791
0.465339 0.021549 0.033914
0.465339 -0.026240 0.080593
0.465339 -0.091186 -0.027531
0.465339 0.088062 0.027396
0.465339 0.046778 0.041047
0.465339 0.048337 -0.025295
0.465339 -0.010877 -0.090454
0.465339 -0.021111 0.067132
0.465339 -0.042737 -0.039336
0.465339 -0.094175 -0.011085
0.465339 -0.033186 0.055261
0.465339 0.022915 -0.013524
0.465339 0.000629 0.041399
0.465339 -0.027007 -0.076933
0.465339 0.065824 0.065268
0.465339 -0.051409 0.069813
0.465339 0.041198 -0.043458
0.465339 0.006026 -0.043851
0.465339 0.074751 0.035344
0.465339 -0.083978 -0.037976
0.465339 0.079345 0.007031
0.465339 -0.032093 0.060387
0.465339 0.054020 0.058680
-0.466955 0.005528 0.057209
-0.466955 -0.007481 -0.035790
-0.466955 0.069663 0.011480
-0.466955 0.024228 0.053370
-0.466955 0.047923 0.082841
-0.466955 -0.072918 0.051461
-0.466955 0.063543 0.076061
-0.466955 -0.046162 0.073191
-0.466955 -0.026121 -0.057796
-0.466955 0.080479 -0.044231
-0.466955 0.040945 0.045187
-0.466955 0.076313 -0.021856
-0.466955 0.050080 0.031884
-0.466955 0.009027 0.012438
-0.466955 -0.009772 0.018791
-0.466955 -0.074403 -0.061596
-0.466955 0.072704 -0.057537
-0.466955 -0.031915 -0.051000
-0.466955 0.049050 -0.039610
-0.466955 0.090060 -0.022361
-0.466955 0.073360 0.000857
-0.466955 -0.067849 -0.028044
-0.466955 0.031587 -0.002539
-0.466955 0.090480 0.002698
-0.466955 -0.010678 0.046309
-0.466955 -0.010352 -0.075026
-0.466955 -0.049900 -0.081948
-0.466955 -0.011931 0.090252
-0.466955 0.005799 0.011449
-0.466955 -0.009980 -0.061138
-0.466955 0.029657 -0.064014
-0.466955 -0.087695 -0.011614
-0.466955 -0.011296 -0.076921
-0.466955 0.034202 0.011963
-0.466955 0.058926 -0.066872
-0.466955 0.060560 -0.077381
-0.466955 0.077650 0.002166
-0.466955 0.020300 -0.023039
-0.466955 -0.065540 -0.014984
-0.466955 -0.095047 -0.029715
-0.466955 0.002926 0.067016
-0.466955 -0.026854 -0.021339
-0.466955 -0.064925 -0.040594
-0.466955 0.029357 0.084610
-0.466955 -0.029015 0.061971
-0.466955 -0.025431 -0.053838
-0.466955 0.062452 0.009373
-0.466955 -0.024240 -0.002692
-0.466955 -0.083605 0.001050
-0.466955 0.015340 0.089284
-0.466955 -0.052320 0.054433
-0.466955 0.073090 0.024110
-0.466955 -0.012337 -0.060337
-0.466955 -0.063774 0.074618
-0.466955 0.025147 -0.048103
-0.466955 -0.073827 0.030639
-0.466955 -0.081991 0.044304
-0.466955 0.042539 -0.017102
-0.466955 -0.085907 -0.029954
-0.466955 -0.057203 0.063653
-0.466955 0.046848 -0.019099
-0.466955 0.061359 -0.070945
-0.466955 -0.042838 0.073474
-0.466955 0.076862 -0.002380
-0.466955 -0.082402 0.015489
-0.466955 0.004614 -0.043920
-0.466955 -0.093305 -0.002425
-0.466955 0.058344 -0.054271
-0.466955 0.052937 0.060606
-0.466955 -0.028506 -0.007949
-0.466955 0.040215 -0.017948
-0.466955 -0.019617 -0.046788
-0.466955 -0.034170 0.091845
-0.466955 0.029491 0.015350
-0.466955 0.059269 -0.031569
-0.466955 0.061923 0.012658
-0.466955 -0.007744 -0.055327
-0.466955 0.051538 0.082560
-0.466955 0.063745 -0.074979
-0.466955 0.036365 -0.059377
-0.466955 -0.033726 -0.080557
-0.466955 -0.046016 -0.051691
-0.466955 -0.063076 0.068494
-0.466955 0.016728 0.020344
-0.466955 0.057035 0.008721
-0.466955 0.019375 -0.092851
-0.466955 0.001878 -0.023110
-0.466955 -0.089748 -0.003223
-0.466955 -0.029658 -0.083007
-0.466955 0.030129 -0.054121
-0.466955 -0.066757 0.010038
-0.466955 -0.030463 -0.031741
-0.466955 -0.072878 -0.008176
-0.466955 -0.011610 -0.003325
-0.466955 -0.058115 0.052192
-0.466955 0.009750 -0.081031
-0.466955 0.080063 0.018514
-0.466955 -0.080132 0.046547
-0.466955 -0.063763 -0.064512
-0.466955 0.069021 -0.033053
-0.466955 0.064692 -0.027183
-0.466955 0.064739 -0.062235
-0.466955 -0.064119 -0.046834
-0.466955 0.054297 -0.028802
-0.466955 -0.060970 0.042128
-0.466955 -0.068933 0.038896
-0.466955 0.020862 -0.056647
-0.466955 0.019919 0.083393
-0.466955 -0.073884 -0.049525
-0.466955 0.002575 -0.037541
-0.466955 0.007392 -0.022620
-0.466955 -0.013074 0.062561
-0.466955 -0.082886 0.019941
-0.466955 -0.023158 -0.088297
-0.466955 0.023261 -0.089767
-0.466955 0.003229 0.087654
-0.466955 0.036732 0.022717
-0.466955 -0.048921 -0.054442
-0.466955 -0.023762 0.001544
-0.466955 0.034705 0.075093
-0.466955 -0.049639 -0.062147
-0.466955 0.092009 -0.021656
-0.466955 -0.005808 -0.015752
-0.466955 0.055350 -0.013171
-0.466955 0.009449 -0.034073
-0.466955 0.041023 -0.071740
-0.466955 0.011618 0.018177
-0.466955 0.060527 -0.073481
-0.466955 -0.020894 -0.036137
-0.466955 -0.017098 -0.079878
-0.466955 0.078805 -0.051151
-0.466955 0.004527 -0.015643
-0.466955 0.057521 -0.067873
-0.466955 0.007158 -0.059235
-0.466955 -0.052717 -0.018144
-0.466955 -0.038910 0.001283
-0.466955 0.031071 0.050402
-0.466955 0.018309 0.077592
-0.466955 -0.067934 -0.002262
-0.466955 0.010347 -0.068722
-0.466955 0.060611 -0.066463
-0.466955 0.077353 0.022538
-0.466955 -0.074290 0.023051
-0.466955 0.050759 0.003260
-0.466955 -0.028603 -0.057284
-0.466955 -0.076519 0.006939
-0.466955 0.080694 0.003793
-0.466955 -0.076469 0.028913
-0.466955 0.053147 0.034737
-0.466955 0.050144 -0.015016
-0.466955 0.071448 -0.003024
-0.466955 0.011425 0.005332
-0.466955 0.027823 0.000592
-0.466955 0.028639 0.057641
-0.466955 0.091882 -0.031791
-0.466955 0.058516 -0.045888
-0.466955 -0.080904 -0.016236
-0.466955 -0.050034 -0.044288
-0.466955 0.062994 -0.017598
-0.466955 0.042298 0.090220
-0.466955 -0.049963 0.053620
-0.466955 0.075107 -0.004409
-0.466955 0.046320 0.076209
-0.466955 -0.037896 0.087215
-0.466955 -0.057024 0.003429
-0.466955 0.072613 -0.066993
-0.466955 -0.052406 -0.014308
-0.466955 -0.025800 -0.028301
-0.466955 0.070743 0.039767
-0.466955 -0.006961 -0.054025
-0.466955 0.023344 0.013645
-0.466955 -0.045759 0.054887
-0.466955 -0.044446 0.085298
-0.466955 0.069676 0.054530
-0.466955 0.011403 -0.003073
-0.466955 -0.047743 0.011116
-0.466955 -0.065420 -0.075110
-0.466955 -0.076591 0.058747
-0.466955 0.048648 -0.085132
-0.466955 0.003397 -0.034172
-0.466955 -0.083587 0.041809
-0.466955 -0.046981 -0.004571
-0.466955 0.075568 -0.046174
-0.466955 0.005039 0.013854
-0.466955 -0.026301 0.086893
-0.466955 0.043650 0.067146
-0.466955 -0.038246 -0.018010
-0.466955 -0.005781 0.062769
-0.466955 -0.087927 0.043667
-0.466955 -0.087880 -0.046335
-0.466955 0.058643 -0.015843
-0.466955 -0.077544 0.019234
-0.466955 0.049709 -0.018628
-0.466955 -0.026857 0.078581
-0.466955 0.047463 0.063879
-0.466955 -0.006608 -0.039912
-0.466955 -0.061439 -0.058940
-0.466955 0.003133 -0.094773
-0.466955 -0.083082 0.051022
-0.466955 0.046811 -0.006143
-0.466955 -0.071657 -0.010081
-0.466955 -0.042740 0.034642
-0.466955 -0.052554 0.029571
-0.466955 -0.003448 -0.093454
-0.466955 0.038619 -0.034246
-0.466955 -0.029621 -0.086164
-0.466955 -0.095443 0.013453
-0.466955 0.036174 -0.004866
-0.466955 -0.070510 0.007682
-0.466955 -0.046934 -0.034651
-0.466955 0.040360 -0.037153
-0.466955 -0.058246 0.056672
-0.466955 0.011320 0.080711
-0.466955 0.004571 0.032311
-0.466955 -0.071628 0.000469
-0.466955 0.049609 -0.032576
-0.466955 0.075501 0.000053
-0.466955 -0.038199 0.047152
-0.466955 0.052173 -0.080118
-0.466955 0.000902 -0.078521
-0.466955 -0.001139 -0.021289
-0.466955 0.042948 0.056410
-0.466955 0.053236 -0.084107
-0.466955 0.041001 -0.011535
-0.466955 0.061005 -0.049112
-0.466955 -0.008300 0.065295
-0.466955 0.042478 -0.012359
-0.466955 0.063165 -0.000228
-0.466955 -0.074676 0.040443
-0.466955 0.009237 0.055235
-0.466955 -0.054437 -0.060301
-0.466955 -0.051761 0.066456
-0.466955 -0.093286 -0.033493
-0.466955 -0.093369 -0.004021
-0.466955 -0.020708 0.097560
-0.466955 0.097663 -0.007921
-0.466955 0.009002 -0.085628
-0.466955 -0.070209 0.003661
-0.466955 -0.019075 -0.019650
-0.466955 0.017022 0.049685
-0.466955 0.056736 -0.021624
-0.466955 -0.058439 -0.076618
-0.466955 -0.026782 0.014224
-0.466955 -0.006708 0.073573
-0.466955 0.071233 -0.066515
-0.466955 0.032453 -0.001297
-0.466955 -0.075138 -0.034021
-0.466955 -0.030710 0.059585
-0.466955 0.086198 -0.009826
-0.466955 -0.003308 0.060461
-0.466955 0.063148 -0.007626
-0.466955 0.015247 0.040553
-0.466955 0.026692 0.042541
-0.466955 0.036856 -0.048113
-0.466955 -0.034853 -0.053864
-0.466955 0.010116 -0.074841
-0.466955 0.052400 0.047550
-0.466955 0.045628 -0.036813
-0.466955 0.021547 -0.031810
-0.466955 0.024776 0.065241
-0.466955 -0.046418 0.017724
-0.466955 0.076558 -0.000823
-0.466955 0.047746 -0.055621
-0.466955 -0.073830 0.038971
-0.466955 -0.010113 -0.049436
-0.466955 -0.022193 0.002110
-0.466955 0.013167 -0.055867
-0.466955 0.041386 0.002266
-0.466955 0.017612 -0.020741
-0.466955 -0.079537 -0.024072
-0.466955 0.083366 0.024146
-0.466955 -0.067698 -0.048576
-0.466955 -0.020612 -0.083811
-0.466955 0.012527 -0.039652
-0.466955 0.002928 0.068931
-0.466955 0.048866 0.074280
-0.466955 -0.037655 0.077993
-0.466955 0.003515 0.009172
-0.466955 0.014556 0.068812
-0.466955 0.028212 0.031633
-0.466955 0.042858 0.002280
-0.466955 -0.043390 -0.033770
-0.466955 -0.032085 -0.039258
-0.466955 -0.078242 0.058826
-0.466955 0.018799 -0.068167
-0.466955 -0.013190 -0.042217
-0.466955 -0.042067 0.042700
-0.466955 0.084488 -0.001475
-0.466955 0.065475 -0.059023
-0.466955 0.017658 0.013811
-0.466955 0.062027 0.063382
-0.466955 0.052721 -0.020324
-0.466955 0.053520 -0.071975
-0.466955 -0.087620 -0.028687
-0.466955 -0.069490 -0.001422
-0.466955 -0.000437 0.028764
-0.466955 0.083496 -0.027114
-0.466955 -0.008668 -0.049098
-0.466955 0.023619 0.044220
-0.466955 -0.080731 0.007797
-0.466955 -0.081939 -0.044339
-0.466955 -0.052522 0.061444
-0.466955 0.008105 0.009529
-0.466955 -0.017515 -0.039055
-0.466955 0.015830 0.006805
-0.466955 -0.088669 0.030149
-0.466955 -0.080277 -0.035424
-0.466955 -0.070479 -0.063261
-0.466955 -0.040095 -0.032218
-0.466955 0.072054 -0.015379
-0.466955 0.016741 0.035167
-0.466955 -0.019270 0.007653
-0.466955 0.016418 0.036798
-0.466955 -0.062261 -0.039100
-0.466955 -0.025874 0.004660
-0.466955 0.055334 -0.002292
-0.466955 -0.030461 -0.017342
-0.466955 -0.059023 -0.035472
-0.466955 -0.020495 -0.051634
-0.466955 -0.016350 0.050931
-0.466955 0.067306 0.032056
-0.466955 -0.063298 0.006572
-0.466955 -0.071136 0.017995
-0.466955 0.054769 0.055063
-0.466955 0.053417 0.052756
-0.466955 -0.028559 -0.079380
-0.466955 0.005818 0.039486
-0.466955 -0.086405 -0.039868
-0.466955 0.023671 -0.051659
-0.466955 0.030398 -0.062662
-0.466955 -0.075069 -0.056250
-0.466955 0.078016 0.015532
-0.466955 0.015541 0.074169
-0.466955 -0.027233 -0.033333
-0.466955 0.035574 -0.035998
-0.466955 -0.034647 -0.018890
-0.466955 0.033268 -0.004145
-0.466955 -0.062543 0.028377
-0.466955 -0.049199 -0.052619
-0.466955 0.039361 0.023337
-0.466955 0.058522 -0.035412
-0.466955 -0.029949 0.064851
-0.466955 0.035627 0.090262
-0.466955 0.067196 0.042480
-0.466955 -0.011240 -0.071775
-0.466955 0.011017 0.096946
-0.466955 -0.047392 -0.053146
-0.466955 0.092784 -0.026558
-0.466955 0.008309 0.076283
-0.466955 -0.039495 -0.052401
-0.466955 0.050607 -0.059286
-0.466955 0.034887 0.044924
-0.466955 0.041754 0.063181
-0.466955 -0.021083 0.052691
-0.466955 0.035692 0.076774
-0.466955 -0.060678 0.002111
-0.466955 -0.017943 0.002823
-0.466955 -0.093769 -0.030727
-0.466955 0.014935 0.023717
-0.466955 -0.023344 0.010096
-0.466955 0.053061 0.067171
-0.466955 -0.076811 0.052046
-0.466955 0.066714 -0.025440
-0.466955 -0.000073 0.049883
-0.466955 0.003511 0.010903
-0.466955 0.037915 0.078054
-0.466955 -0.045501 -0.026952
-0.466955 -0.006790 -0.058806
-0.466955 0.078339 -0.039589
-0.466955 0.040908 -0.057910
-0.466955 0.081811 0.024150
-0.466955 0.070184 -0.052537
-0.466955 -0.097418 0.017142
-0.466955 0.027050 0.077601
-0.466955 0.086562 0.019446
-0.466955 0.059793 0.004022
-0.466955 -0.025390 -0.094538
-0.466955 -0.067514 0.014580
-0.466955 -0.021599 -0.096150
-0.466955 -0.036821 -0.082514
-0.466955 -0.074777 -0.064518
-0.466955 0.097257 -0.009782
-0.466955 -0.022870 0.044284
-0.466955 -0.043021 -0.046965
-0.466955 0.071910 -0.045973
-0.466955 0.083412 -0.009399
-0.466955 -0.050109 0.041565
-0.466955 0.017733 0.098417
-0.466955 0.006330 0.060711
-0.466955 -0.089278 0.024101
-0.466955 -0.094915 0.011731
-0.466955 -0.087891 -0.043521
-0.466955 0.046381 -0.011719
-0.466955 -0.025907 0.054545
-0.466955 0.071774 0.064275
-0.466955 -0.053950 -0.065014
-0.466955 0.060966 0.071573
-0.466955 -0.064756 0.023233
-0.466955 0.004939 0.087797
-0.466955 0.035286 0.023758
-0.466955 -0.041966 -0.079333
-0.466955 0.054410 -0.015082
-0.466955 0.016264 -0.096207
-0.466955 0.031440 -0.084139
-0.466955 -0.025032 0.001020
-0.466955 0.024194 0.069400
-0.466955 0.012685 -0.024173
-0.466955 0.022490 0.012216
-0.466955 0.025628 -0.039425
-0.466955 -0.008231 -0.043889
-0.466955 -0.004945 0.083619
-0.466955 -0.046524 0.077219
-0.466955 -0.027772 -0.093818
-0.466955 0.097248 0.016245
-0.466955 0.004333 -0.023598
-0.466955 0.091391 0.001322
-0.466955 -0.048129 0.051140
-0.466955 -0.024384 -0.054828
-0.466955 0.092993 -0.022940
-0.466955 -0.058988 0.007673
-0.466955 -0.004470 0.048932
-0.466955 0.040335 0.008644
-0.466955 -0.089497 -0.029395
-0.466955 0.011583 0.088992
-0.466955 -0.050602 0.055339
-0.466955 0.028483 0.048516
-0.466955 0.044610 0.008917
-0.466955 0.053555 -0.061974
-0.466955 -0.036606 -0.034692
-0.466955 0.039171 0.062072
-0.466955 0.044278 0.055373
-0.466955 0.054609 -0.031277
-0.466955 0.072848 -0.064992
-0.466955 -0.057183 0.000361
-0.466955 0.051950 -0.060257
-0.466955 0.097999 -0.018913
-0.466955 -0.016805 -0.007996
-0.466955 0.082027 -0.055471
-0.466955 0.017674 -0.015505
-0.466955 -0.013288 -0.051300
-0.466955 0.011339 0.025716
-0.466955 0.067702 -0.040602
-0.466955 -0.052434 -0.022470
-0.466955 -0.031032 -0.060450
-0.466955 0.004672 0.069244
-0.466955 0.022151 -0.005958
-0.466955 -0.020225 0.038664
-0.466955 -0.015763 -0.073381
-0.466955 -0.086499 0.040952
-0.466955 -0.016409 -0.021623
-0.466955 -0.000759 0.083072
-0.466955 0.037433 0.008687
-0.466955 -0.067318 -0.019191
-0.466955 -0.052824 -0.007617
-0.466955 -0.027709 0.016766
-0.466955 -0.010605 -0.095269
-0.466955 -0.007928 0.062933
-0.466955 -0.016963 0.036432
-0.466955 0.046686 0.066428
-0.466955 0.011028 -0.025327
-0.466955 -0.065019 0.017264
-0.466955 -0.042385 0.011290
-0.466955 -0.030944 0.067457
-0.466955 0.048879 -0.053522
-0.466955 -0.083297 -0.040157
-0.466955 0.088584 0.010307
-0.466955 0.003493 -0.014079
-0.466955 -0.030176 -0.051575
-0.466955 0.019947 -0.067246
-0.466955 -0.071123 0.066173
-0.466955 0.083697 -0.031461
-0.466955 -0.042627 -0.055646
-0.466955 0.021293 -0.001591
-0.466955 -0.009871 -0.090611
-0.466955 0.052766 -0.082798
-0.466955 0.033283 -0.041647
-0.466955 -0.096032 -0.013018
-0.466955 -0.008617 0.070040
-0.466955 0.042742 -0.057235
-0.466955 -0.070767 0.060650
-0.466955 -0.062106 0.005233
-0.466955 -0.074760 0.032103
-0.466955 -0.036966 0.023831
-0.466955 0.040327 0.010341
-0.466955 0.045400 0.002024
-0.466955 -0.052998 -0.031814
-0.466955 0.052838 -0.030016
-0.466955 0.054932 -0.071073
-0.466955 -0.017242 0.070121
-0.466955 0.015869 0.057273
-0.466955 0.016231 -0.070384
-0.466955 -0.009462 -0.046209
-0.466955 -0.050753 0.078681
-0.466955 -0.003516 0.045019
-0.466955 0.018128 0.097119
-0.466955 0.057262 0.050659
-0.466955 -0.028601 -0.021376
-0.466955 0.037896 0.092200
-0.466955 -0.074532 0.065906
-0.466955 0.036143 0.041063
-0.466955 -0.027031 0.020690
-0.466955 -0.040265 0.014986
-0.466955 -0.043231 0.006935
-0.466955 0.051497 -0.081420
-0.466955 0.022670 -0.037757
-0.466955 -0.047250 0.083424
-0.466955 -0.087943 0.040277
-0.466955 -0.003467 0.096009
-0.466955 0.039630 0.024822
-0.466955 0.015258 -0.036573
-0.466955 0.052384 0.079879
-0.466955 0.071695 0.021018
-0.466955 -0.063210 0.012147
-0.466955 -0.048099 -0.073502
-0.466955 -0.009723 -0.055313
-0.466955 -0.035731 -0.027797
-0.466955 -0.082013 -0.040975
-0.466955 0.047857 0.020411
-0.466955 -0.001824 0.085449
-0.466955 0.016080 0.016680
-0.466955 -0.002856 -0.042539
-0.466955 -0.057726 -0.054869
-0.466955 -0.030595 -0.041253
-0.466955 -0.018292 0.049097
-0.466955 0.041650 0.025282
-0.466955 0.009749 -0.000271
-0.466955 -0.017760 0.079734
-0.466955 0.069547 0.059091
-0.466955 0.041277 0.089073
-0.466955 0.000864 -0.020158
-0.466955 0.023774 0.009278
-0.466955 0.043465 0.050226
-0.466955 0.072918 -0.000453
-0.466955 0.018160 -0.072631
-0.466955 0.035733 -0.003606
-0.466955 -0.065341 0.052373
-0.466955 -0.036607 0.061349
-0.466955 0.068640 0.021690
-0.466955 -0.028139 -0.072684
-0.466955 0.026990 -0.044356
-0.466955 0.079732 0.015143
-0.466955 0.095110 0.029518
-0.466955 0.022232 -0.092942
-0.466955 -0.067458 0.026874
-0.466955 0.026246 -0.073106
-0.466955 -0.048118 0.042838
-0.466955 -0.023680 -0.043363
-0.466955 0.031970 -0.068960
-0.466955 -0.078863 -0.033201
-0.466955 0.059626 0.028286
-0.466955 0.020924 0.026638
-0.466955 0.072951 -0.028831
-0.466955 0.019279 -0.052383
-0.466955 -0.018071 0.028897
-0.466955 0.094306 0.006732
-0.466955 0.023186 0.092749
-0.466955 -0.003229 0.093606
-0.466955 -0.064007 0.028207
-0.466955 -0.068896 -0.036882
-0.466955 0.043470 0.080174
-0.466955 0.001513 -0.098663
-0.466955 -0.021403 0.090286
-0.466955 0.015644 -0.004231
-0.466955 0.009604 0.059770
-0.466955 -0.046911 -0.048641
-0.466955 -0.040714 0.023453
-0.466955 -0.061078 -0.018521
-0.466955 -0.073269 0.032369
-0.466955 0.093407 -0.034640
-0.466955 0.043990 -0.027024
-0.466955 -0.059513 0.074177
-0.466955 -0.096957 0.021169
-0.466955 0.022497 -0.004568
-0.466955 0.071538 0.049564
-0.466955 0.006507 0.066152
-0.466955 0.070519 -0.016540
-0.466955 0.083347 0.003536
-0.466955 -0.077203 0.010621
-0.466955 0.024487 -0.033935
-0.466955 0.007676 0.070516
-0.466955 0.006586 -0.083711
-0.466955 -0.034176 -0.083943
-0.466955 -0.058267 -0.041057
-0.466955 -0.082291 -0.048060
-0.466955 0.076374 -0.015774
-0.466955 0.061539 0.019425
-0.466955 -0.000538 0.040038
-0.466955 -0.027672 0.011611
-0.466955 -0.027458 0.062973
-0.466955 -0.039539 0.020750
-0.466955 0.089402 0.018746
-0.466955 0.037096 0.030522
-0.466955 0.023463 0.086718
-0.466955 0.017421 -0.062634
-0.466955 -0.001623 -0.076106
-0.466955 0.066318 -0.029782
-0.466955 -0.034802 0.060328
-0.466955 0.062094 -0.009130
-0.466955 -0.036977 0.041201
-0.466955 0.004994 0.064459
-0.466955 0.086899 0.041115
-0.466955 0.059414 0.073479
-0.466955 0.043285 -0.008356
-0.466955 0.090975 -0.015690
-0.466955 0.085728 0.044227
-0.466955 0.035956 -0.066155
-0.466955 0.028541 -0.043456
-0.466955 0.042443 -0.034200
-0.466955 -0.008614 0.078733
-0.466955 0.003808 -0.085359
-0.466955 -0.059562 0.014179
-0.466955 0.032817 -0.035680
-0.466955 0.039319 -0.025618
-0.466955 0.015500 0.081794
-0.466955 0.030996 0.061552
-0.466955 -0.067309 -0.013723
-0.466955 -0.097857 -0.016429
-0.466955 0.057805 0.038404
-0.466955 -0.002895 -0.037785
-0.466955 -0.079301 0.009959
-0.466955 0.012788 -0.015343
-0.466955 0.043816 0.004051
-0.466955 -0.082220 -0.025253
-0.466955 0.081709 -0.007751
-0.466955 0.014001 0.022639
-0.466955 0.014289 -0.090473
-0.466955 -0.047788 -0.068552
-0.466955 -0.086628 -0.004684
-0.466955 0.095791 -0.019487
-0.466955 -0.051329 -0.078563
-0.466955 0.056275 0.047529
-0.466955 0.092827 0.015014
-0.466955 -0.085994 0.033456
-0.466955 0.049267 -0.048549
-0.466955 -0.051194 -0.006715
-0.466955 -0.005359 0.003731
-0.466955 0.009318 -0.079037
-0.466955 -0.083874 0.031886
-0.466955 0.029261 0.000210
-0.466955 -0.019010 -0.073478
-0.466955 0.053533 -0.045496
-0.466955 -0.068671 0.000849
-0.466955 -0.071108 -0.048955
-0.466955 -0.004864 0.051905
-0.466955 -0.048378 0.015266
-0.466955 -0.081322 -0.021524
-0.466955 -0.054692 -0.027973
-0.466955 0.084995 0.014560
-0.466955 -0.003750 0.004816
-0.466955 -0.008738 0.003818
-0.466955 -0.008252 -0.013652
-0.466955 0.084210 0.000613
-0.466955 0.019616 -0.082526
-0.466955 -0.038282 0.041937
-0.466955 0.041574 0.083745
-0.466955 -0.042149 -0.048861
-0.466955 0.031185 0.076759
-0.466955 0.018970 0.068660
-0.466955 0.013990 0.072595
-0.466955 0.034953 -0.000607
-0.466955 -0.085498 0.004323
-0.466955 0.065580 -0.037606
-0.466955 0.036456 -0.086030
-0.466955 -0.014490 -0.021010
-0.466955 -0.035576 0.040987
-0.466955 -0.025483 0.018688
-0.466955 0.004949 -0.016989
-0.466955 -0.022797 0.015104
-0.466955 -0.029170 0.040047
-0.466955 0.012282 0.033855
-0.466955 -0.058725 -0.014276
-0.466955 0.039782 -0.078217
-0.466955 0.010310 -0.017048
-0.466955 -0.003503 -0.048157
-0.466955 -0.000139 0.033841
-0.466955 0.032616 -0.011116
-0.466955 -0.002705 -0.079376
-0.466955 -0.035728 0.036531
-0.466955 0.033055 0.042006
-0.466955 0.003276 -0.099180
-0.466955 0.013374 -0.004961
-0.466955 0.064400 0.021017
-0.466955 0.086607 -0.024614
-0.466955 -0.055014 0.081495
-0.466955 -0.046115 -0.058587
-0.466955 0.004847 0.084867
-0.466955 0.035210 -0.044495
-0.466955 -0.008990 0.064055
-0.466955 0.038214 -0.037205
-0.466955 0.013067 -0.013883
-0.466955 0.044901 -0.013697
-0.466955 -0.001458 0.063649
-0.466955 -0.030054 0.003890
-0.466955 0.005328 -0.058388
-0.466955 -0.020691 0.032431
-0.466955 0.020015 -0.053636
-0.466955 -0.010663 -0.028079
-0.466955 0.001287 -0.050851
-0.466955 0.000939 -0.061454
-0.466955 0.086763 0.004492
-0.466955 0.069370 0.038652
-0.466955 0.034688 -0.079924
-0.466955 0.060365 -0.046298
-0.466955 0.008387 -0.009843
-0.466955 0.087164 -0.008541
-0.466955 0.097040 0.014452
-0.466955 -0.096254 0.025399
-0.466955 0.067897 0.010080
-0.466955 -0.040725 0.061215
-0.466955 -0.034961 0.068497
-0.466955 0.059841 0.044968
-0.466955 -0.040188 0.002005
-0.466955 -0.047681 -0.087093
-0.466955 0.057504 0.060606
-0.466955 -0.011974 0.085669
-0.466955 -0.068320 -0.029689
-0.466955 0.043695 0.027715
-0.466955 -0.062866 -0.030989
-0.466955 -0.054802 0.052600
-0.466955 -0.000425 0.075520
-0.466955 -0.077406 -0.056581
-0.466955 0.072531 -0.059209
-0.466955 0.076673 -0.045002
-0.466955 -0.061482 -0.006678
-0.466955 -0.094834 -0.004775
-0.466955 0.035935 -0.013072
-0.466955 0.017264 0.009271
-0.466955 0.088138 0.004060
-0.466955 0.046214 -0.073444
-0.466955 0.045178 -0.070046
-0.466955 0.050837 -0.025143
-0.466955 0.059081 0.033221
-0.466955 0.016690 0.023354
-0.466955 0.045814 0.015740
-0.466955 0.013858 -0.008243
-0.466955 -0.072232 -0.026549
-0.466955 -0.028073 0.028148
-0.466955 0.052072 -0.044192
-0.466955 -0.026918 -0.088498
-0.466955 -0.066384 -0.026984
-0.466955 0.063802 0.071175
-0.466955 0.017860 0.057555
-0.466955 0.049105 0.080907
-0.466955 0.007870 -0.079727
-0.466955 0.020695 -0.019020
-0.466955 0.066909 0.068309
-0.466955 -0.052529 -0.062799
-0.466955 0.001544 -0.029551
-0.466955 -0.081705 -0.004079
-0.466955 0.066883 -0.020547
-0.466955 -0.035701 0.085061
-0.466955 0.012963 -0.065097
-0.466955 -0.076713 -0.028228
-0.466955 -0.044650 -0.055401
-0.466955 -0.028677 -0.081252
-0.466955 -0.051204 0.036838
-0.466955 0.029779 0.027143
-0.466955 -0.027136 0.018649
-0.466955 0.048320 -0.004680
-0.466955 0.060577 0.040781
-0.466955 0.033246 -0.063369
-0.466955 -0.039935 0.045161
-0.466955 0.041188 -0.077514
-0.466955 0.009572 0.049565
-0.466955 0.044730 0.061983
-0.466955 0.089698 -0.023922
-0.466955 0.002483 0.024118
-0.466955 0.042457 -0.078718
-0.466955 -0.061566 -0.075489
-0.466955 -0.060153 -0.043008
-0.466955 0.008623 -0.026060
-0.466955 -0.026193 0.030832
-0.466955 -0.050829 -0.021151
-0.466955 0.002382 0.014717
-0.466955 0.000899 0.077970
-0.466955 -0.066732 -0.071798
-0.466955 -0.075081 -0.059578
-0.466955 0.094107 -0.004915
-0.466955 0.023699 -0.029167
-0.466955 0.027786 0.024826
-0.466955 -0.019510 0.094079
-0.466955 -0.021796 0.076856
-0.466955 0.027489 0.091287
-0.466955 0.079897 -0.036226
-0.466955 0.002054 -0.077566
-0.466955 0.080574 -0.006060
-0.466955 -0.063912 0.072575
-0.466955 -0.006730 0.010840
-0.466955 -0.074722 -0.043997
-0.466955 0.039916 0.020124
-0.466955 -0.076066 0.019947
-0.466955 -0.029043 0.071458
-0.466955 0.021865 -0.064073
-0.466955 0.011966 -0.094712
-0.466955 -0.046462 -0.050174
-0.466955 0.018727 -0.001704
-0.466955 0.008134 -0.014928
-0.466955 0.001082 0.003855
-0.466955 0.021669 -0.042879
-0.466955 -0.010136 0.093757
-0.466955 0.000792 0.036945
-0.466955 0.022062 -0.025814
-0.466955 -0.002420 -0.053270
-0.466955 0.038886 -0.030384
-0.466955 0.004851 -0.036478
-0.466955 0.005772 -0.052767
-0.466955 -0.044807 0.031563
-0.466955 0.079302 0.012481
-0.466955 0.087703 -0.028588
-0.466955 -0.055285 -0.020316
-0.466955 0.010076 0.095488
-0.466955 0.029524 0.062379
-0.466955 -0.077928 -0.024051
-0.466955 -0.072143 -0.065885
-0.466955 -0.038921 0.004476
-0.466955 -0.068866 -0.024412
-0.466955 -0.016523 0.017883
-0.466955 0.023746 -0.091538
-0.466955 0.028356 0.061396
-0.466955 0.084959 -0.008875
-0.466955 0.054656 0.000612
-0.466955 0.012456 0.013761
-0.466955 -0.006120 0.092978
-0.466955 0.002906 -0.059333
-0.466955 -0.059055 0.076042
-0.466955 -0.054205 -0.079691
-0.466955 0.017249 -0.048662
-0.466955 0.081650 0.051401
-0.466955 -0.050349 0.048607
-0.466955 0.021593 0.018141
-0.466955 0.028402 -0.006036
-0.466955 0.012287 -0.007612
-0.466955 -0.033367 0.057416
-0.466955 -0.049714 0.011470
-0.466955 0.024812 0.045354
-0.466955 -0.079756 0.051357
-0.466955 0.070397 0.003093
-0.466955 -0.049645 0.003865
-0.466955 -0.013693 0.057366
-0.466955 0.012909 -0.066624
-0.466955 0.068194 0.051518
-0.466955 -0.048723 -0.001759
-0.466955 0.026663 -0.008610
-0.466955 0.035422 -0.008113
-0.466955 0.004855 0.046567
-0.466955 -0.031640 0.086973
-0.466955 -0.025516 0.065816
-0.466955 0.091854 -0.007871
-0.466955 0.026929 -0.005487
-0.466955 0.021974 0.010550
-0.466955 -0.055238 0.076013
-0.466955 0.093410 -0.011865
-0.466955 -0.014628 0.056302
-0.466955 -0.048131 -0.061813
-0.466955 0.047176 -0.001349
-0.466955 -0.044938 -0.022351
-0.466955 0.084885 0.049662
-0.466955 0.042242 0.045476
-0.466955 -0.071273 -0.069207
