0.465339 0.028610 0.012386
0.465339 -0.044642 0.081091
0.465339 -0.061191 -0.017848
0.465339 0.074814 -0.028942
0.465339 -0.034648 -0.013253
0.465339 -0.061357 0.017040
0.465339 0.017770 0.035938
0.465339 0.012551 -0.036301
0.465339 -0.024564 0.034585
0.465339 0.066131 0.056561
0.465339 0.029111 -0.080756
0.465339 0.026895 0.047826
0.465339 -0.036298 0.047846
0.465339 -0.082767 0.055454
0.465339 -0.013778 -0.033707
0.465339 0.081678 -0.012106
0.465339 0.001943 0.013055
0.465339 0.024101 0.012644
0.465339 0.070579 0.058632
0.465339 0.096361 -0.025590
0.465339 -0.061744 -0.030298
0.465339 -0.023284 0.062965
0.465339 -0.069340 0.002485
0.465339 0.068722 0.066646
0.465339 0.018726 0.019112
0.465339 -0.002160 -0.074123
0.465339 -0.084083 0.039560
0.465339 0.039295 0.038995
0.465339 0.064303 -0.075040
0.465339 0.071503 0.051965
0.465339 -0.001551 0.047581
0.465339 -0.082301 -0.055571
0.465339 -0.034639 -0.030517
0.465339 -0.029260 -0.057224
0.465339 -0.070864 0.043353
0.465339 -0.024721 0.078041
0.465339 0.079276 -0.041044
0.465339 0.054478 -0.040379
0.465339 0.018081 0.056375
0.465339 -0.033129 -0.012383
0.465339 0.001237 -0.012971
0.465339 0.050345 0.010397
0.465339 0.049477 0.052609
0.465339 -0.031863 -0.024638
0.465339 -0.077158 0.059829
0.465339 -0.062869 0.035802
0.465339 0.004837 -0.076662
0.465339 -0.088010 0.013424
0.465339 0.030504 0.001330
0.465339 0.042681 -0.054299
0.465339 0.005863 0.079050
0.465339 -0.072461 0.040405
0.465339 0.072590 -0.050385
0.465339 0.019982 -0.041276
0.465339 0.074718 -0.035962
0.465339 0.088326 -0.000244
0.465339 -0.035136 -0.033670
0.465339 -0.072567 -0.054422
0.465339 -0.002907 -0.014083
0.465339 -0.089388 0.002289
0.465339 0.054492 -0.075851
0.465339 -0.055277 -0.022016
0.465339 0.009240 -0.060877
0.465339 -0.074421 0.061363
0.465339 0.039182 -0.088757
0.465339 0.000332 0.076264
0.465339 -0.063732 -0.032372
0.465339 0.030622 -0.048995
0.465339 -0.079918 0.058198
0.465339 -0.024941 0.022043
0.465339 0.043421 -0.080602
0.465339 -0.076732 -0.060652
0.465339 0.027753 -0.058624
0.465339 -0.059834 -0.005095
0.465339 -0.081790 -0.002307
0.465339 -0.057390 0.076193
0.465339 0.000724 0.017012
0.465339 -0.038172 0.016101
0.465339 -0.093773 -0.026706
0.465339 -0.081840 0.006611
0.465339 -0.098729 -0.013901
0.465339 0.030600 0.077355
0.465339 0.014959 -0.025398
0.465339 -0.068188 0.007948
0.465339 0.039219 -0.081184
0.465339 -0.042351 0.075711
0.465339 -0.082646 -0.051522
0.465339 0.020133 0.051602
0.465339 -0.035169 0.046930
0.465339 -0.043076 0.006418
0.465339 0.032604 -0.003250
0.465339 -0.044336 -0.084709
0.465339 0.007124 0.053468
0.465339 0.086406 -0.045022
0.465339 0.025241 -0.054910
0.465339 0.089539 0.013983
0.465339 0.070088 -0.029904
0.465339 0.007083 -0.060299
0.465339 -0.012615 -0.067471
0.465339 0.052060 -0.048348
0.465339 0.070834 0.064072
0.465339 -0.045774 -0.050524
0.465339 -0.014077 -0.030323
0.465339 -0.088470 0.023779
0.465339 0.019647 0.053255
0.465339 -0.055133 0.009110
0.465339 0.010838 -0.079354
0.465339 -0.015119 -0.077473
0.465339 0.002324 0.002884
0.465339 -0.097302 0.008092
0.465339 -0.096354 0.001906
0.465339 0.055405 -0.065911
0.465339 0.030831 0.007605
0.465339 0.001003 0.068455
0.465339 0.015350 -0.080829
0.465339 -0.074142 -0.013246
0.465339 -0.022229 0.091419
0.465339 0.091687 -0.019019
0.465339 0.025669 0.015823
0.465339 0.017144 0.069969
0.465339 0.006761 -0.040621
0.465339 0.010634 0.093762
0.465339 0.002970 -0.008026
0.465339 -0.007910 -0.089495
0.465339 -0.073717 -0.010180
0.465339 -0.016908 0.035597
0.465339 0.020506 0.035012
0.465339 0.024872 0.053368
0.465339 0.068207 -0.066060
0.465339 -0.075741 0.058004
0.465339 -0.016027 -0.088881
0.465339 0.038925 -0.021202
0.465339 0.048756 -0.051555
0.465339 -0.089135 0.010364
0.465339 0.004836 0.000460
0.465339 -0.005287 0.007469
0.465339 0.084942 0.016363
0.465339 -0.058400 0.004564
0.465339 -0.014537 0.078964
0.465339 0.052245 -0.018109
0.465339 0.028960 0.042257
0.465339 0.014383 0.068515
0.465339 0.003128 0.011273
0.465339 0.070738 -0.014306
0.465339 0.027768 0.094535
0.465339 -0.067866 -0.055513
0.465339 0.073547 -0.034885
0.465339 -0.047692 -0.070480
0.465339 -0.007055 0.030031
0.465339 0.075973 0.055907
0.465339 -0.032106 0.050845
0.465339 -0.016971 0.029179
0.465339 -0.038296 0.079194
0.465339 0.070027 0.056502
0.465339 -0.087138 -0.048407
0.465339 -0.048961 -0.008681
0.465339 0.060808 -0.027833
0.465339 0.069941 0.051865
0.465339 0.093826 0.005137
0.465339 -0.078838 -0.010503
0.465339 0.061399 -0.024637
0.465339 -0.059987 0.025052
0.465339 0.050319 -0.008174
0.465339 -0.026774 0.067063
0.465339 -0.038042 -0.086583
0.465339 0.021618 0.085722
0.465339 -0.034712 -0.014878
0.465339 0.002947 -0.089471
0.465339 0.047541 0.006048
0.465339 -0.055714 -0.060077
0.465339 0.038469 0.058140
0.465339 -0.047138 -0.021177
0.465339 0.071086 -0.004589
0.465339 -0.015954 -0.037693
0.465339 -0.053544 -0.033147
0.465339 0.009445 0.078156
0.465339 0.068572 0.023353
0.465339 -0.049952 0.017332
0.465339 -0.055487 -0.009937
0.465339 -0.009299 0.011664
0.465339 -0.074590 -0.015589
0.465339 -0.035924 -0.074572
0.465339 -0.006008 0.040691
0.465339 0.059053 0.069831
0.465339 -0.060630 -0.025378
0.465339 0.019927 0.015351
0.465339 -0.020952 -0.096028
0.465339 -0.084787 0.020533
0.465339 0.063432 -0.000040
0.465339 0.031643 0.078570
0.465339 -0.072828 -0.001967
0.465339 0.080082 0.040821
0.465339 -0.022580 -0.023398
0.465339 -0.042890 -0.019310
0.465339 -0.007805 -0.087851
0.465339 -0.025420 -0.043997
0.465339 0.034837 -0.013292
0.465339 0.002834 -0.086288
0.465339 0.052962 -0.005267
0.465339 -0.013917 0.061393
0.465339 -0.062505 0.073663
0.465339 -0.009141 -0.086968
0.465339 0.012021 0.045831
0.465339 0.011904 -0.058524
0.465339 0.057327 0.037549
0.465339 -0.045025 -0.011339
0.465339 0.087903 0.029555
0.465339 -0.036146 0.004419
0.465339 -0.018035 0.065918
0.465339 -0.059548 0.007349
0.465339 -0.021444 -0.055607
0.465339 -0.023177 0.009371
0.465339 0.034043 -0.066621
0.465339 0.010668 -0.022539
0.465339 -0.018264 -0.012832
0.465339 -0.065594 -0.043160
0.465339 -0.019741 0.035609
0.465339 0.047498 0.020157
0.465339 -0.029839 -0.025449
0.465339 -0.030107 -0.066800
0.465339 0.062114 -0.040522
0.465339 -0.040900 0.013258
0.465339 0.047346 0.067230
0.465339 0.005618 0.044937
0.465339 0.011237 0.087927
0.465339 0.017662 0.083492
0.465339 -0.053608 -0.005221
0.465339 -0.056599 0.024913
0.465339 0.047094 0.026677
0.465339 -0.027041 0.050897
0.465339 -0.087023 -0.019786
0.465339 -0.042531 0.078801
0.465339 -0.047955 -0.031560
0.465339 0.053188 0.040954
0.465339 -0.001158 -0.087239
0.465339 0.053118 0.036863
0.465339 -0.061119 0.009204
0.465339 -0.084512 0.007850
0.465339 0.049476 0.020057
0.465339 -0.017648 -0.021802
0.465339 0.058312 0.043468
0.465339 0.073990 -0.019973
0.465339 -0.002096 -0.039157
0.465339 -0.060131 0.065030
0.465339 -0.029542 0.037853
0.465339 -0.052185 0.042876
0.465339 0.049512 -0.044258
0.465339 0.080977 0.044831
0.465339 -0.045190 0.037920
0.465339 0.002049 -0.075429
0.465339 -0.035626 -0.062721
0.465339 -0.058182 0.024172
0.465339 -0.013568 0.007164
0.465339 0.038014 -0.046458
0.465339 0.004060 0.058326
0.465339 -0.038278 0.074850
0.465339 0.076696 0.032588
0.465339 0.090505 -0.012143
0.465339 -0.079547 0.021484
0.465339 0.023188 -0.014052
0.465339 -0.089611 -0.039346
0.465339 -0.025615 0.048039
0.465339 0.022874 -0.008359
0.465339 -0.091479 0.014072
0.465339 -0.005679 -0.032150
0.465339 -0.086976 -0.010547
0.465339 0.019907 -0.031535
0.465339 0.001280 0.080086
0.465339 0.063413 0.065970
0.465339 -0.084636 0.036493
0.465339 -0.096538 -0.009690
0.465339 0.088261 0.014933
0.465339 0.013575 0.063602
0.465339 0.017789 -0.083557
0.465339 0.016679 0.004223
0.465339 -0.002532 0.028659
0.465339 0.036144 0.071718
0.465339 -0.097456 -0.020673
0.465339 0.030635 -0.000716
0.465339 0.093058 0.025450
0.465339 0.039910 0.014310
0.465339 0.020828 0.016421
0.465339 -0.052456 -0.063957
0.465339 -0.048625 0.075470
0.465339 -0.030546 -0.034292
0.465339 0.065703 0.041152
0.465339 -0.076074 0.043427
0.465339 -0.097490 -0.018788
0.465339 -0.009135 0.044474
0.465339 -0.024310 0.040813
0.465339 -0.013901 -0.073816
0.465339 0.034053 0.074814
0.465339 0.029128 0.060653
0.465339 0.040807 0.054271
0.465339 0.056863 0.022618
0.465339 -0.022797 0.021224
0.465339 -0.056429 -0.034631
0.465339 0.063344 0.016563
0.465339 0.021685 0.046190
0.465339 -0.004376 0.032182
0.465339 0.011116 0.026067
0.465339 0.035618 0.050751
0.465339 -0.001798 -0.022881
0.465339 -0.057791 0.080060
0.465339 0.060591 -0.032629
0.465339 -0.034964 0.067709
0.465339 0.016226 -0.074185
0.465339 -0.009529 -0.095750
0.465339 -0.017334 -0.027040
0.465339 0.061541 0.049774
0.465339 0.005376 -0.011039
0.465339 -0.059800 0.028800
0.465339 0.080251 0.006211
0.465339 -0.026903 -0.008179
0.465339 -0.087938 0.000967
0.465339 -0.058592 0.042747
0.465339 0.035286 -0.050205
0.465339 -0.079443 -0.038003
0.465339 -0.015669 -0.025783
0.465339 0.047280 0.031219
0.465339 0.039001 -0.034802
0.465339 -0.035029 0.041817
0.465339 -0.010177 0.021775
0.465339 -0.089036 0.008913
0.465339 -0.011787 0.082671
0.465339 -0.034909 0.079574
0.465339 0.062143 0.009334
0.465339 0.047560 -0.039940
0.465339 0.031977 -0.050979
0.465339 0.002244 0.040552
0.465339 -0.082432 0.045089
0.465339 -0.050032 -0.049292
0.465339 0.001474 0.097752
0.465339 -0.025834 -0.077635
0.465339 0.054532 -0.020281
0.465339 -0.073602 -0.027443
0.465339 0.001903 -0.010747
0.465339 0.008059 -0.094204
0.465339 0.096265 0.019396
0.465339 -0.068672 -0.071889
0.465339 -0.049660 0.054644
0.465339 0.064759 0.053228
0.465339 0.091065 -0.040783
0.465339 -0.005654 -0.093969
0.465339 0.068092 0.058692
0.465339 0.057031 -0.057437
0.465339 -0.071696 0.037167
0.465339 -0.063921 -0.034005
0.465339 -0.009583 0.020059
0.465339 0.057880 0.070734
0.465339 0.025371 0.034690
0.465339 0.088190 -0.018692
0.465339 -0.051756 0.068925
0.465339 0.009376 0.041315
0.465339 0.023360 -0.093190
0.465339 -0.091906 0.015768
0.465339 0.024633 0.026414
0.465339 -0.060484 -0.035689
0.465339 0.032775 -0.055592
0.465339 0.074893 -0.062526
0.465339 0.039726 -0.048102
0.465339 0.072229 0.062825
0.465339 -0.030710 -0.086862
0.465339 0.003799 0.085180
0.465339 0.001882 -0.052322
0.465339 0.043240 0.006893
0.465339 -0.044052 -0.036813
0.465339 -0.059566 -0.079844
0.465339 0.034589 0.018524
0.465339 -0.009427 0.039556
0.465339 0.067451 0.073358
0.465339 0.001027 0.025221
0.465339 -0.057744 -0.029809
0.465339 0.021853 0.049397
0.465339 0.050501 0.045691
0.465339 -0.046939 0.065241
0.465339 -0.033457 0.028286
0.465339 -0.021014 -0.010948
0.465339 -0.084168 0.023499
0.465339 -0.042915 -0.003249
0.465339 0.009195 -0.045855
0.465339 0.071674 0.026042
0.465339 -0.018278 0.024124
0.465339 0.092307 -0.028605
0.465339 -0.017279 -0.083806
0.465339 -0.079277 -0.052265
0.465339 -0.092317 -0.010445
0.465339 -0.066364 0.048298
0.465339 0.025349 0.028079
0.465339 -0.033574 -0.085063
0.465339 -0.005464 -0.039869
0.465339 -0.016204 -0.054405
0.465339 -0.032758 -0.070895
0.465339 -0.090887 -0.034619
0.465339 0.083202 -0.037060
0.465339 -0.024044 0.012092
0.465339 -0.078115 0.026937
0.465339 0.080975 -0.050596
0.465339 0.010217 0.079399
0.465339 -0.082664 -0.041929
0.465339 0.081463 0.028178
0.465339 -0.045797 0.030751
0.465339 -0.052615 0.064971
0.465339 -0.005493 -0.004680
0.465339 -0.064372 -0.059165
0.465339 -0.029144 -0.022671
0.465339 0.052612 -0.039950
0.465339 0.028232 0.014134
0.465339 -0.094034 0.010753
0.465339 -0.092050 0.019856
0.465339 -0.025128 -0.020016
0.465339 0.014376 -0.000850
0.465339 0.012694 0.052167
0.465339 0.066169 0.054096
0.465339 -0.011114 0.003681
0.465339 -0.008730 0.016940
0.465339 -0.043139 -0.058685
0.465339 0.009779 0.074576
0.465339 -0.036851 0.020488
0.465339 -0.055491 -0.080575
0.465339 0.059316 -0.030091
0.465339 -0.012822 -0.019913
0.465339 -0.013081 0.012051
0.465339 0.007350 -0.045005
0.465339 0.061868 0.038628
0.465339 0.061919 -0.000288
0.465339 0.022177 -0.038788
0.465339 -0.004583 0.040766
0.465339 0.012268 -0.081837
0.465339 0.007703 0.041329
0.465339 -0.000731 -0.072837
0.465339 -0.023587 0.045885
0.465339 -0.046408 0.022030
0.465339 0.007691 0.027608
0.465339 0.017377 -0.014273
0.465339 -0.002373 0.070297
0.465339 -0.048734 0.072744
0.465339 0.078043 0.009968
0.465339 -0.003557 0.099001
0.465339 -0.030850 -0.057643
0.465339 -0.017076 -0.038730
0.465339 -0.007045 -0.008276
0.465339 -0.031918 -0.043311
0.465339 -0.028704 0.017099
0.465339 0.062115 -0.054242
0.465339 0.006934 0.030805
0.465339 0.006159 -0.031579
0.465339 -0.010223 0.035374
0.465339 -0.022874 -0.031713
0.465339 -0.005072 -0.060987
0.465339 0.000001 -0.015016
0.465339 -0.075123 0.038292
0.465339 0.007307 0.088749
0.465339 -0.056753 0.060953
0.465339 -0.086995 -0.032812
0.465339 0.052266 -0.045806
0.465339 0.043826 0.066877
0.465339 -0.060614 0.054504
0.465339 -0.033388 0.039168
0.465339 0.051031 0.053277
0.465339 -0.059028 -0.030372
0.465339 -0.071893 0.033033
0.465339 0.012400 0.062589
0.465339 0.003009 -0.071968
0.465339 -0.029134 -0.071336
0.465339 0.000203 -0.039713
0.465339 0.076565 0.047135
0.465339 -0.093613 0.020930
0.465339 -0.064106 -0.029402
0.465339 -0.082190 -0.038169
0.465339 -0.031360 -0.051286
0.465339 -0.034542 0.026911
0.465339 -0.005823 -0.030056
0.465339 -0.029831 0.029388
0.465339 0.008272 -0.025683
0.465339 -0.050717 -0.044978
0.465339 0.020858 0.011422
0.465339 0.066599 0.047615
0.465339 -0.092207 -0.016869
0.465339 -0.001341 -0.040717
0.465339 0.040317 -0.024290
0.465339 0.016643 0.007124
0.465339 -0.014424 -0.001184
0.465339 0.085545 0.037751
0.465339 0.016608 -0.020771
0.465339 0.059850 0.068556
0.465339 0.080372 0.007778
0.465339 0.086462 0.018514
0.465339 -0.093369 0.016068
0.465339 -0.020227 -0.075370
0.465339 -0.040553 0.002667
0.465339 -0.060013 -0.051969
0.465339 -0.084085 0.052911
0.465339 0.011726 -0.093477
0.465339 0.059635 -0.059217
0.465339 -0.038061 0.007512
0.465339 0.014491 -0.036192
0.465339 0.091167 0.024629
0.465339 -0.011241 0.023339
0.465339 -0.099358 -0.003420
0.465339 -0.060379 -0.059640
0.465339 -0.053539 -0.022569
0.465339 0.008184 -0.018201
0.465339 0.075564 0.033831
0.465339 0.045915 -0.063105
0.465339 -0.002028 0.041302
0.465339 -0.004257 -0.035481
0.465339 -0.094194 0.005017
0.465339 -0.099441 -0.000700
0.465339 0.051436 -0.068399
0.465339 -0.085773 0.032325
0.465339 -0.043193 0.008010
0.465339 0.007319 -0.039182
0.465339 -0.013442 -0.035713
0.465339 0.071326 0.005965
0.465339 -0.057153 -0.077160
0.465339 -0.087142 0.002686
0.465339 0.074659 0.056848
0.465339 0.000509 0.012550
0.465339 -0.030494 0.000011
0.465339 0.037393 -0.060448
0.465339 0.082202 0.017344
0.465339 -0.061549 0.003735
0.465339 0.005561 -0.030342
0.465339 0.087342 -0.024105
0.465339 -0.063335 -0.051115
0.465339 0.010280 -0.092508
0.465339 0.027195 0.034447
0.465339 0.008547 0.096350
0.465339 0.064445 -0.004304
0.465339 -0.089471 0.005119
0.465339 0.031620 0.019036
0.465339 -0.076679 -0.046460
0.465339 0.029496 0.009303
0.465339 -0.038735 0.087714
0.465339 -0.045864 -0.048345
0.465339 -0.016491 0.046033
0.465339 0.000589 0.088788
0.465339 0.004508 -0.007271
0.465339 0.073234 -0.028972
0.465339 -0.051107 -0.000102
0.465339 0.082876 -0.032931
0.465339 0.060982 0.030371
0.465339 -0.016749 -0.073774
0.465339 0.006498 0.007269
0.465339 0.059019 -0.072492
0.465339 -0.000304 0.054423
0.465339 -0.053228 0.032194
0.465339 -0.052486 0.076886
0.465339 0.023075 0.061725
0.465339 -0.070522 0.007226
0.465339 0.045115 0.078892
0.465339 -0.026902 -0.093983
0.465339 -0.044246 0.003846
0.465339 -0.042647 0.012378
0.465339 -0.076384 -0.015206
0.465339 0.056441 -0.029739
0.465339 -0.010738 -0.080206
0.465339 0.009141 -0.096029
0.465339 0.034602 0.086649
0.465339 -0.088055 -0.024793
0.465339 -0.089532 0.040480
0.465339 -0.084374 0.010654
0.465339 -0.069123 -0.014802
0.465339 0.021233 0.004928
0.465339 -0.001273 0.057774
0.465339 -0.008516 0.046348
0.465339 0.000159 -0.093956
0.465339 -0.048118 0.002937
0.465339 -0.076590 -0.007332
0.465339 0.029695 0.028078
0.465339 -0.030902 0.064139
0.465339 0.023014 0.003610
0.465339 -0.029535 0.043096
0.465339 0.014117 -0.027895
0.465339 0.081424 -0.057268
0.465339 -0.092379 -0.015164
0.465339 0.063569 0.035648
0.465339 -0.034848 -0.024777
0.465339 0.056594 0.018057
0.465339 -0.037283 0.072560
0.465339 -0.039212 0.044068
0.465339 0.076024 -0.032282
0.465339 -0.058806 0.011780
0.465339 -0.028102 -0.075989
0.465339 -0.000015 -0.002154
0.465339 0.005914 -0.053216
0.465339 0.052793 0.060246
0.465339 0.098784 -0.013789
0.465339 0.069092 0.050350
0.465339 -0.077255 -0.005738
0.465339 0.042196 0.073633
0.465339 -0.043697 -0.060161
0.465339 0.041299 0.079947
0.465339 -0.057662 -0.070698
0.465339 -0.043959 -0.027287
0.465339 -0.057914 0.022401
0.465339 0.062651 -0.071181
0.465339 0.000097 -0.070081
0.465339 -0.040190 -0.002244
0.465339 -0.020165 0.086761
0.465339 -0.023401 -0.000436
0.465339 0.044243 0.071947
0.465339 0.078158 0.032275
0.465339 0.035952 0.065767
0.465339 -0.022434 0.046921
0.465339 0.083081 -0.027769
0.465339 0.004161 0.093222
0.465339 0.014220 0.025066
0.465339 0.019283 0.092749
0.465339 0.013058 -0.020959
0.465339 -0.052667 0.058548
0.465339 -0.010456 0.033902
0.465339 -0.039328 -0.085797
0.465339 -0.065026 -0.075124
0.465339 0.025622 0.011393
0.465339 -0.048338 0.036942
0.465339 0.042481 0.034126
0.465339 0.001258 0.049540
0.465339 -0.036342 0.054286
0.465339 0.096778 0.024352
0.465339 0.028040 0.059151
0.465339 -0.038777 -0.075030
0.465339 -0.030737 0.011932
0.465339 -0.031514 0.030749
0.465339 -0.038052 -0.044216
0.465339 -0.029632 0.065889
0.465339 0.034438 0.063385
0.465339 0.005439 -0.033044
0.465339 0.038063 -0.005103
0.465339 0.019855 -0.088792
0.465339 0.070117 0.038487
0.465339 -0.004264 0.069964
0.465339 0.014348 -0.065927
0.465339 0.005190 0.096874
0.465339 0.034181 -0.059917
0.465339 0.028710 -0.052135
0.465339 -0.021918 -0.008625
0.465339 -0.010175 0.077491
0.465339 -0.079393 0.002457
0.465339 -0.032260 -0.034649
0.465339 0.082990 0.024263
0.465339 0.005323 -0.018094
0.465339 0.013187 0.005978
0.465339 0.003669 0.019979
0.465339 -0.035890 -0.071637
0.465339 0.065918 0.020730
0.465339 0.036848 0.040184
0.465339 0.042930 0.031051
0.465339 0.087055 0.033269
0.465339 0.043247 -0.064889
0.465339 -0.040744 -0.067709
0.465339 -0.046354 0.017284
0.465339 0.009889 -0.098340
0.465339 -0.024407 0.047369
0.465339 0.047485 -0.043520
0.465339 -0.039907 -0.087085
0.465339 0.097345 0.011939
0.465339 0.057353 0.060739
0.465339 -0.053572 0.033762
0.465339 -0.004377 -0.041292
0.465339 -0.041388 -0.040034
0.465339 -0.015383 -0.014402
0.465339 0.019644 0.060365
0.465339 -0.034538 -0.041524
0.465339 0.056275 0.066848
0.465339 0.055240 -0.044586
0.465339 0.067255 0.051152
0.465339 -0.003842 0.050871
0.465339 -0.054406 0.035085
0.465339 -0.042333 -0.026316
0.465339 -0.083161 -0.000631
0.465339 -0.039601 -0.013609
0.465339 -0.065259 0.024309
0.465339 -0.079232 0.043086
0.465339 -0.038156 -0.012896
0.465339 -0.080318 0.006366
0.465339 -0.088326 -0.005058
0.465339 0.067397 -0.022219
0.465339 0.010339 -0.083843
0.465339 0.025095 0.051740
0.465339 0.008772 0.001026
0.465339 0.076934 -0.014451
0.465339 -0.027885 -0.027653
0.465339 0.092619 -0.002974
0.465339 0.005357 0.062794
0.465339 0.040806 0.072762
0.465339 -0.009043 -0.083100
0.465339 0.003093 0.046694
0.465339 -0.067981 0.065886
0.465339 -0.016156 0.081337
0.465339 0.058926 0.026501
0.465339 0.087347 -0.036831
0.465339 0.044149 -0.067187
0.465339 -0.012797 -0.038777
0.465339 -0.047675 0.047965
0.465339 0.006102 -0.095970
0.465339 -0.041229 -0.061502
0.465339 -0.025605 0.020798
0.465339 -0.067071 -0.038378
0.465339 -0.002764 0.068777
0.465339 -0.001294 -0.053398
0.465339 -0.004672 0.024392
0.465339 -0.028368 -0.016762
0.465339 0.069555 0.030160
0.465339 -0.098783 0.012182
0.465339 -0.025490 0.031589
0.465339 0.063256 0.006124
0.465339 -0.023799 -0.051877
0.465339 0.031437 0.035567
0.465339 -0.084471 0.031744
0.465339 0.076363 -0.001780
0.465339 -0.014059 -0.063470
0.465339 -0.052396 0.070291
0.465339 -0.066291 -0.059796
0.465339 0.031792 0.065266
0.465339 -0.047914 0.001288
0.465339 0.048222 0.000850
0.465339 0.092192 0.017084
0.465339 -0.005622 -0.049023
0.465339 -0.078877 0.024078
0.465339 -0.030892 -0.045941
0.465339 0.080264 -0.026136
0.465339 0.033231 -0.029475
0.465339 0.025979 0.025671
0.465339 0.022148 0.096917
0.465339 -0.022798 0.029430
0.465339 -0.073603 0.052153
0.465339 -0.010382 0.007535
0.465339 0.064569 -0.037989
0.465339 -0.030368 0.021817
0.465339 0.035386 0.059854
0.465339 0.045501 -0.054655
0.465339 -0.039254 -0.073724
0.465339 0.015890 -0.005300
0.465339 0.082709 -0.047014
0.465339 -0.040979 0.077242
0.465339 -0.003793 0.061661
0.465339 -0.039708 0.023901
0.465339 -0.002072 0.072459
0.465339 0.038084 0.006979
0.465339 0.006368 0.002182
0.465339 0.024683 -0.092128
0.465339 -0.082220 0.036781
0.465339 -0.000787 0.056154
0.465339 -0.013566 -0.086743
0.465339 0.013226 0.008290
0.465339 -0.029623 0.071840
0.465339 0.064908 -0.054224
0.465339 -0.047580 0.007764
0.465339 -0.039636 0.026837
0.465339 0.027171 -0.056239
0.465339 -0.057602 -0.009580
0.465339 0.076424 -0.029157
0.465339 0.041795 -0.026012
0.465339 -0.033192 0.020765
0.465339 0.065253 0.045357
0.465339 -0.007016 -0.012749
0.465339 0.075540 0.029996
0.465339 0.018528 -0.080177
0.465339 -0.058306 -0.023549
0.465339 0.050053 -0.022291
0.465339 -0.040924 0.043931
0.465339 0.018651 -0.029875
0.465339 -0.058111 -0.069336
0.465339 -0.035115 0.020954
0.465339 -0.045221 0.072373
0.465339 -0.043642 -0.063686
0.465339 -0.089189 -0.003924
0.465339 -0.026780 -0.025590
0.465339 -0.089132 -0.044146
0.465339 0.074921 -0.002369
0.465339 -0.036345 -0.076221
0.465339 0.076655 -0.020955
0.465339 0.007493 0.051210
0.465339 -0.051058 -0.071098
0.465339 0.020617 0.018518
0.465339 -0.037192 -0.030357
0.465339 -0.042000 0.031766
0.465339 0.091889 -0.024142
0.465339 -0.053927 -0.024048
0.465339 0.059860 -0.053413
0.465339 -0.018676 -0.060930
0.465339 -0.000520 0.087056
0.465339 0.012067 0.053693
0.465339 -0.003795 0.064906
0.465339 -0.011372 0.096236
0.465339 -0.078952 0.018909
0.465339 0.013252 -0.013979
0.465339 -0.009941 0.018434
0.465339 0.060945 0.076652
0.465339 0.043102 0.044954
0.465339 -0.085083 0.051436
0.465339 0.038798 0.028039
0.465339 0.010504 0.015842
0.465339 -0.034960 0.003055
0.465339 -0.004508 -0.007390
0.465339 0.042347 0.021534
0.465339 0.057858 -0.013404
0.465339 0.039646 0.035908
0.465339 0.088820 0.039139
0.465339 -0.035389 -0.087608
0.465339 0.057161 -0.002039
0.465339 -0.054220 0.057607
0.465339 -0.053398 0.015598
0.465339 0.039861 0.004209
0.465339 0.096206 -0.007601
0.465339 0.013861 0.020924
0.465339 0.054780 -0.070330
0.465339 0.073405 0.017906
0.465339 -0.015756 0.054860
0.465339 -0.034423 -0.078005
0.465339 -0.032338 -0.036623
0.465339 -0.006915 0.083272
0.465339 -0.072818 0.009593
0.465339 0.053656 0.045034
0.465339 -0.027823 -0.065627
0.465339 0.002615 0.068553
0.465339 0.047653 0.065470
0.465339 -0.007921 0.041617
0.465339 0.045645 -0.026869
0.465339 0.037049 0.015868
0.465339 -0.051479 -0.084662
0.465339 0.050803 0.070249
0.465339 0.015844 0.082544
0.465339 0.000364 0.066868
0.465339 -0.079184 0.040741
0.465339 -0.010718 -0.034995
0.465339 -0.007009 0.045534
0.465339 0.063068 -0.016187
0.465339 0.068360 -0.067626
0.465339 0.083939 -0.053862
0.465339 0.007881 -0.090507
0.465339 0.044119 -0.050224
0.465339 0.025262 0.017430
0.465339 0.000328 0.065407
0.465339 0.088827 0.045773
0.465339 0.074590 0.053185
0.465339 0.066862 0.005767
0.465339 0.033542 -0.023194
0.465339 -0.050189 0.060276
0.465339 0.014037 0.061675
0.465339 0.056599 0.001912
0.465339 0.038648 -0.017063
0.465339 -0.058508 -0.032090
0.465339 -0.042039 0.019286
0.465339 0.046919 -0.055432
0.465339 -0.065262 0.012544
0.465339 -0.025099 -0.079225
0.465339 0.024186 0.040156
0.465339 0.094901 0.016812
0.465339 0.061215 -0.043837
0.465339 0.024785 0.074719
0.465339 0.059080 0.079075
0.465339 0.025360 0.082503
0.465339 -0.021209 -0.028746
0.465339 -0.001543 0.053071
0.465339 0.011092 0.033093
0.465339 0.082369 -0.028989
0.465339 0.081878 0.050756
0.465339 0.088621 0.032265
0.465339 0.018341 -0.063351
0.465339 -0.080759 -0.006503
0.465339 -0.029866 0.077746
0.465339 0.000511 -0.068553
0.465339 0.058691 -0.036848
0.465339 -0.019596 0.073243
0.465339 -0.083809 0.054304
0.465339 0.075428 0.031822
0.465339 -0.080264 -0.056946
0.465339 -0.009989 0.062009
0.465339 0.081007 0.058215
0.465339 0.044298 -0.029599
0.465339 0.075406 -0.013361
0.465339 0.067504 0.007086
0.465339 -0.049465 -0.065586
0.465339 -0.012848 -0.025212
0.465339 0.041009 0.036361
0.465339 0.003275 -0.012749
0.465339 -0.020652 0.079412
0.465339 0.057198 -0.007518
0.465339 -0.036779 0.085033
0.465339 0.037400 -0.011013
0.465339 0.075221 0.062166
0.465339 -0.018606 0.030459
0.465339 -0.082492 0.038798
0.465339 -0.053663 -0.003100
0.465339 -0.058300 -0.027818
0.465339 -0.063145 0.039044
0.465339 -0.004380 -0.043053
0.465339 0.072542 -0.017039
0.465339 0.065858 0.025536
0.465339 -0.004314 0.014327
0.465339 -0.023246 -0.086527
0.465339 -0.036881 -0.040819
0.465339 0.045409 0.025851
0.465339 -0.039623 0.084468
0.465339 -0.009671 -0.097935
0.465339 -0.070578 0.016336
0.465339 -0.079591 -0.054937
0.465339 0.096490 0.026179
0.465339 -0.090419 0.008245
0.465339 -0.020126 0.013190
0.465339 -0.036257 -0.032418
0.465339 -0.039424 0.081919
0.465339 0.062818 0.020231
0.465339 -0.095458 0.012246
0.465339 -0.038919 -0.042811
0.465339 -0.046749 0.045343
0.465339 0.039722 0.029416
0.465339 -0.008358 -0.008793
0.465339 0.002757 -0.049681
0.465339 0.015975 0.056394
0.465339 0.064676 -0.047280
0.465339 0.005047 0.091725
0.465339 0.069429 -0.037270
0.465339 0.087633 0.034753
0.465339 0.063709 -0.011347
0.465339 -0.057154 -0.073172
0.465339 -0.013387 0.084517
0.465339 -0.091747 0.026565
0.465339 0.012081 -0.022979
0.465339 -0.081332 0.049127
0.465339 0.082935 0.052272
0.465339 0.031753 -0.010714
0.465339 0.049058 0.011150
0.465339 0.009888 -0.053056
0.465339 0.091272 -0.017664
0.465339 0.069090 -0.035227
0.465339 -0.048843 0.004438
0.465339 0.009207 -0.064098
0.465339 -0.073270 -0.024551
0.465339 0.057169 0.009511
0.465339 -0.039610 0.003835
0.465339 0.055643 -0.012071
0.465339 -0.091062 -0.036095
0.465339 0.021789 0.033832
0.465339 0.009175 0.057291
0.465339 -0.035332 0.035538
0.465339 -0.036562 0.046372
0.465339 -0.047827 0.053184
0.465339 0.007053 0.022390
0.465339 -0.002708 -0.065428
0.465339 0.061400 0.007741
0.465339 0.052289 -0.008461
0.465339 -0.069406 0.012705
0.465339 -0.040353 0.070787
0.465339 0.023334 -0.063353
0.465339 -0.068583 -0.062198
0.465339 0.054047 -0.066918
0.465339 -0.071780 -0.057612
0.465339 0.029539 -0.045057
0.465339 0.010178 -0.028699
0.465339 0.015244 -0.068970
0.465339 -0.097657 -0.003534
0.465339 0.091760 0.026271
0.465339 -0.081765 0.047461
0.465339 -0.012422 -0.023833
0.465339 0.064702 0.038762
0.465339 -0.010740 -0.075564
0.465339 -0.037642 -0.073875
0.465339 0.046871 -0.027955
0.465339 -0.035526 -0.002856
0.465339 0.066080 -0.032839
0.465339 0.035973 0.037282
0.465339 -0.019410 -0.011424
0.465339 0.034968 0.061653
0.465339 0.027549 -0.013755
0.465339 -0.034823 0.054435
0.465339 0.006796 -0.007193
0.465339 -0.071008 -0.044160
0.465339 0.047556 0.021543
0.465339 0.074078 -0.055067
0.465339 -0.095665 -0.011029
0.465339 0.052854 -0.029809
0.465339 -0.067132 -0.014844
0.465339 0.006860 -0.077688
0.465339 -0.057829 0.034313
0.465339 -0.069345 -0.028760
0.465339 0.072514 -0.005486
0.465339 -0.094074 0.006736
0.465339 0.047481 0.080382
0.465339 0.004202 -0.041323
0.465339 -0.068508 0.032931
0.465339 -0.009692 -0.065281
0.465339 0.022979 -0.096567
0.465339 0.030991 -0.052049
0.465339 -0.021393 0.094806
0.465339 -0.005989 -0.022081
0.465339 -0.053074 -0.015827
0.465339 -0.001081 0.013587
0.465339 -0.066319 -0.062868
0.465339 -0.085819 -0.004849
0.465339 0.066000 0.009184
0.465339 -0.004140 0.079839
0.465339 -0.058365 0.069203
0.465339 0.066369 -0.000765
0.465339 -0.050929 -0.064411
0.465339 0.021883 -0.077322
0.465339 -0.031103 -0.047320
0.465339 0.042127 0.049401
0.465339 -0.067551 -0.073014
0.465339 -0.011860 0.077843
0.465339 -0.064230 -0.011694
0.465339 0.060468 -0.013990
0.465339 0.047809 -0.083718
0.465339 0.003277 0.051407
0.465339 0.017933 -0.012760
0.465339 -0.019122 0.027539
0.465339 -0.053199 0.025463
0.465339 -0.091095 0.017429
0.465339 -0.096654 -0.012694
0.465339 0.017076 0.021303
0.465339 0.002985 -0.047442
0.465339 -0.047039 -0.032677
0.465339 0.026176 0.080101
0.465339 -0.046744 0.033085
0.465339 0.054258 0.006850
0.465339 0.039455 -0.090361
0.465339 0.072603 0.041829
0.465339 0.037229 -0.052368
0.465339 0.068960 0.054498
0.465339 0.012148 -0.094833
0.465339 0.074524 -0.024326
0.465339 0.010856 0.060847
0.465339 -0.016423 0.067082
0.465339 -0.032321 0.057406
0.465339 0.084614 -0.025444
0.465339 0.030609 0.037479
0.465339 0.032158 0.089029
0.465339 -0.040589 0.037573
0.465339 0.005198 -0.006019
0.465339 0.079477 -0.014457
0.465339 -0.024076 0.058166
0.465339 -0.009631 0.095490
0.465339 0.002819 -0.020270
0.465339 -0.058594 -0.067875
0.465339 -0.041959 -0.066987
0.465339 -0.024796 0.055366
0.465339 0.064205 0.007321
0.465339 0.008158 -0.037589
0.465339 0.060274 -0.026443
0.465339 -0.013771 0.019018
0.465339 0.036631 -0.022914
0.465339 -0.003018 0.073426
0.465339 -0.067677 -0.032858
0.465339 -0.045975 0.006964
0.465339 0.055029 -0.074307
0.465339 -0.020921 0.040715
0.465339 0.006059 0.017553
0.465339 -0.062622 0.077502
0.465339 -0.075595 0.011869
0.465339 0.004983 -0.043025
0.465339 -0.023527 0.087513
0.465339 0.064088 0.064079
0.465339 0.093368 -0.001747
0.465339 0.092877 0.007017
0.465339 0.051760 -0.016621
0.465339 -0.083136 -0.002998
0.465339 -0.085288 -0.013559
0.465339 -0.041600 -0.024728
0.465339 -0.028222 -0.063158
0.465339 -0.004685 0.002018
0.465339 -0.058380 0.073852
0.465339 -0.043181 0.002878
0.465339 -0.052883 -0.077622
0.465339 -0.006331 -0.038545
0.465339 0.087177 -0.048428
0.465339 0.065897 -0.055437
0.465339 -0.049565 0.068026
0.465339 0.035102 -0.030511
0.465339 0.006637 -0.063354
0.465339 0.029821 0.013349
0.465339 0.015189 0.050606
0.465339 -0.034723 -0.051569
0.465339 0.031522 -0.034139
0.465339 0.089648 -0.027541
0.465339 -0.003719 0.009281
0.465339 0.021073 -0.064541
0.465339 0.020105 -0.082732
0.465339 -0.042625 -0.013624
0.465339 -0.033777 0.011934
0.465339 0.012775 0.043094
0.465339 0.002510 0.008377
0.465339 -0.036928 -0.066066
0.465339 -0.087570 -0.035292
0.465339 -0.027199 0.074830
0.465339 -0.027794 0.092889
0.465339 -0.081403 -0.035531
0.465339 -0.027200 -0.077426
0.465339 0.011516 -0.090494
0.465339 -0.043640 -0.076168
0.465339 -0.042690 -0.051565
0.465339 -0.001105 -0.027235
0.465339 -0.019212 0.029113
0.465339 -0.036015 -0.012624
0.465339 0.027973 -0.045490
0.465339 0.088452 0.036950
0.465339 -0.047372 -0.087160
0.465339 0.060760 0.025024
0.465339 0.028768 -0.057051
0.465339 0.045522 0.022211
0.465339 0.016128 -0.078933
0.465339 -0.075074 0.021335
0.465339 -0.039225 0.080457
0.465339 -0.055928 0.053947
0.465339 0.020281 0.025451
0.465339 -0.069059 -0.020270
0.465339 -0.036699 0.092453
0.465339 0.016086 -0.084426
0.465339 0.009780 0.085547
0.465339 0.045189 -0.008760
0.465339 0.042338 -0.073909
0.465339 -0.002991 -0.049147
0.465339 0.026966 -0.012080
0.465339 -0.052469 -0.028640
0.465339 0.014097 -0.089090
0.465339 -0.013994 -0.070319
0.465339 -0.013378 -0.021975
0.465339 0.070833 0.021528
0.465339 0.035435 0.048837
0.465339 -0.040800 0.080687
0.465339 -0.046654 -0.055829
0.465339 -0.058856 -0.033679
0.465339 0.026121 -0.061190
0.465339 -0.071042 -0.036101
0.465339 0.023306 -0.026361
0.465339 -0.030227 0.079879
0.465339 0.016898 -0.082190
0.465339 0.083459 0.010801
0.465339 0.046257 -0.039148
0.465339 -0.010149 -0.013441
0.465339 0.042742 -0.022835
0.465339 0.071543 0.024450
0.465339 0.009592 0.035659
0.465339 -0.044940 0.020796
0.465339 0.038963 0.001339
0.465339 -0.082511 -0.033939
0.465339 -0.086969 0.035545
0.465339 -0.014589 0.072222
0.465339 0.029392 -0.032852
0.465339 -0.040011 0.048591
0.465339 0.049368 -0.029444
0.465339 -0.071977 -0.031319
0.465339 -0.035556 0.014891
0.465339 -0.066041 -0.052731
0.465339 0.013380 -0.029627
0.465339 -0.075871 -0.053359
0.465339 -0.000054 -0.063911
0.465339 -0.009946 0.065955
0.465339 -0.049346 0.044806
0.465339 -0.007193 0.089050
0.465339 0.054438 0.000362
0.465339 -0.077261 0.033292
0.465339 0.004636 0.017066
0.465339 0.083904 0.017775
0.465339 -0.024940 0.037322
0.465339 -0.083825 -0.020501
0.465339 0.046298 0.066309
0.465339 0.046468 0.028289
0.465339 -0.022005 -0.053706
0.465339 0.081913 -0.052403
0.465339 0.024292 0.076144
0.465339 -0.054778 -0.013965
0.465339 -0.015767 0.043041
0.465339 -0.017303 0.086737
0.465339 -0.055570 0.010463
0.465339 -0.012350 -0.015073
0.465339 0.050383 0.083462
0.465339 -0.016251 0.039842
0.465339 0.087580 0.005276
0.465339 0.083192 -0.048698
0.465339 0.035126 -0.024255
0.465339 0.026202 0.038263
0.465339 -0.021137 -0.094652
0.465339 0.009332 -0.010136
0.465339 0.028965 -0.017518
0.465339 -0.096238 -0.025061
0.465339 -0.010129 -0.094258
0.465339 0.064142 0.018871
0.465339 0.003945 0.013503
0.465339 0.037171 0.025820
0.465339 0.017000 -0.009064
0.465339 -0.003052 -0.008271
0.465339 -0.051431 -0.009982
0.465339 0.021378 -0.025773
0.465339 -0.001262 -0.024444
0.465339 0.012791 -0.072674
0.465339 0.080766 0.042315
0.465339 0.061810 -0.039028
0.465339 0.076322 -0.030691
0.465339 -0.042675 -0.047267
0.465339 0.019874 -0.066209
0.465339 0.029371 0.029842
0.465339 -0.054745 -0.031570
0.465339 -0.074166 0.024360
0.465339 0.016990 0.094933
0.465339 -0.064232 -0.052696
0.465339 0.093745 0.031859
0.465339 -0.052792 0.078475
0.465339 0.079273 0.049844
0.465339 0.018879 0.021570
0.465339 -0.040813 -0.038778
0.465339 -0.027220 -0.074262
0.465339 -0.037760 -0.082023
0.465339 0.008501 -0.003184
0.465339 -0.011552 -0.039938
0.465339 -0.050012 0.005580
0.465339 0.036615 0.086196
0.465339 0.038868 -0.024406
0.465339 -0.089711 -0.033093
0.465339 -0.061213 0.006159
0.465339 0.034878 -0.029063
0.465339 0.044234 -0.063220
0.465339 -0.027093 -0.081895
0.465339 -0.011390 0.059736
0.465339 0.099383 0.005445
0.465339 0.094000 0.033481
0.465339 0.000365 -0.086412
0.465339 0.035519 -0.053875
0.465339 0.053505 -0.048540
0.465339 -0.077526 -0.041987
0.465339 0.077920 -0.034744
0.465339 -0.021531 0.084882
0.465339 0.091067 -0.027582
0.465339 0.043295 -0.030724
0.465339 -0.014247 0.028129
0.465339 -0.055895 0.073335
0.465339 0.045773 0.050801
0.465339 0.081906 -0.009510
0.465339 -0.004286 -0.050152
0.465339 0.070317 -0.012977
0.465339 -0.052006 -0.026558
0.465339 -0.082603 -0.019961
0.465339 -0.046364 0.028677
0.465339 -0.022526 -0.027267
0.465339 -0.067955 0.053557
0.465339 0.056834 -0.067380
0.465339 -0.040471 0.083184
0.465339 -0.050882 -0.014538
0.465339 0.010980 -0.025848
0.465339 0.058597 -0.044000
0.465339 -0.004155 -0.082170
0.465339 0.066401 -0.025506
0.465339 0.034864 0.039997
0.465339 0.039832 -0.075673
0.465339 -0.030136 -0.053486
0.465339 -0.067523 -0.049146
0.465339 0.074234 0.010256
0.465339 -0.039825 -0.017072
0.465339 -0.044529 -0.066077
0.465339 -0.080629 0.045807
0.465339 0.047481 0.084902
0.465339 -0.028486 -0.069013
0.465339 0.093131 0.036532
0.465339 0.050536 0.030862
0.465339 -0.081415 -0.024637
0.465339 0.048664 0.023176
0.465339 -0.052571 -0.036368
0.465339 0.025117 -0.096464
0.465339 0.031451 -0.009004
0.465339 0.071505 -0.041497
0.465339 0.081269 -0.001678
0.465339 -0.046455 -0.051981
0.465339 -0.049391 -0.042446
0.465339 -0.074226 0.058558
0.465339 -0.032438 -0.031245
0.465339 0.085461 -0.043615
0.465339 0.095007 0.003156
0.465339 -0.042043 -0.060405
0.465339 0.023136 0.026068
0.465339 -0.078565 0.012898
0.465339 -0.081672 0.002093
0.465339 0.080883 -0.042568
0.465339 0.077824 -0.057160
0.465339 0.044489 -0.033486
0.465339 -0.037576 -0.031769
0.465339 0.013581 0.032519
0.465339 -0.003121 -0.025036
0.465339 0.036684 -0.028873
0.465339 -0.024953 -0.076542
0.465339 -0.063257 -0.023752
0.465339 0.031659 -0.079417
0.465339 0.066311 0.024080
0.465339 -0.049435 -0.040574
0.465339 0.017002 0.022904
0.465339 -0.061140 0.035904
0.465339 0.077516 0.023071
0.465339 0.054516 -0.017045
0.465339 0.018476 -0.070863
0.465339 -0.072073 -0.028881
0.465339 -0.001102 0.088802
0.465339 0.000981 0.084831
0.465339 0.023462 0.077848
0.465339 -0.012199 0.014775
0.465339 0.057974 -0.079144
0.465339 0.062876 0.048048
0.465339 0.019822 -0.069430
0.465339 0.051119 0.027532
0.465339 -0.046802 0.014824
0.465339 -0.082464 -0.036345
0.465339 -0.054091 -0.047608
0.465339 0.048757 0.069403
0.465339 -0.021425 -0.046437
0.465339 -0.022811 0.077080
0.465339 0.023812 0.017339
0.465339 -0.091667 0.023795
0.465339 0.077939 0.053854
0.465339 0.069721 0.070683
0.465339 -0.073787 -0.062237
0.465339 0.030754 0.092868
0.465339 0.011968 -0.092009
0.465339 -0.088518 -0.018832
0.465339 -0.055412 -0.057536
0.465339 -0.026682 0.038845
0.465339 -0.071835 -0.032727
0.465339 0.046340 0.058928
0.465339 0.010019 0.017697
0.465339 -0.019842 -0.080784
0.465339 -0.090079 -0.042651
0.465339 0.061793 -0.012728
0.465339 0.042770 -0.000232
0.465339 0.025753 -0.068850
0.465339 0.039943 0.090653
0.465339 0.014373 0.007403
0.465339 0.048155 -0.045267
0.465339 0.045230 0.088026
0.465339 0.049119 0.035880
0.465339 0.027665 0.061102
0.465339 -0.028705 -0.023939
0.465339 -0.048643 -0.056464
0.465339 0.001316 -0.083120
0.465339 0.015268 -0.040279
0.465339 0.042534 0.085907
0.465339 -0.043553 -0.081155
0.465339 0.073111 -0.048271
0.465339 0.050308 -0.035687
0.465339 0.081782 -0.026834
0.465339 0.027702 -0.082087
0.465339 -0.001181 -0.042506
0.465339 0.035678 0.077619
0.465339 0.033859 -0.085999
0.465339 -0.077274 0.023672
0.465339 -0.040872 -0.058049
0.465339 -0.027574 -0.091203
0.465339 0.066087 -0.005813
0.465339 -0.069982 -0.011167
0.465339 -0.037465 0.058006
0.465339 0.022384 0.016669
0.465339 0.002159 -0.039171
0.465339 -0.067774 -0.017691
0.465339 -0.007843 0.011205
0.465339 -0.015247 0.068571
0.465339 -0.036683 -0.072727
0.465339 -0.063375 -0.044506
0.465339 -0.004059 -0.064599
0.465339 -0.029367 -0.079191
0.465339 -0.094000 0.008230
0.465339 -0.024879 0.014414
0.465339 0.087440 0.019751
0.465339 -0.031666 0.084878
0.465339 -0.041999 0.001336
0.465339 0.001893 0.076413
0.465339 0.023716 0.096522
0.465339 -0.006069 0.076184
0.465339 -0.024136 0.036136
0.465339 0.008708 -0.099236
0.465339 -0.072257 -0.060664
0.465339 0.062646 0.064403
0.465339 0.014723 0.038900
0.465339 -0.069520 0.063724
0.465339 0.015021 0.072057
0.465339 -0.029670 -0.006762
0.465339 -0.016705 0.093974
0.465339 0.085418 -0.019384
0.465339 0.027952 0.073218
0.465339 0.010775 -0.031418
0.465339 0.071445 -0.024391
0.465339 -0.031975 -0.052735
0.465339 -0.048716 0.031727
0.465339 0.018670 -0.087479
0.465339 -0.063381 -0.074787
0.465339 -0.019008 0.022530
0.465339 -0.024683 -0.063333
0.465339 -0.068402 0.035324
0.465339 0.031520 -0.086731
0.465339 0.033195 0.045944
0.465339 0.062296 0.042488
0.465339 0.014549 0.004735
0.465339 0.045549 -0.078492
0.465339 -0.033606 -0.061279
0.465339 -0.010920 0.081116
0.465339 -0.063878 0.013249
0.465339 -0.089057 0.021998
0.465339 -0.071282 -0.000249
0.465339 -0.047411 -0.015686
0.465339 -0.017667 0.001937
0.465339 -0.042448 -0.030114
0.465339 0.033755 -0.016998
0.465339 -0.008839 -0.025344
0.465339 -0.038141 -0.038381
0.465339 0.017527 0.061541
0.465339 0.039857 0.040605
0.465339 -0.068930 -0.049952
0.465339 -0.006441 0.012258
0.465339 0.065561 -0.029956
0.465339 0.079999 -0.032761
0.465339 -0.015695 0.060921
0.465339 0.035716 0.082462
0.465339 -0.080762 -0.049405
0.465339 0.048200 -0.010844
0.465339 -0.075905 0.017091
0.465339 -0.074612 0.063929
0.465339 -0.006984 0.007292
0.465339 -0.020370 0.032722
0.465339 -0.054872 0.061752
0.465339 0.005369 0.012920
0.465339 0.023244 -0.044058
0.465339 -0.083273 -0.009432
0.465339 -0.045217 0.036263
0.465339 0.023448 -0.006437
0.465339 0.090717 0.034151
0.465339 0.015541 0.079393
0.465339 0.054826 0.081334
0.465339 -0.066077 -0.029632
0.465339 -0.068783 -0.016089
0.465339 -0.078757 -0.030233
0.465339 0.077009 0.031122
0.465339 -0.048502 0.084262
0.465339 -0.040552 0.033655
0.465339 -0.022928 -0.054856
0.465339 -0.064483 0.061920
0.465339 -0.005866 0.054954
0.465339 -0.087781 0.009644
0.465339 0.003044 -0.078485
0.465339 0.044681 0.044277
0.465339 0.004049 -0.093420
0.465339 0.074898 0.065826
0.465339 -0.079298 0.056254
0.465339 -0.032490 -0.040879
0.465339 -0.064461 0.026040
0.465339 -0.008544 0.033712
0.465339 0.024178 -0.049577
0.465339 0.092793 0.030328
0.465339 0.072475 0.049754
0.465339 -0.024944 -0.083043
0.465339 0.045973 -0.074507
0.465339 -0.022569 -0.002336
0.465339 0.037345 -0.070688
0.465339 -0.022165 -0.018073
0.465339 -0.027787 0.078395
0.465339 -0.065868 -0.008603
0.465339 0.066634 0.061578
0.465339 0.087952 -0.005176
0.465339 0.084026 -0.006494
0.465339 -0.008010 0.064835
0.465339 -0.017616 -0.042353
0.465339 -0.067643 -0.042554
0.465339 -0.048598 -0.079012
0.465339 0.015925 -0.038165
0.465339 -0.008308 0.080019
0.465339 -0.049605 0.053036
0.465339 -0.011829 0.018575
0.465339 0.048899 0.080672
0.465339 -0.008251 0.021103
0.465339 0.043454 0.014558
0.465339 0.014874 -0.034622
0.465339 -0.026223 -0.062654
0.465339 -0.007323 0.070131
0.465339 -0.075252 -0.038618
0.465339 -0.017664 0.089925
0.465339 0.068585 0.051906
0.465339 0.071516 0.047710
0.465339 -0.067337 -0.025378
0.465339 -0.032390 0.029671
0.465339 -0.026912 0.005130
0.465339 0.001668 -0.048584
0.465339 0.050397 -0.071067
0.465339 -0.068214 0.068069
0.465339 0.015436 0.040234
0.465339 -0.063022 -0.005902
0.465339 -0.009605 0.023220
0.465339 -0.088613 0.003918
0.465339 -0.001235 0.085719
0.465339 0.067252 0.026190
0.465339 -0.064106 -0.057631
0.465339 0.030204 0.046184
0.465339 -0.026131 0.015254
0.465339 0.029962 -0.062568
0.465339 0.025334 -0.058275
0.465339 0.072382 -0.015023
0.465339 -0.014433 -0.052739
0.465339 -0.018306 -0.080431
0.465339 0.095511 0.005232
0.465339 0.038423 -0.084468
0.465339 -0.057229 0.059328
0.465339 -0.007252 -0.032488
0.465339 0.023628 -0.002151
0.465339 -0.084212 -0.049802
0.465339 0.039494 -0.005537
0.465339 0.025560 -0.039449
0.465339 -0.059722 -0.038363
0.465339 0.008501 -0.056087
0.465339 0.026246 -0.078425
0.465339 0.074003 -0.025685
0.465339 0.094361 0.006608
0.465339 0.045755 0.005441
0.465339 0.031405 0.039996
0.465339 -0.055675 0.065646
0.465339 0.005526 -0.065935
0.465339 0.067371 0.009739
0.465339 -0.040446 0.039191
0.465339 0.014727 0.009389
0.465339 0.028214 0.062428
0.465339 0.037940 -0.000601
0.465339 0.033659 0.022028
0.465339 -0.058267 0.028583
0.465339 -0.076045 0.020074
0.465339 0.022919 0.036529
0.465339 0.011357 -0.055645
0.465339 0.067736 0.027951
0.465339 -0.023516 -0.060922
0.465339 0.045119 0.086139
0.465339 -0.039265 0.065220
0.465339 0.001822 -0.053850
0.465339 0.007132 0.080116
0.465339 0.027713 -0.047626
0.465339 0.056331 -0.016693
0.465339 0.078746 -0.055913
0.465339 0.045417 0.012659
0.465339 -0.033742 -0.091245
0.465339 0.029796 -0.053030
0.465339 0.022781 0.057173
0.465339 -0.047377 -0.059421
0.465339 0.086030 -0.003987
0.465339 0.042393 -0.012577
0.465339 -0.037829 0.001020
0.465339 0.054801 0.046242
0.465339 -0.066083 -0.011491
0.465339 0.027638 -0.095285
0.465339 -0.051030 0.018703
0.465339 0.021359 0.083637
0.465339 -0.031424 -0.001401
0.465339 0.039898 0.086614
0.465339 0.065431 0.037000
0.465339 -0.080171 -0.023244
0.465339 0.047337 0.011168
0.465339 -0.067879 0.070853
0.465339 0.081717 -0.025011
0.465339 0.070830 -0.053220
0.465339 0.029533 -0.070659
0.465339 0.032441 -0.064001
0.465339 0.025739 0.094724
0.465339 0.014992 -0.050432
0.465339 -0.035989 0.044529
0.465339 -0.083636 -0.017261
0.465339 -0.080906 -0.028817
0.465339 -0.073804 -0.043428
0.465339 0.026955 -0.065599
0.465339 -0.067093 -0.044064
0.465339 0.029555 -0.014587
0.465339 -0.095056 -0.015534
0.465339 0.011127 -0.066758
0.465339 -0.007521 0.071554
0.465339 -0.039282 0.020720
0.465339 0.040511 -0.036304
0.465339 0.020070 -0.006902
0.465339 -0.080878 0.025469
0.465339 -0.038735 -0.025298
0.465339 0.007733 0.006425
0.465339 0.064340 0.074569
0.465339 -0.077301 -0.062661
0.465339 -0.030597 -0.038337
0.465339 0.043290 -0.048503
0.465339 -0.016315 -0.066711
0.465339 -0.043065 0.067429
0.465339 0.061764 0.066491
0.465339 0.027588 0.015960
0.465339 0.007799 -0.048952
0.465339 -0.002465 0.065289
0.465339 0.060654 -0.049534
0.465339 0.028541 -0.033883
0.465339 0.000620 0.009469
0.465339 0.068691 -0.041342
0.465339 -0.022969 0.089068
0.465339 0.001978 -0.092449
0.465339 -0.045556 0.011152
0.465339 -0.086275 -0.042497
0.465339 0.079613 0.031573
0.465339 0.057293 -0.027947
0.465339 0.006456 0.016157
0.465339 0.049070 -0.081793
0.465339 -0.070596 -0.052251
0.465339 -0.019194 0.015846
0.465339 0.063862 -0.031656
0.465339 -0.075352 -0.027404
0.465339 -0.027897 0.072315
0.465339 -0.034285 0.034579
0.465339 -0.090600 0.022425
0.465339 0.003703 0.071349
0.465339 -0.062493 -0.021277
0.465339 -0.001981 -0.082016
0.465339 0.082279 -0.013562
0.465339 0.030070 -0.018885
0.465339 0.051201 -0.084021
0.465339 -0.005332 -0.051013
0.465339 0.019737 0.017385
0.465339 -0.017939 0.051535
0.465339 0.076169 0.017102
0.465339 -0.051227 0.046914
0.465339 -0.037233 -0.053632
0.465339 0.083531 -0.009753
0.465339 -0.087467 -0.043329
0.465339 0.051166 -0.050610
0.465339 -0.015990 0.071876
0.465339 -0.031016 0.042206
0.465339 -0.029427 -0.076580
0.465339 -0.020251 -0.003407
0.465339 0.060529 -0.010376
0.465339 -0.073139 -0.058752
0.465339 -0.067098 0.040328
0.465339 0.046372 -0.088047
0.465339 -0.070142 0.060107
0.465339 -0.003156 -0.030376
0.465339 0.075684 -0.000055
0.465339 0.064347 -0.009950
0.465339 -0.014291 -0.002746
0.465339 -0.009595 0.049237
0.465339 0.029643 0.032252
0.465339 -0.017193 -0.023278
0.465339 -0.003966 0.074648
0.465339 -0.032726 -0.046278
0.465339 0.009561 0.047843
0.465339 0.095955 0.017964
0.465339 0.056626 -0.060526
0.465339 -0.078295 0.038778
0.465339 -0.055369 0.060189
0.465339 0.045673 0.039321
0.465339 0.004349 0.099835
0.465339 -0.016022 -0.063126
0.465339 -0.067747 -0.035018
0.465339 -0.078188 0.007682
0.465339 0.011715 0.008626
0.465339 0.015428 0.005856
0.465339 0.010785 0.059363
0.465339 -0.091367 -0.011790
0.465339 0.050050 0.082007
0.465339 0.075530 0.063772
0.465339 -0.056113 -0.070538
0.465339 0.059416 0.025197
0.465339 0.031221 -0.065447
0.465339 -0.046178 0.041496
0.465339 -0.068970 0.069340
0.465339 -0.026416 -0.087136
0.465339 0.007437 0.078382
0.465339 0.083349 0.032285
0.465339 0.011237 -0.080773
0.465339 -0.041006 -0.073278
0.465339 0.031131 0.025144
0.465339 -0.046035 0.048744
0.465339 -0.057620 0.016200
0.465339 0.017228 -0.032845
0.465339 -0.066782 -0.040723
0.465339 -0.038200 0.002484
0.465339 -0.000295 0.059565
0.465339 -0.002959 -0.060383
0.465339 -0.017453 -0.049816
0.465339 -0.031826 0.020978
0.465339 0.009955 0.004053
0.465339 0.003246 0.056555
0.465339 -0.026827 -0.069093
0.465339 -0.079540 0.038259
0.465339 -0.075466 -0.016696
0.465339 -0.065751 -0.048944
0.465339 0.004917 0.021421
0.465339 -0.018185 0.083337
0.465339 0.061094 -0.058592
0.465339 -0.068658 -0.060401
0.465339 0.016900 -0.023091
0.465339 0.035487 -0.055377
0.465339 -0.023705 0.043958
0.465339 0.027070 -0.015410
0.465339 -0.023808 0.083480
0.465339 0.087955 -0.046794
0.465339 0.001297 0.054663
0.465339 0.000434 0.020660
0.465339 0.057196 -0.068986
0.465339 -0.009605 -0.066827
0.465339 0.001673 0.057613
0.465339 0.073149 0.022526
0.465339 -0.083429 0.044116
0.465339 -0.071012 -0.002841
0.465339 -0.062283 0.007137
0.465339 0.006275 -0.001727
0.465339 -0.078515 -0.036131
0.465339 0.058400 0.021953
0.465339 0.048953 0.079065
0.465339 0.059136 0.008226
0.465339 -0.068584 0.016362
0.465339 0.057801 -0.024205
0.465339 -0.021118 0.038347
0.465339 -0.063403 -0.068172
0.465339 0.000626 0.001581
0.465339 -0.075793 0.006115
0.465339 -0.011824 -0.037855
0.465339 0.004836 -0.023443
0.465339 0.055266 -0.078251
0.465339 0.051691 0.038661
0.465339 0.088100 -0.035043
0.465339 0.034658 0.067201
0.465339 0.050853 -0.011852
0.465339 -0.015457 0.035390
0.465339 0.050951 0.044228
0.465339 -0.002576 -0.068763
