0.251249 0.073156 -0.067943
0.041033 0.004105 0.099945
-0.173825 0.099679 0.007824
-0.405606 0.031044 -0.094797
-0.102841 0.041807 0.090927
-0.182182 0.098077 0.019609
0.286316 0.048968 0.087283
0.069973 -0.076768 -0.063582
-0.198264 -0.066294 0.074732
-0.343425 -0.068125 0.073117
-0.220438 0.098413 -0.017420
0.021667 -0.096927 -0.023347
-0.227070 -0.034552 0.093812
-0.051364 0.052583 -0.084782
-0.200711 -0.003513 0.099956
0.238309 0.068698 -0.072432
-0.099255 -0.066304 0.074723
-0.156956 -0.047092 -0.087817
-0.286296 0.092100 -0.038649
0.144782 -0.074968 -0.065623
-0.345114 0.028307 -0.095596
0.000297 -0.096583 -0.024833
0.293476 -0.009303 0.099575
0.053984 0.060017 -0.079709
0.253675 0.083599 -0.054601
0.166182 -0.098638 0.014884
-0.335873 -0.089675 -0.043508
0.238359 -0.049925 -0.086216
-0.084679 -0.090016 -0.042838
-0.457104 0.098805 -0.014944
-0.355139 -0.011505 0.099367
-0.022707 0.093542 -0.035060
0.025449 -0.049855 -0.086257
-0.116698 0.066446 -0.074441
0.136491 0.026501 0.096484
-0.153911 0.099787 0.006673
-0.219937 -0.083340 -0.054639
-0.406817 -0.038517 -0.091887
0.153946 0.013360 0.099168
0.006405 0.099726 0.007322
-0.330930 -0.027171 0.096221
-0.398296 0.098476 0.017382
-0.186328 0.025214 0.096857
-0.391832 0.017885 0.098451
0.355361 -0.080781 0.058768
-0.283623 0.004397 -0.099573
0.106084 -0.098625 0.014969
0.368426 0.052416 -0.084881
0.331073 -0.088905 -0.045018
-0.265924 -0.087307 0.048489
-0.131754 -0.084921 -0.052160
0.463255 0.039132 -0.091722
0.042838 0.099811 -0.005988
-0.366737 0.098998 0.014090
-0.261553 0.072621 -0.068509
0.271235 0.090730 0.042177
-0.154757 0.097267 -0.022871
-0.060317 0.076887 0.064075
-0.367733 0.099110 -0.013015
-0.175160 0.018772 0.098311
-0.197712 -0.034253 0.093920
-0.284466 0.039128 -0.091723
-0.328683 0.064426 -0.076222
0.038768 -0.083664 -0.054163
-0.421450 -0.061519 0.078726
0.384342 0.048387 -0.087263
0.067596 -0.088507 -0.045799
0.265496 -0.091556 0.039730
0.392896 0.059461 -0.080140
0.393220 -0.059139 -0.080209
-0.215522 0.067458 0.073911
0.254397 0.059400 0.080551
-0.372883 -0.091702 -0.039029
-0.264344 -0.084297 0.053578
0.069731 0.014074 0.099055
-0.234050 0.077624 -0.062792
0.012162 0.097330 0.022953
-0.030516 0.083621 -0.054570
0.019010 -0.099682 -0.002671
0.442545 0.013922 -0.098716
0.348354 0.019751 0.098096
-0.343009 0.059252 0.080665
-0.195415 -0.083776 0.054360
0.322232 -0.067244 0.073894
-0.033592 0.050778 0.086212
0.012105 0.099281 -0.011672
0.427874 -0.052951 0.084789
0.397039 -0.071675 -0.069221
0.274499 0.090453 -0.042438
-0.036945 0.098814 0.015248
0.110644 -0.060715 -0.078987
0.228473 -0.080163 0.059580
-0.447088 0.081996 -0.056960
0.047089 0.017499 0.098512
-0.466041 -0.045823 -0.088464
0.372830 -0.033795 0.094085
0.018764 0.036399 -0.092869
0.428543 -0.063650 0.077063
0.424472 0.080508 0.059437
0.165949 0.092841 -0.036937
-0.366029 0.085560 -0.051474
-0.446458 0.088639 0.046362
0.458215 0.012980 -0.098865
-0.005709 0.087522 -0.048157
0.211964 -0.096999 0.023389
0.339890 -0.094465 0.032209
0.049572 0.083389 -0.054910
-0.089747 0.001923 0.100013
0.274824 0.058380 0.081299
0.234683 0.027106 0.096308
-0.217829 0.074204 -0.066755
-0.019529 0.095657 0.029189
-0.355990 0.093235 0.036274
-0.318603 0.056319 0.082700
0.364869 0.072666 -0.068464
0.232003 -0.046911 -0.087909
0.076926 0.087632 0.048332
-0.193698 -0.061383 0.078832
0.335780 0.016117 0.098731
-0.125066 -0.097119 -0.022488
-0.209392 0.099938 0.002311
0.113823 -0.021724 0.097603
-0.457263 -0.016345 -0.098295
0.112915 -0.055892 0.082831
-0.008124 0.099894 -0.003343
0.301791 0.054705 0.083796
0.077915 -0.016420 -0.098283
0.074837 0.099080 -0.013207
0.342126 -0.004949 0.099911
-0.374252 -0.045881 0.088797
0.279446 0.093092 0.036671
0.066811 -0.095208 0.029930
0.200677 0.088578 0.046480
-0.331006 0.071590 0.069902
-0.300301 0.088246 -0.046770
0.059399 -0.080060 0.059712
0.234071 0.050390 0.086442
-0.303094 -0.037341 0.092758
-0.270415 -0.003812 -0.099584
0.065455 0.099803 0.006503
0.429073 -0.087566 0.048009
-0.407677 0.062643 -0.077672
0.382712 -0.060954 -0.078801
0.067980 -0.083402 -0.054548
-0.081082 0.020820 -0.097494
0.049864 -0.012933 -0.098835
0.386221 0.058377 -0.080938
-0.185627 0.099199 -0.012458
0.105997 0.098828 -0.014797
0.270155 0.033044 -0.094077
-0.162248 0.066756 0.074531
-0.158128 0.065257 -0.075489
0.276153 -0.024571 0.096966
-0.427191 0.087264 0.048956
0.213674 -0.011424 -0.099012
0.228129 -0.058642 -0.080595
-0.416944 -0.088775 0.045637
-0.096909 0.098123 0.019406
0.149949 0.058148 -0.081094
-0.185698 0.034476 0.093924
-0.305569 0.089964 0.043761
-0.000575 0.098390 0.017925
-0.306141 -0.094339 -0.032196
0.074170 -0.098397 -0.016047
-0.345380 -0.098521 0.015628
0.387652 -0.009454 -0.099198
-0.209003 -0.070608 0.070651
-0.201488 0.047630 -0.087662
-0.171242 -0.070625 -0.070271
-0.307129 0.002445 0.099997
0.296474 0.098324 0.018345
-0.282165 -0.081238 0.058096
-0.320413 0.016501 0.098670
-0.021981 -0.084875 -0.052237
0.341931 -0.037860 0.092534
-0.039434 -0.008098 -0.099327
-0.112586 0.096626 0.025853
0.181716 -0.080036 0.059744
-0.157374 0.003202 0.099973
-0.152174 -0.016663 0.098608
0.072221 0.067130 0.074200
-0.027506 -0.063499 -0.076827
0.399217 -0.090081 -0.042711
0.019865 0.094379 0.033096
0.365376 0.093379 0.035875
-0.065349 -0.048655 -0.086967
-0.436964 -0.093551 0.034748
0.126797 0.067158 0.074176
0.297451 0.085412 -0.051725
-0.281760 -0.090528 0.042103
0.093314 -0.082589 -0.055745
0.058629 -0.043781 -0.089504
-0.206947 -0.085677 0.051244
-0.235419 0.054509 -0.083566
0.414239 0.096021 0.027935
-0.241379 0.026216 -0.096204
-0.102551 -0.017977 0.098399
-0.430275 0.098621 -0.016103
0.031336 -0.092005 -0.038328
-0.322333 -0.094431 0.032305
-0.245219 -0.004345 0.099930
0.094072 -0.085550 0.051459
-0.185733 -0.031794 -0.094443
0.326560 0.099412 0.010648
0.069213 -0.013828 -0.098694
0.431742 0.049579 -0.086559
0.103116 0.028247 0.095976
0.025027 -0.099502 -0.006856
-0.465707 -0.070095 -0.070801
-0.381319 0.053218 0.084769
-0.338889 -0.039111 -0.091630
-0.389288 -0.010104 0.099500
-0.056756 -0.025057 0.096835
0.345089 -0.085942 0.050796
0.140759 0.099203 -0.012428
0.200045 -0.073635 -0.067135
-0.388103 -0.036035 0.093278
0.464125 -0.083497 -0.054409
-0.270251 0.059109 -0.080414
0.316131 0.092973 -0.036631
-0.149627 -0.022066 0.097526
-0.297586 -0.048983 -0.086773
-0.315215 -0.078473 0.061758
0.154738 0.093046 0.036799
0.408776 -0.099241 0.009982
-0.431447 0.090819 0.041971
-0.363274 -0.031341 0.094968
0.081375 -0.099666 0.003544
0.156666 -0.061172 0.078995
-0.060657 -0.075320 0.065586
0.011428 -0.021498 0.097653
-0.370007 0.082954 -0.055550
-0.254247 -0.079254 -0.060389
0.161264 0.072088 0.069404
0.345578 0.089355 -0.044594
-0.283128 -0.068261 -0.072635
0.143557 -0.017612 0.098457
-0.454965 -0.071239 0.070020
-0.077859 0.096586 0.025990
-0.109117 -0.095645 -0.028064
0.422742 0.091308 0.040842
0.110429 0.015252 0.098868
0.144679 0.002508 -0.099632
-0.296185 0.099908 -0.002903
-0.155590 -0.092461 0.037638
-0.380943 -0.054648 0.083676
0.007599 0.054132 0.084185
-0.081443 -0.076950 0.063722
0.243775 0.066925 0.074382
-0.072214 0.079652 0.060540
-0.173052 -0.027305 -0.095819
0.246530 -0.051905 -0.085045
-0.156663 0.087702 0.048200
0.372879 0.099273 -0.011748
-0.421075 0.039259 -0.091667
-0.350883 0.098858 -0.014606
-0.381361 0.096058 -0.027444
-0.309232 -0.077715 -0.062374
-0.246606 -0.099612 -0.004916
0.022225 0.058289 -0.080997
-0.005589 -0.083322 -0.054665
0.262275 -0.092784 -0.036516
-0.404230 0.074967 -0.065889
-0.411180 -0.072625 0.068633
-0.315632 0.008956 -0.099267
0.407669 -0.029501 -0.095181
0.163858 0.028822 0.095809
0.219307 0.029942 0.095484
0.077240 0.062703 -0.077626
0.028667 0.001550 -0.099662
-0.273223 -0.000100 0.100063
0.038846 0.091149 -0.040845
-0.297405 0.089270 0.045123
0.278408 0.065344 0.075775
0.446233 -0.092182 0.038281
0.008030 -0.092738 -0.036635
-0.234252 0.012809 -0.098892
-0.118763 0.019453 -0.097799
0.130699 -0.001253 0.100027
-0.287142 -0.042749 0.090393
0.312236 -0.002897 0.099975
0.227030 -0.036486 0.093116
-0.167739 -0.092005 -0.038330
0.197331 -0.054371 -0.083502
-0.303826 0.098538 0.016993
-0.168531 -0.095495 0.028942
-0.398992 -0.054198 -0.083620
0.424238 0.085640 -0.051338
-0.396023 0.076058 0.065015
0.148456 0.009240 -0.099241
0.097491 0.053158 -0.084442
0.379083 0.041295 0.091149
-0.370592 0.069759 -0.071370
0.201839 0.011637 0.099377
-0.263522 0.093952 -0.033921
-0.024384 -0.080550 0.059081
0.328158 -0.074408 -0.066259
-0.155465 -0.095182 0.030020
0.219918 0.053344 0.084695
-0.411123 -0.000253 -0.099696
0.223844 0.085142 -0.052180
-0.321745 0.094357 0.033157
0.442044 0.032196 0.094745
0.355469 0.032466 -0.094285
0.169538 0.093745 0.034858
-0.012419 0.059355 0.080586
-0.231826 -0.092336 0.037926
-0.238485 0.077601 0.063183
0.057292 -0.055784 0.082904
-0.040314 -0.017173 -0.098164
0.194487 -0.001138 -0.099668
-0.337750 0.099567 -0.008637
-0.211699 0.046763 0.088466
0.377395 -0.096139 0.026727
0.338691 0.039831 -0.091419
0.124525 0.061178 -0.078808
0.237526 0.084845 0.053046
-0.440805 -0.038689 -0.091812
0.276875 0.031958 0.094830
0.226983 0.045965 0.088873
0.455741 0.094432 0.032951
0.185899 0.082479 -0.056249
0.044671 -0.016039 0.098706
-0.417231 0.065963 -0.074867
0.175518 -0.087215 -0.048281
0.429532 -0.096765 0.024437
0.294188 0.003338 0.099969
-0.423041 0.040949 0.091298
-0.038164 -0.095802 0.027886
-0.223356 -0.073539 0.067606
0.367421 -0.082002 0.056970
-0.095756 -0.078271 0.062020
-0.272168 -0.062756 -0.077404
-0.166280 -0.072992 0.068227
-0.134890 -0.099052 -0.011619
0.126349 -0.019229 -0.097797
-0.305215 -0.029687 -0.095127
-0.268599 -0.007777 0.099720
0.188393 -0.063136 0.077471
-0.052407 0.093703 0.034974
0.253177 0.039335 -0.091634
0.013967 0.063663 0.077244
-0.179253 0.096103 -0.027289
0.221138 -0.007292 0.099765
0.332836 -0.031219 -0.094650
0.198688 -0.047198 -0.087763
0.206929 0.091425 0.040572
0.020743 0.099851 0.005087
-0.147458 -0.063328 -0.076960
0.404541 -0.006348 0.099855
-0.043919 0.098088 0.019561
0.177022 -0.073341 0.067832
-0.225629 0.008562 0.099667
-0.311182 0.071549 -0.069580
-0.254061 0.017742 -0.098111
0.177742 -0.040655 -0.090962
-0.242510 0.093056 -0.036410
0.032066 -0.067645 -0.073178
-0.340584 -0.019807 -0.097668
-0.285977 -0.031569 0.094886
-0.072084 0.037923 0.092607
0.298196 -0.019808 0.098031
-0.054052 -0.005357 0.099898
-0.288970 0.076252 0.064794
-0.183354 0.050553 0.086345
-0.443120 0.078684 0.061787
0.167693 0.071625 -0.069505
0.075584 0.050923 0.086127
-0.260835 0.011498 -0.099027
0.011047 0.035993 0.093378
0.127519 -0.072430 0.068829
-0.207072 0.024016 0.097142
-0.130366 0.052037 0.085468
0.439442 -0.022081 -0.097160
0.215199 0.099596 0.008698
-0.237366 0.068174 0.073280
0.182675 -0.075663 0.065197
0.168727 0.005436 -0.099540
-0.002235 0.077324 0.063542
-0.184952 0.050724 -0.085882
0.366337 -0.094239 -0.032475
0.145450 -0.061888 0.078440
-0.126924 0.034528 0.093905
0.434096 -0.099439 -0.007530
-0.150567 0.093554 -0.035027
-0.071891 -0.085868 -0.050559
0.090733 -0.071988 0.069271
0.231143 -0.099631 -0.004295
0.106209 0.093633 0.035168
0.033692 -0.099223 -0.009816
-0.279089 0.099627 0.008364
-0.093465 -0.038862 -0.091737
0.256616 0.088534 0.046567
0.267187 0.015155 -0.098520
-0.322261 0.043599 0.090078
-0.378406 0.020389 0.097953
-0.260317 0.010385 0.099495
0.145333 0.088906 0.045837
-0.240326 0.099066 0.013658
0.289591 0.040378 -0.091183
0.249243 0.062582 0.078082
0.354047 0.011127 -0.099062
-0.448519 0.001869 0.100015
0.224790 -0.089743 0.043737
-0.417337 0.099414 0.010625
-0.283072 0.013206 -0.098829
0.406564 -0.096839 0.024104
-0.233776 -0.034522 0.093823
0.045212 -0.098525 0.015600
0.239428 0.003026 0.099979
-0.096399 0.062040 0.078502
0.216149 0.057352 0.081997
-0.185381 -0.049694 -0.086353
-0.000674 -0.099731 -0.001109
-0.036512 -0.068039 -0.072831
-0.021757 0.083026 0.055807
0.176258 -0.090997 0.041021
-0.172395 0.047274 -0.087843
-0.053025 0.064253 0.076737
0.371663 -0.010581 0.099455
-0.195073 -0.042422 -0.090196
-0.273444 -0.011018 -0.099050
-0.140886 -0.023067 0.097302
0.404448 -0.089010 0.045176
0.225152 0.079184 -0.060780
0.117355 -0.094443 -0.031909
-0.197525 -0.091953 -0.038449
-0.296209 0.057178 0.082115
0.336559 0.049099 0.087205
-0.229139 0.045895 0.088909
0.166235 0.034786 0.093812
0.325720 -0.014539 -0.098581
0.212833 -0.029774 0.095465
0.391965 0.029319 0.095665
0.016659 -0.030112 0.095367
0.024999 -0.082051 -0.056536
-0.089228 0.045310 0.089207
-0.070505 -0.063691 0.077027
0.073217 -0.065007 -0.075503
0.139930 -0.065437 0.075487
-0.353523 -0.036062 -0.092906
-0.078713 -0.081876 0.057157
0.045414 -0.099743 0.001110
0.183184 0.077501 0.063313
0.384712 -0.098744 0.014218
-0.315092 0.090210 0.043278
0.071283 -0.052925 0.084805
-0.221905 0.092972 -0.036634
0.049599 0.041351 0.091124
0.123116 -0.012378 -0.098922
-0.087266 0.091310 -0.040475
-0.033081 -0.092924 0.036489
-0.245075 -0.070794 -0.070102
-0.307202 -0.086768 -0.049036
0.444231 0.048254 -0.087343
0.075411 -0.069692 -0.071204
0.173438 -0.093184 0.035769
-0.379407 -0.077864 -0.062181
-0.235175 0.047152 0.088268
-0.257814 -0.028242 0.095910
-0.249256 -0.097345 -0.021477
0.454344 -0.075819 -0.064658
-0.205681 -0.009536 0.099553
0.145030 0.092373 -0.038017
-0.048062 0.082184 -0.056684
-0.108555 -0.088357 -0.046093
0.004526 -0.098082 -0.018032
0.434232 -0.094057 -0.032980
-0.069677 -0.090689 -0.041371
0.434438 0.004167 0.099943
-0.199806 0.074871 0.066361
0.151132 0.071434 -0.069696
-0.273110 -0.091206 -0.040176
-0.349262 0.048736 0.087420
0.418609 0.086821 0.049704
0.367816 0.009281 0.099600
-0.361114 -0.008172 -0.099320
0.287175 -0.018795 -0.097894
-0.228018 -0.083230 0.055164
-0.206229 0.044716 0.089509
-0.087871 -0.098845 0.013577
-0.300664 -0.028795 0.095749
-0.357043 -0.094352 0.032525
0.314506 -0.063002 0.077576
-0.002906 -0.065118 0.075769
0.142039 0.081010 0.058774
-0.138073 -0.042167 0.090670
0.203162 0.060354 0.079811
0.307283 0.088059 0.047500
0.308108 -0.040695 -0.090944
-0.083243 -0.069106 -0.071790
-0.041716 0.084319 -0.053543
0.336959 -0.001122 0.100031
0.252063 -0.093423 -0.034740
-0.314768 -0.094212 0.032912
0.010470 0.088539 -0.046194
0.224529 0.052127 -0.085052
0.053250 0.032477 0.094644
0.133169 0.056116 0.082837
0.432619 0.093116 0.036605
-0.200757 -0.061786 0.078519
-0.082081 0.071061 -0.070068
-0.458956 -0.006398 0.099850
0.178024 0.024546 -0.096661
0.465104 -0.068859 -0.072037
0.100356 0.060450 -0.079374
-0.082603 -0.014395 0.098967
-0.420713 -0.064925 -0.075576
0.269998 0.038985 -0.091785
0.213118 -0.003925 0.099943
-0.159956 0.006620 -0.099488
-0.394664 -0.099602 -0.005220
0.439794 -0.079363 0.060612
0.338759 -0.052126 -0.084914
-0.208995 0.001703 -0.099657
-0.356526 -0.099650 -0.003710
-0.372649 0.099857 0.004882
-0.001726 0.052254 -0.084977
0.190455 -0.099291 0.009453
-0.055655 0.096289 0.027013
0.350053 -0.003512 -0.099593
-0.444539 -0.049093 -0.086708
0.288690 -0.024637 -0.096589
-0.428889 -0.061541 -0.078346
-0.361029 0.098844 0.015060
0.451782 -0.050527 -0.085860
-0.369902 -0.004566 0.099923
-0.411412 -0.057600 -0.081307
0.156475 0.099122 0.013302
-0.252412 -0.067569 0.073608
-0.330292 0.041472 -0.090709
0.257931 -0.023790 0.097141
0.034746 0.039434 -0.091591
0.386044 -0.079561 0.060356
0.003631 0.054917 -0.083289
0.238691 0.046534 0.088583
-0.021182 -0.099698 -0.002166
-0.296973 -0.010665 -0.099084
0.217960 -0.064846 0.076008
-0.151348 -0.084948 0.052477
0.308604 -0.061083 0.079064
-0.268057 -0.041854 -0.090443
0.029434 -0.023547 -0.096832
-0.138287 -0.017540 -0.098106
0.281116 -0.098336 0.016796
0.055182 0.019064 -0.097886
-0.165527 -0.053264 0.084604
0.394504 -0.040303 -0.091114
0.177448 -0.024196 -0.096687
0.150598 -0.059179 0.080541
0.294311 -0.077351 0.063206
-0.203650 0.096800 0.025253
0.082410 -0.095546 -0.028403
0.052022 0.050376 0.086450
-0.315023 -0.097779 0.019898
-0.447645 0.002464 -0.099633
0.409879 0.085100 -0.052252
-0.456292 0.031958 0.094830
-0.370443 -0.034886 0.093692
0.393039 -0.007659 0.099731
-0.328002 -0.087984 0.047190
-0.126499 0.090566 0.042556
-0.446937 0.085602 0.051766
0.111003 -0.089387 0.044436
-0.446916 -0.083800 -0.053963
0.137602 0.097230 0.023400
-0.283765 0.061110 -0.078861
-0.378849 0.022285 -0.097167
0.186099 -0.016381 -0.098289
-0.172054 0.100001 0.000039
-0.053777 -0.099321 0.009141
0.059556 0.012116 -0.098969
0.436176 0.013588 0.099132
0.029297 -0.080453 0.059206
0.095449 -0.045557 0.088962
-0.296288 0.006046 -0.099521
0.158479 0.095579 -0.029095
0.141503 0.052078 -0.085081
-0.008331 0.081076 0.058678
-0.036670 -0.032327 -0.094251
-0.182392 0.096237 0.027191
-0.365085 -0.042050 0.090721
0.077330 -0.009750 -0.099170
0.095920 -0.076552 0.064189
-0.286621 -0.049678 -0.086362
0.262014 -0.085616 0.051347
0.139338 -0.078641 -0.061180
0.265992 0.045002 0.089363
0.390435 0.080512 0.059431
-0.323804 -0.099700 0.002472
-0.379102 0.045849 0.088932
-0.339877 -0.058793 0.080840
0.087534 0.027915 0.096073
0.145336 -0.027345 -0.095808
0.222174 -0.098159 0.017911
-0.436869 0.041018 0.091268
0.373863 -0.098375 0.016550
0.266295 0.002902 0.099982
0.091903 -0.091737 -0.038949
-0.129019 0.095770 -0.028435
0.026425 -0.096014 -0.026793
-0.292267 0.091929 0.039405
-0.083768 -0.099482 -0.007074
-0.393747 -0.099052 0.011986
0.463367 -0.099257 -0.009449
-0.197845 0.095800 0.028697
-0.021677 0.097762 0.021020
0.115215 0.037702 -0.092340
0.300354 0.010679 0.099467
-0.143783 0.061484 -0.078571
-0.137315 0.048254 -0.087342
0.129137 0.083988 -0.054029
0.450818 0.099875 0.004338
-0.006809 0.044828 -0.089089
0.225711 -0.026272 -0.096119
0.017560 0.096117 0.027606
-0.201118 0.086878 0.049608
0.334287 -0.073310 -0.067504
0.443633 0.059878 -0.079817
0.318662 0.006230 -0.099515
0.258039 0.000527 -0.099694
-0.444813 0.035622 -0.093149
0.457337 -0.045867 -0.088441
-0.320930 0.050905 -0.085775
0.056009 0.099982 0.000925
-0.232355 -0.066969 0.074137
0.338562 -0.067810 -0.073033
0.121634 0.057487 0.081906
-0.296390 -0.094842 0.031162
-0.254782 -0.089144 -0.044550
0.248680 -0.099648 0.004138
-0.396626 -0.010125 -0.099135
0.102489 0.040068 -0.091316
0.225154 -0.039074 -0.091646
0.073965 -0.081724 -0.057018
-0.014627 0.081360 -0.057897
-0.267600 0.088880 -0.045526
0.271434 0.075606 -0.065165
-0.133468 0.094422 -0.032614
0.407056 0.039579 0.091891
0.171813 0.086367 0.050472
-0.004630 0.022437 0.097495
0.230502 0.091420 0.040583
-0.270311 0.091394 0.040643
0.417866 -0.099709 0.002183
0.128373 -0.086505 0.049844
0.216371 -0.098940 -0.012615
-0.260398 -0.098891 0.013291
-0.348254 0.086748 -0.049465
0.288056 0.098061 0.019682
-0.121637 0.097621 0.021649
-0.243304 -0.025277 -0.096409
0.326564 0.086548 -0.049804
-0.007114 -0.095667 0.028352
-0.130828 0.086908 -0.049194
0.226279 0.088519 0.046598
0.425721 -0.067955 0.073267
0.229613 0.085056 0.052688
-0.347972 -0.075377 -0.065159
0.105420 -0.054716 0.083630
-0.262911 -0.089735 0.043751
0.343747 -0.063966 0.076785
0.049369 -0.019100 -0.097826
0.329402 -0.058077 0.081346
-0.236981 0.092818 0.037352
-0.212093 -0.049919 -0.086220
-0.442705 0.023569 -0.096879
0.386736 0.039994 0.091712
0.034306 0.099376 -0.010667
0.165657 -0.056978 -0.081730
-0.450748 0.047142 -0.087910
0.401381 0.061175 0.079174
-0.285296 0.099563 -0.008685
-0.143016 0.075060 0.066147
-0.131009 -0.097739 -0.019714
-0.376064 -0.096667 -0.024511
0.157137 0.001763 0.100018
-0.434870 0.007944 0.099726
-0.396763 0.093135 0.036554
-0.089965 -0.092889 0.036587
-0.426093 -0.005195 0.099903
-0.083397 -0.091838 0.039078
-0.335823 0.048898 0.087324
0.029525 -0.042359 0.090587
0.126524 0.003425 0.099966
0.431450 -0.093045 0.036153
-0.275962 0.062238 -0.077987
0.246015 -0.087546 0.048048
0.259910 -0.039550 0.091802
0.236555 -0.063860 0.076878
0.418451 -0.050412 -0.085928
0.419224 -0.091313 -0.039928
0.256423 0.098394 -0.017538
0.297047 0.095100 -0.030730
0.083520 -0.020121 -0.097598
-0.193415 -0.028237 0.095911
-0.057037 0.098536 -0.016639
-0.105864 0.099067 0.013650
0.382875 0.092338 -0.038099
-0.218720 -0.065062 -0.075456
-0.025369 -0.057927 0.081448
0.299982 -0.091170 -0.040258
-0.281977 0.011027 0.099434
0.232327 -0.094153 0.033075
-0.213062 0.078018 -0.062283
-0.361511 -0.015461 0.098798
0.344780 -0.016445 -0.098279
0.025935 0.098797 0.015359
-0.466192 0.099867 0.004566
0.046452 0.086043 -0.050656
-0.458143 -0.091119 0.040738
0.059566 0.097792 0.020883
-0.361344 0.094315 -0.032911
-0.309213 0.055653 0.083152
-0.226851 -0.097369 0.021732
-0.178407 0.077280 0.063598
0.450479 0.063543 0.077337
-0.411658 -0.049280 0.086960
-0.338496 -0.053479 -0.084108
0.098534 -0.099754 0.000749
0.244970 0.034133 0.094047
-0.072218 -0.057668 -0.081261
-0.272320 -0.085047 -0.051947
-0.301150 0.052485 -0.084840
0.332684 0.072063 -0.069067
0.023104 0.097426 0.022521
-0.041142 0.097522 -0.021732
-0.029289 0.020321 -0.097606
0.170964 -0.074390 -0.066279
0.010656 -0.038955 0.092060
-0.069281 0.099621 0.008430
0.223433 -0.071352 -0.069544
-0.054052 0.082321 -0.056482
0.394505 0.052281 0.085324
0.121749 0.090872 0.041848
0.142675 -0.038070 -0.092080
-0.116934 -0.065256 0.075647
0.462262 0.099931 0.002536
-0.293659 -0.047834 0.087802
-0.239175 0.089781 0.044120
0.036719 0.062017 -0.078158
-0.242762 -0.093414 0.035128
-0.148876 -0.099042 -0.011731
0.303305 -0.024715 -0.096571
-0.423472 -0.096020 -0.026772
0.224421 0.070387 0.071105
-0.459974 0.089070 0.045515
-0.242573 -0.032251 0.094641
0.099100 0.094599 0.032487
-0.118011 -0.085793 0.051047
-0.141028 -0.090944 -0.040780
-0.249560 0.085804 -0.051062
0.281945 0.099189 0.012884
-0.004948 -0.097449 -0.021014
-0.064817 -0.068070 -0.072804
-0.341206 0.047550 -0.087702
0.118723 0.042380 0.090679
0.158414 -0.008282 0.099672
-0.141886 -0.079223 0.060792
-0.165253 -0.094217 -0.032536
-0.432378 -0.085365 -0.051409
0.244716 0.096763 0.025380
0.146246 0.057263 0.082058
-0.466259 -0.006365 0.099853
-0.114360 -0.034121 -0.093605
-0.020468 0.084302 -0.053567
-0.217523 -0.050668 0.086140
-0.421974 -0.031670 -0.094487
0.227253 0.096741 -0.025096
0.302455 0.082908 -0.055619
0.445222 -0.091946 -0.038464
0.084705 -0.091347 -0.039850
-0.271831 -0.062849 0.077694
0.193938 0.093096 -0.036299
-0.466448 0.078877 0.061539
-0.094248 0.083188 0.055570
0.403089 0.009024 -0.099261
0.394260 -0.077580 -0.062547
0.292134 0.096639 -0.025445
-0.275886 -0.037691 0.092607
0.186289 0.013095 0.099210
0.424154 -0.031320 -0.094613
-0.377543 0.099998 -0.000060
-0.461412 -0.099077 -0.011361
0.035762 0.000073 -0.099706
-0.363091 0.099590 0.008761
-0.041120 0.026986 0.096343
0.202005 -0.068752 -0.072144
0.356356 -0.098145 0.017998
-0.360684 0.088033 -0.047187
-0.075716 -0.015015 0.098869
0.147759 0.040738 -0.091026
-0.330515 -0.069476 0.071782
-0.443589 0.072802 0.068690
-0.235453 -0.016878 0.098574
-0.359292 -0.045756 -0.088498
-0.354963 -0.082743 0.055881
0.081048 -0.043968 -0.089409
0.274886 0.097191 0.023572
0.341495 0.099085 -0.013177
-0.406860 0.083958 0.054436
-0.448179 -0.067853 0.073357
-0.447587 -0.072764 0.068486
0.335145 0.009043 -0.099259
-0.163365 -0.014131 -0.098646
-0.195664 -0.078500 0.061725
0.330723 0.059222 0.080689
-0.442440 0.088535 -0.046203
0.222454 0.084477 0.053669
0.376166 0.099835 0.005611
0.350263 0.090730 0.042178
0.292015 0.087992 -0.047269
-0.161083 -0.087106 -0.048466
0.322499 0.088627 0.046384
-0.307332 0.017194 0.098560
0.003849 -0.048659 0.087328
0.107841 -0.017625 -0.098092
-0.068832 0.099989 0.000683
0.290991 0.066495 -0.074398
-0.041077 -0.040296 0.091480
-0.320695 -0.009316 -0.099211
0.409925 -0.099601 -0.005271
-0.373098 0.065695 -0.075103
0.169822 0.032120 -0.094409
0.395187 0.037892 -0.092258
-0.114133 -0.000733 -0.099681
-0.043965 0.028852 -0.095438
0.330209 -0.018201 0.098364
-0.431625 0.093186 0.036412
-0.055509 -0.053004 -0.084395
0.076951 -0.024146 -0.096698
0.422033 -0.041333 0.091031
-0.318752 0.032323 0.094699
-0.100682 0.017958 0.098439
0.060094 -0.078315 -0.061599
0.376317 0.098471 -0.017050
0.236730 -0.096274 -0.025897
0.170432 0.099899 0.003572
0.049669 -0.076552 0.064190
0.372265 0.087436 -0.048301
-0.137198 -0.062199 -0.077836
-0.450006 0.099407 -0.010336
-0.215488 0.047686 -0.087633
0.381899 0.003284 -0.099608
-0.223803 -0.090979 0.041061
0.127325 -0.082713 0.055925
-0.049547 0.090126 -0.043081
0.082892 0.033302 0.094347
-0.061536 -0.045400 0.089042
-0.094281 0.087916 0.047780
0.399185 0.023292 -0.096941
0.198780 -0.033294 0.094265
0.104660 -0.007768 0.099720
0.388655 -0.039421 -0.091495
-0.175134 -0.011062 0.099409
-0.120502 -0.068957 0.072302
-0.370721 0.007358 -0.099419
0.204642 0.066414 -0.074469
0.399457 0.021923 0.097610
-0.000185 -0.098018 0.018804
-0.007316 -0.007456 -0.099387
-0.435363 -0.020140 -0.097594
0.190530 -0.085824 0.050996
0.240528 0.022643 -0.097087
-0.392914 0.043428 -0.089803
0.299949 0.032857 0.094507
0.103540 -0.092753 0.036963
-0.398874 0.008853 -0.099277
0.069830 0.088415 -0.046439
-0.240396 -0.090770 -0.041183
0.337798 -0.086059 0.050599
0.459260 0.086939 0.049505
0.208152 0.011996 0.099343
0.256736 0.081231 0.058448
-0.168164 -0.081774 0.057306
-0.411832 0.038328 -0.092069
-0.214765 0.023976 0.097151
-0.374088 -0.099083 -0.011297
0.076798 0.001412 0.100029
-0.054021 -0.076891 0.063799
-0.318125 0.098634 -0.016026
-0.047870 0.055884 0.082995
0.328375 -0.040780 0.091270
-0.308663 0.097379 -0.022369
0.054546 0.024703 -0.096626
0.463557 -0.019897 -0.097648
0.412155 0.088020 -0.047214
-0.241053 0.043508 0.090125
-0.418786 -0.088168 -0.046465
-0.099115 0.099921 0.002875
-0.320219 -0.095172 -0.029691
-0.042632 -0.042215 -0.090287
0.037523 -0.065060 0.075820
0.120499 -0.024409 0.097002
-0.323806 -0.054317 -0.083538
0.460334 -0.092009 0.038682
0.314170 -0.085430 -0.051299
0.222087 0.099818 -0.005763
-0.317283 0.079392 -0.060512
0.135116 0.038325 -0.092071
0.171680 0.066213 0.075009
0.161767 -0.031797 -0.094441
0.367821 0.063204 -0.077237
-0.243862 -0.046207 -0.088268
0.349511 -0.033444 0.094211
-0.000648 -0.014716 -0.098553
-0.177495 -0.046613 0.088424
-0.208432 0.085451 0.052021
0.177577 -0.048184 -0.087246
-0.005850 0.093350 0.035956
0.202047 0.082157 -0.056723
-0.326163 0.099871 -0.004101
-0.148060 -0.081797 0.057272
0.237424 -0.072605 0.068654
-0.061758 0.041882 0.090894
-0.201928 -0.045704 0.088887
0.062904 -0.044826 0.089334
0.357095 -0.087674 0.047796
0.111646 -0.095948 0.027383
-0.442449 0.042053 -0.090458
-0.179180 0.046607 0.088545
0.064221 0.085735 -0.051178
-0.015274 0.099326 0.011557
-0.296529 -0.010975 0.099417
0.067772 0.027430 0.096214
0.227927 -0.043174 0.090176
0.349484 -0.077663 -0.062440
-0.259106 0.041735 -0.090595
0.118485 0.066480 -0.074411
0.350907 -0.099537 -0.006491
0.244852 -0.057242 -0.081551
-0.095711 -0.099590 -0.005611
-0.007513 0.065167 -0.075568
-0.377384 0.061740 -0.078373
-0.091198 -0.071160 -0.069736
0.420999 -0.083303 -0.054694
0.275164 -0.091226 -0.040128
-0.208506 -0.098787 -0.013582
-0.313972 0.019604 0.098128
0.177469 -0.041433 0.090988
0.005325 0.097961 0.020128
-0.099523 -0.060571 -0.079098
0.368490 -0.088225 -0.046353
-0.210887 0.098996 0.014098
0.144285 0.099729 -0.006926
-0.289244 -0.085555 0.051450
0.196191 -0.092432 0.037705
0.280605 0.057555 -0.081497
0.255300 0.018919 0.098282
-0.180444 0.038674 0.092282
-0.167229 0.051175 -0.085615
-0.407279 0.043013 -0.090014
0.314529 -0.062589 -0.077533
0.200133 -0.099526 0.006973
0.263117 -0.027206 -0.095848
0.451572 -0.099617 0.005101
-0.088554 0.078661 -0.061455
0.376145 -0.055631 -0.082645
-0.421350 0.079753 0.060409
0.091119 -0.053930 0.084164
0.051521 0.089936 0.043817
-0.400946 0.091024 -0.041136
-0.279813 -0.054305 -0.083547
-0.052804 -0.098957 -0.012513
-0.234291 -0.009640 0.099543
-0.254461 -0.094844 -0.030794
0.383998 -0.017950 0.098404
-0.099921 0.007383 0.099779
-0.116301 0.097855 -0.020239
0.130723 0.013962 -0.098710
0.285743 -0.096456 -0.025270
0.282332 0.048768 -0.087038
0.366677 -0.036901 0.092949
-0.313699 -0.080902 -0.058227
0.384949 -0.055964 -0.082419
-0.186433 -0.098119 0.018165
0.268696 -0.090845 -0.041009
0.012447 0.096033 -0.027530
-0.321563 -0.080378 -0.058941
0.228722 -0.030861 0.095141
-0.299338 -0.082500 -0.055876
0.029432 0.099666 -0.007591
0.238503 0.096886 -0.024577
-0.294168 0.094517 0.032714
0.328934 0.053388 -0.084306
0.104231 0.099952 0.001887
0.436731 -0.075284 0.065628
-0.212108 0.075859 0.065240
0.338367 -0.038674 -0.091819
-0.386037 -0.094607 0.031815
-0.023593 0.098551 -0.016544
-0.094525 -0.085693 -0.050854
-0.251915 0.003236 0.099972
-0.191530 -0.099770 0.000233
0.435654 0.064942 0.076129
-0.083015 -0.078705 -0.061097
0.402695 -0.070384 0.070874
0.160567 0.051170 0.085980
-0.397249 -0.099761 0.000520
0.405308 0.000158 0.100069
-0.036930 0.070138 -0.070991
-0.109195 -0.081977 0.057007
0.119094 -0.061857 0.078464
0.192038 -0.094641 -0.031359
0.272436 0.035757 0.093463
-0.207157 0.014693 0.098957
-0.444976 -0.097620 -0.020249
0.096994 -0.094532 0.032024
-0.052502 0.089923 0.043841
-0.261344 0.099857 0.004897
0.054307 0.079454 -0.060433
0.197614 0.096440 -0.026131
-0.450941 0.012512 -0.098931
0.088274 0.083816 0.054645
0.435337 -0.098607 0.015085
-0.279777 0.083081 0.055727
0.312984 0.090644 0.042377
0.383812 -0.009000 0.099604
-0.200639 -0.086535 -0.049430
-0.364521 0.093166 0.036466
0.019112 0.019833 0.098077
-0.287020 0.080512 -0.059068
-0.215352 -0.099064 -0.011498
-0.252747 -0.075073 -0.065505
0.093864 -0.065783 0.075182
-0.346316 0.099371 -0.010719
0.269507 0.017043 0.098584
-0.286013 -0.081646 -0.057132
0.168400 -0.031827 -0.094431
0.071955 0.097428 -0.022150
0.051515 -0.085685 0.051231
0.079690 0.099964 -0.001127
0.177238 0.098280 0.018619
-0.207256 -0.097778 -0.019539
-0.003425 -0.084463 0.053297
-0.329058 -0.097036 -0.022860
0.357075 -0.044290 -0.089244
-0.423261 -0.071899 -0.068997
-0.397023 -0.091725 -0.038975
0.182737 0.098741 0.015712
-0.326833 0.079572 0.060643
0.019829 0.099933 -0.002108
0.329141 0.083559 -0.054660
0.374577 -0.086808 -0.048968
-0.203662 0.098169 0.019200
0.213137 0.016233 0.098713
0.136029 0.033996 0.094097
0.325688 -0.092642 0.037219
-0.142819 -0.098829 -0.013316
0.301306 0.039534 0.091910
-0.092818 -0.096630 -0.024671
0.276772 0.007382 0.099779
0.363153 0.042909 -0.090067
-0.124759 -0.034810 0.093720
0.324797 -0.047208 -0.087758
-0.342920 0.008556 0.099668
0.340452 0.014670 -0.098597
-0.210152 0.007017 0.099813
0.224706 0.032300 -0.094344
-0.287326 -0.023610 -0.096818
0.115827 0.085777 0.051470
-0.448455 0.057931 0.081604
-0.430108 0.025756 -0.096337
-0.312538 -0.003235 0.099965
-0.459351 0.097690 -0.020977
-0.290817 0.084690 -0.052946
0.269116 -0.079671 0.060215
-0.428334 0.056331 -0.082328
-0.011293 -0.094179 0.033005
-0.457859 -0.088180 -0.046442
0.109891 0.058143 -0.081097
0.076974 -0.042147 0.090679
0.317844 -0.094533 0.032020
-0.303867 0.044743 0.089496
0.300172 -0.099680 0.003101
0.020304 -0.097798 0.019815
-0.234196 -0.024621 0.096955
0.138792 -0.062365 -0.077707
-0.426155 0.097197 -0.023183
-0.135933 0.025470 0.096783
-0.439671 -0.062513 -0.077592
0.419587 0.095990 -0.027680
0.309162 -0.099721 -0.001434
0.244801 -0.075357 0.065544
0.335656 0.089468 -0.044372
-0.293793 -0.042431 0.090554
0.031423 -0.056138 -0.082301
0.168429 0.061850 0.078650
-0.326148 0.083654 0.054884
-0.466824 0.074952 -0.065907
-0.302340 -0.090777 -0.041167
-0.188810 0.037739 -0.092325
0.340939 0.091602 -0.039799
-0.129283 -0.009368 0.099569
0.380706 0.088244 -0.046775
-0.244686 0.031600 -0.094596
0.398624 0.075212 0.065974
0.384891 -0.099133 -0.010761
-0.347836 0.055482 -0.082905
0.125604 -0.095306 -0.029232
0.046315 0.007582 0.099760
-0.356536 -0.096461 -0.025254
-0.363486 -0.093717 0.034287
0.335069 0.099857 -0.004526
-0.256388 0.090964 -0.041273
0.316608 0.090501 -0.042345
0.109351 -0.054611 -0.083338
0.313544 -0.097505 0.021124
0.302233 -0.017096 -0.098176
-0.062556 0.056595 0.082512
-0.410691 -0.041035 0.091160
-0.130666 -0.094428 -0.031949
-0.425611 -0.020015 -0.097622
-0.269650 -0.075411 -0.065121
-0.193626 -0.072146 -0.068750
0.213076 0.030724 -0.094894
0.084685 0.098599 -0.016245
-0.452285 -0.076311 0.064463
-0.088809 0.095567 -0.029136
0.134063 -0.088687 0.045810
-0.417531 -0.051045 0.085917
-0.018292 -0.072182 -0.068714
-0.363573 0.063773 -0.076796
-0.412643 -0.086301 0.050190
-0.071128 -0.095372 -0.029004
-0.184601 -0.013356 0.099131
-0.390649 0.013718 -0.098748
0.316254 -0.038515 0.092251
-0.042726 -0.027789 0.096041
0.026241 0.099973 -0.000831
0.352615 0.054895 0.083667
-0.107266 -0.073648 0.067484
-0.218169 -0.093480 -0.034583
0.219616 0.001278 0.100034
-0.386491 -0.051680 0.085541
-0.001224 -0.085983 -0.050363
0.163611 0.041945 -0.090504
0.339979 0.071992 0.069500
-0.074725 0.063298 -0.077164
0.159269 0.059213 0.080696
0.073043 -0.099393 0.008375
-0.324031 0.043614 -0.089708
-0.191677 0.068376 0.073102
-0.437962 -0.033240 0.094285
-0.111023 -0.060842 0.079251
-0.186609 -0.090607 -0.041559
0.359572 -0.050731 0.086102
-0.251909 0.071967 0.069526
0.343569 0.072885 -0.068244
0.294750 0.029884 -0.095138
0.201127 0.086364 -0.050115
0.339859 -0.099368 0.008645
0.264048 -0.082208 0.056668
0.094295 -0.086292 -0.049842
-0.114575 0.000018 0.100067
0.018206 0.089758 0.044165
-0.372539 0.088012 0.047593
-0.133007 0.017953 0.098440
-0.268657 0.094144 0.033751
-0.341557 0.094084 0.033916
0.153689 -0.032599 -0.094153
0.225616 -0.012114 -0.098947
0.383662 -0.019099 -0.097827
0.163031 -0.001077 0.100032
0.113341 -0.089157 -0.044524
0.193564 0.083839 0.054612
0.387938 0.046251 0.088727
-0.049748 -0.040346 -0.091095
-0.126517 0.063049 0.077720
0.075886 -0.038340 -0.091963
0.283795 -0.001589 0.100016
0.301770 0.084672 0.053338
-0.143054 -0.089565 0.044086
-0.326807 0.014840 -0.098571
-0.129050 -0.096112 0.026819
-0.425710 0.028165 0.096000
-0.359726 0.087833 0.047944
0.233230 0.044376 0.089682
0.459066 -0.086196 -0.050005
0.386245 0.092204 0.038770
-0.028106 -0.097760 -0.019620
0.127027 0.099868 0.004557
0.402823 -0.051677 -0.085180
-0.172345 -0.084024 0.053997
-0.054048 0.099326 0.011558
0.250229 -0.040641 -0.090968
0.005282 0.072985 0.068500
-0.270493 0.083659 -0.054513
0.104408 -0.081529 0.057668
0.212261 0.012570 -0.098926
0.250018 -0.097633 0.020553
-0.080011 -0.097729 0.020124
-0.129663 -0.030390 0.095286
-0.117129 -0.021223 -0.097352
0.389891 -0.022773 0.097368
0.011529 -0.045904 -0.088422
0.346624 0.063721 -0.076836
-0.235057 0.025215 -0.096494
0.070559 0.085027 -0.052376
0.322575 -0.070777 -0.070119
-0.421030 0.049871 0.086749
0.225018 -0.013537 0.099103
0.023776 -0.065788 0.075178
-0.091382 0.099643 -0.007833
0.092904 0.094086 -0.033548
-0.170114 0.037726 0.092693
-0.013559 0.088390 0.046850
0.139931 0.033770 -0.093815
-0.207863 -0.099621 -0.004614
-0.292400 -0.070586 0.070672
0.458636 -0.095779 -0.027603
-0.412891 0.069095 0.072397
-0.178983 0.088448 -0.046374
0.117900 -0.099186 -0.010207
-0.119113 -0.080819 -0.058348
0.063625 -0.061643 0.078630
-0.176940 -0.044632 -0.089070
-0.129318 -0.063566 -0.076774
-0.150594 0.070028 -0.071102
0.411078 -0.099719 0.001880
-0.052547 0.074405 -0.066526
0.231113 0.086334 -0.050165
0.088465 0.098207 0.019029
-0.254757 0.091378 0.040679
-0.198539 0.099164 0.013039
-0.441165 0.093424 -0.035386
-0.228381 0.094560 -0.032231
-0.292216 0.012537 0.099292
0.442122 0.021171 -0.097415
0.414835 0.054874 -0.083319
-0.021043 -0.071265 0.069993
0.086973 0.040309 -0.091212
0.204060 0.018810 -0.097942
0.306164 -0.034978 -0.093296
-0.384358 0.025768 -0.096334
0.081441 0.097112 0.023929
-0.208799 -0.052461 0.085079
-0.175991 0.075163 -0.065667
0.420777 -0.024879 -0.096524
0.203080 0.019207 0.098217
0.256363 -0.027335 -0.095811
0.113179 0.048237 0.087715
-0.083046 -0.099666 0.003552
-0.410663 -0.051344 -0.085377
-0.108418 -0.093679 -0.034031
0.003329 -0.064937 0.075929
-0.204727 -0.033816 0.094077
0.066106 0.097450 0.022414
0.389494 -0.031045 0.095075
0.378810 -0.096225 -0.026067
0.447988 -0.016972 0.098559
-0.312389 0.025815 0.096683
-0.132866 0.072151 0.069341
0.148670 -0.090806 0.041463
-0.383819 0.012914 0.099238
0.185796 0.072924 0.068568
-0.173801 0.085880 0.051295
-0.309305 -0.096877 0.023934
0.298490 -0.026049 0.096547
-0.172681 -0.095592 -0.028244
-0.119345 -0.099749 -0.000539
-0.180327 -0.098289 0.017089
-0.446678 -0.043320 0.090101
0.437020 -0.046237 0.088615
-0.232632 -0.099679 0.003125
-0.453057 0.070449 0.071043
-0.206003 -0.078536 -0.061314
0.075965 -0.068459 0.072800
-0.021304 0.071408 0.070084
0.282526 0.029911 0.095493
-0.122064 0.085927 -0.050853
-0.203985 -0.093243 -0.035241
0.457284 -0.062817 0.077719
0.156288 -0.084570 0.053116
0.272225 0.018274 -0.098027
0.382166 0.099939 0.002293
-0.331566 -0.094181 0.032998
0.372625 -0.013234 -0.098788
-0.295807 0.035436 0.093578
0.082354 0.003397 -0.099604
0.116830 -0.033074 0.094345
-0.180340 -0.061487 -0.078388
0.355218 -0.084780 0.052761
0.334532 -0.053422 0.084509
-0.295353 -0.086611 0.049666
0.013391 -0.034092 -0.093615
-0.102141 0.094281 0.033369
0.222210 -0.083865 -0.053866
0.258292 -0.033397 -0.093865
-0.288019 -0.089179 0.044843
0.390890 -0.063698 -0.076658
-0.115578 0.035146 -0.093320
0.097006 -0.054406 -0.083478
-0.413426 -0.064966 0.075903
-0.438685 0.062763 -0.077579
0.216712 -0.057550 0.081704
-0.074432 0.086556 -0.049790
-0.170669 -0.050061 -0.086136
-0.122618 0.071098 0.070395
-0.403394 0.086270 -0.050273
-0.281830 0.056484 -0.082225
0.335207 -0.090367 0.042477
-0.197789 0.032910 -0.094125
0.235898 -0.093311 -0.035052
-0.309785 0.046803 -0.088083
0.169019 -0.097739 -0.019715
-0.406174 -0.056872 0.082165
0.214391 0.098864 0.014934
-0.057160 0.044517 -0.089248
-0.083584 -0.097534 -0.020634
0.457197 0.097818 0.020767
0.175615 0.040932 0.091306
0.018031 -0.029663 -0.095134
-0.289651 -0.015885 0.098731
-0.144580 0.060369 0.079799
0.306250 -0.093549 -0.034390
0.051010 0.095018 0.031322
0.174891 0.050073 -0.086267
-0.178525 -0.059062 0.080632
-0.416891 0.062609 0.078061
-0.076063 -0.023882 -0.096757
0.391185 0.035229 0.093653
-0.339794 0.072881 0.068611
0.131555 0.096856 0.025063
0.159955 -0.046398 0.088533
-0.021492 0.009442 -0.099221
0.260477 -0.098277 -0.016802
-0.126985 -0.087692 -0.047400
-0.400946 -0.099599 -0.005333
-0.085435 0.082110 -0.056793
0.275368 0.087863 0.047884
-0.049968 0.068463 0.073026
0.358426 -0.012191 0.099302
-0.224143 -0.004130 0.099936
-0.369812 0.097598 0.021752
0.012661 0.026492 0.096486
-0.214439 -0.020590 0.097856
0.298520 -0.076481 -0.063907
0.265940 -0.045699 0.088889
0.447424 0.076308 -0.064368
0.095627 0.091190 -0.040752
0.337584 -0.096588 0.025181
-0.402943 -0.016411 -0.098285
-0.348635 -0.076042 0.064768
-0.062961 0.099263 -0.011861
0.029519 -0.013506 -0.098745
-0.416431 -0.011321 -0.099022
-0.246297 -0.056850 -0.081817
0.075313 -0.087948 0.047259
-0.396417 0.065636 -0.075155
-0.114906 -0.007454 -0.099387
0.122022 0.038202 -0.092124
-0.216978 -0.029769 -0.095103
0.193552 -0.099177 -0.010304
-0.032514 -0.099453 0.007744
-0.370423 -0.095020 0.030576
-0.007875 -0.099606 -0.005109
0.383502 -0.028900 -0.095356
0.062506 -0.092371 0.037845
0.296382 -0.042839 -0.089984
0.340610 -0.029770 -0.095103
-0.220757 -0.099247 0.009917
-0.195218 0.018734 0.098316
0.373669 -0.079575 0.060339
0.318199 0.038065 -0.092183
0.458372 -0.032495 -0.094190
0.162823 -0.099621 -0.004620
-0.148077 -0.071167 -0.069729
-0.071366 0.029700 0.095554
-0.117176 -0.015873 0.098733
0.212939 0.091030 0.041483
-0.377818 -0.039096 -0.091636
0.063477 -0.011517 -0.099003
-0.191019 0.052962 0.084921
-0.072357 -0.094869 0.031087
-0.353769 0.095563 -0.029150
0.125743 0.073419 -0.067645
-0.362059 0.061915 0.078600
-0.164125 0.096025 0.027920
0.354170 0.097115 -0.023553
-0.410134 0.075008 0.066206
-0.124442 0.099868 0.004549
-0.103518 -0.011211 -0.099032
0.270070 -0.068958 0.072301
0.252340 0.096883 0.024951
-0.275393 -0.097584 0.020770
-0.240263 -0.095675 0.028324
-0.023550 -0.094628 0.031757
-0.363524 -0.077959 0.062421
0.305062 -0.097174 -0.022241
-0.198124 0.097069 -0.023758
-0.088137 0.093586 -0.034937
0.062605 0.053906 -0.083977
0.216539 -0.088641 0.045899
0.273343 -0.018248 0.098357
0.314576 0.003745 0.099956
0.323250 0.002437 0.099997
0.201323 0.003714 0.099957
-0.126922 0.017556 -0.098140
0.457337 -0.070595 -0.070301
0.300214 -0.001969 -0.099642
-0.102138 -0.093366 0.035264
0.234540 -0.063751 -0.076611
-0.304758 -0.099027 -0.011882
0.102784 0.098992 0.014128
-0.198992 -0.097877 -0.019099
-0.344337 -0.072999 0.068219
-0.301553 0.099983 0.000887
-0.244835 0.099553 0.009155
-0.122862 0.038694 -0.091911
-0.038000 0.093114 -0.036249
-0.101887 -0.073206 -0.067622
0.298328 0.077210 -0.063326
-0.459300 0.073080 -0.068030
0.296363 -0.099079 -0.011337
-0.310755 -0.051705 -0.085164
0.105987 -0.094133 -0.032769
0.190434 -0.098126 0.018121
-0.057111 0.089038 -0.045216
-0.269695 -0.047778 -0.087467
-0.364983 -0.057151 0.081975
-0.154903 0.094162 0.033699
-0.067105 -0.099160 0.010841
-0.206468 0.012734 -0.098904
-0.204332 0.088307 -0.046650
0.444168 -0.051561 -0.085249
0.088666 -0.041709 -0.090505
0.439360 -0.086710 -0.049135
0.386541 0.099878 -0.003860
0.409169 0.078205 0.062406
0.455208 -0.098665 -0.014352
-0.416725 -0.048317 -0.087167
-0.140488 -0.095736 0.028111
-0.306605 -0.099639 0.004396
0.286503 -0.056330 -0.082170
-0.054481 -0.046079 -0.088333
0.229357 -0.054601 0.083708
-0.243893 0.061049 -0.078909
0.004992 0.011019 0.099435
0.006448 0.097201 -0.023165
-0.248675 -0.062219 0.078183
-0.450678 -0.099586 -0.005731
0.022498 -0.066515 -0.074174
0.320924 0.085476 -0.051616
0.122814 0.099945 -0.001726
0.064155 -0.096858 -0.023657
0.235409 0.020201 0.097995
-0.060152 -0.043416 -0.089690
-0.450819 -0.090901 0.041242
0.401494 -0.066448 -0.074233
-0.063096 0.072806 0.068686
-0.294573 0.067754 0.073650
-0.115108 0.006518 -0.099498
0.127044 -0.097593 -0.020368
-0.301461 -0.099367 0.008652
-0.210859 0.088881 -0.045523
-0.285911 -0.062616 0.077875
0.406209 0.071797 -0.069333
0.001419 0.009523 -0.099214
0.401713 0.049421 0.087015
-0.130004 0.009290 0.099599
0.263358 0.006479 -0.099502
0.282851 0.098781 -0.015095
-0.273935 0.074656 -0.066242
0.002273 -0.050456 -0.085902
-0.367213 -0.082919 -0.055258
-0.270646 -0.056373 -0.082141
-0.000521 0.001856 -0.099653
0.264803 0.069939 0.071553
-0.416400 -0.097404 -0.021214
-0.449823 -0.099593 0.005879
0.366214 -0.086095 0.050537
-0.450982 0.099833 0.005658
0.204408 -0.098831 0.013670
0.449087 -0.098130 -0.017728
-0.456890 0.079057 0.061307
0.216284 -0.079305 0.060687
-0.149251 0.098048 -0.019378
0.352904 0.079135 0.061206
0.094812 -0.096273 -0.025901
0.406280 -0.057055 -0.081678
-0.006801 -0.014462 -0.098593
0.379231 0.036257 -0.092920
0.034322 0.011486 0.099391
-0.184683 0.060541 0.079666
-0.252790 -0.003643 0.099952
-0.176581 -0.033596 0.094157
-0.349971 0.086761 0.049806
-0.225680 0.097516 0.022122
-0.316332 -0.020007 -0.097624
-0.082826 0.084013 0.054355
-0.218083 0.039820 0.091787
-0.338746 0.095885 0.028402
-0.412568 0.031695 -0.094562
-0.438972 0.035975 0.093384
-0.099145 -0.083576 -0.054292
0.182742 0.011390 -0.099037
0.393831 0.090341 0.043022
-0.176723 0.065415 -0.075350
-0.427525 -0.056445 -0.082092
0.127176 -0.099763 0.000474
0.163454 0.091834 0.039627
0.032193 0.028956 -0.095407
0.249040 0.099967 -0.001026
-0.265468 0.098268 -0.018334
-0.425286 0.044832 -0.089087
0.377470 -0.021514 0.097649
-0.126841 -0.003291 0.099963
-0.306361 -0.035487 -0.093113
0.362646 -0.017005 0.098553
-0.310959 0.099681 -0.007437
-0.263901 0.068128 -0.072958
0.340405 -0.072737 -0.068154
-0.319601 -0.052171 0.085250
0.076555 -0.094904 -0.030615
0.025491 0.042654 -0.090197
0.206965 0.099279 -0.011687
0.388981 -0.099586 -0.005733
-0.069304 0.070418 0.071074
0.085926 0.063176 0.077622
-0.114291 0.007621 0.099756
0.075105 -0.047328 -0.087696
-0.394322 0.094900 0.031650
-0.063908 -0.099292 -0.009079
-0.022639 -0.066546 -0.074147
-0.284884 -0.070060 0.071199
-0.379692 -0.081018 0.058419
-0.426824 0.002668 0.099990
0.346894 0.097040 0.024249
-0.163560 0.099868 -0.004178
0.127384 -0.086707 -0.049139
-0.181664 -0.018905 -0.097870
0.047996 -0.089326 -0.044193
0.357973 0.098290 -0.018194
0.103041 -0.021927 -0.097194
-0.286064 0.082034 0.057268
-0.062640 -0.054485 -0.083424
-0.139664 0.090742 -0.041788
-0.042550 -0.066100 -0.074540
-0.361136 0.083843 -0.054242
0.081825 0.085205 0.052437
-0.259987 0.099407 -0.010330
-0.087263 0.034025 0.094086
-0.450840 -0.052504 -0.084691
0.044172 0.093963 0.034252
-0.051300 0.051326 0.085888
-0.249456 0.067872 0.073546
0.406701 -0.024089 0.097074
-0.453379 -0.002856 -0.099614
-0.415554 -0.072971 -0.067888
0.035055 -0.056709 0.082276
0.378032 -0.099677 0.003205
-0.213557 -0.085219 0.052019
0.115966 0.053792 0.084417
-0.090206 -0.099648 0.004133
-0.284560 0.072016 -0.069114
0.255929 0.093636 0.035162
-0.039624 -0.034191 0.093942
-0.389134 0.099970 -0.000933
-0.401059 0.078743 -0.061349
0.197091 -0.062720 -0.077431
-0.419599 0.077690 -0.062707
-0.252127 -0.027071 0.096250
0.296087 -0.094674 -0.031268
0.064202 -0.054751 -0.083243
0.374297 0.040282 -0.091224
0.261337 -0.047004 -0.087862
0.022331 0.070276 0.071216
0.194674 0.071991 0.069501
0.132082 0.071639 -0.069490
0.016327 -0.090542 0.042073
-0.134826 0.080209 0.059822
-0.384233 0.067590 -0.073432
0.379190 0.059189 -0.080352
-0.259470 0.087823 -0.047600
-0.331394 -0.096005 0.027187
0.165268 -0.074200 0.066857
-0.217403 -0.057254 -0.081543
0.054515 -0.038424 -0.091927
0.391885 0.012424 -0.098940
-0.085876 0.061651 0.078804
0.051080 0.070139 0.071353
0.454882 0.052136 0.085409
0.449930 0.047889 0.087892
0.146194 -0.067244 0.073895
0.147489 0.084218 0.054054
-0.440933 0.016135 0.098728
0.331909 -0.094006 0.033485
0.254563 0.094510 -0.032371
-0.465959 0.018096 -0.098055
0.081172 0.039556 0.091901
-0.117529 -0.098226 -0.017128
0.132153 -0.030256 -0.094962
-0.217530 -0.027557 0.096109
-0.019957 0.027339 0.096240
-0.032769 -0.079865 0.059964
-0.125850 -0.045072 0.089209
-0.019840 0.095678 -0.028753
0.416557 -0.008950 0.099609
-0.081032 0.095642 -0.028877
0.152778 -0.021289 0.097700
-0.438551 -0.092953 -0.036046
-0.263557 0.098216 0.018989
-0.078022 -0.099425 0.008036
0.326007 -0.007639 0.099733
0.005888 -0.084932 -0.052141
-0.035256 -0.098795 0.013898
-0.273650 0.035123 0.093691
-0.310734 0.032408 0.094668
-0.442450 0.059322 0.080611
-0.439127 0.095887 0.028398
-0.160764 0.041664 0.090989
0.438309 0.099892 -0.003421
-0.323335 0.098512 0.017154
0.410849 -0.088187 -0.046428
-0.029886 0.079212 -0.060745
-0.273658 0.080915 0.058912
-0.358324 0.032984 -0.094098
-0.405229 -0.085183 0.052080
-0.343202 0.096832 -0.024780
0.084923 0.099504 -0.009304
0.342357 0.050298 -0.086133
-0.084024 -0.015013 -0.098506
0.192088 0.083817 -0.054282
-0.037880 0.049233 -0.086763
0.309653 0.035367 -0.093240
-0.149850 -0.003194 -0.099603
0.301077 0.099942 -0.001845
0.071421 0.079233 -0.060718
-0.466270 0.044162 -0.089429
-0.227903 -0.033375 -0.093873
-0.349184 0.076769 0.064208
0.023198 0.031574 -0.094606
-0.147752 0.038793 0.092231
-0.266505 -0.092428 -0.037350
-0.333156 -0.062630 0.077864
0.169607 0.039743 -0.091457
0.135761 0.045287 0.089218
0.079267 -0.035568 0.093447
0.212647 0.052852 0.084986
0.323183 0.015848 0.098774
-0.212002 0.056121 0.082834
0.024686 -0.076355 -0.064050
0.152149 -0.006889 0.099804
0.201471 0.041725 -0.090600
-0.213811 0.001037 0.100041
0.098187 0.098308 -0.018080
-0.039023 0.093380 0.035872
0.159149 0.099795 0.006597
-0.113328 -0.097225 -0.022012
-0.022800 0.060960 -0.078978
-0.249444 -0.033388 -0.093869
-0.338507 -0.046342 -0.088199
-0.298439 0.049642 0.086884
-0.252199 -0.096049 0.027035
0.256574 -0.010959 0.099419
-0.254321 -0.099149 -0.010596
0.276473 0.046335 -0.088322
0.009304 0.084733 0.053235
-0.031232 0.065955 -0.074873
-0.261952 0.020327 0.097967
-0.163920 -0.078838 0.061288
0.292975 0.008418 -0.099318
-0.029121 -0.067971 -0.072891
0.388253 -0.080172 -0.059205
-0.235546 0.092624 -0.037438
0.106574 0.062987 -0.077405
0.039541 0.088419 0.046794
-0.460894 0.009510 0.099578
0.347613 0.013284 -0.098817
0.231794 -0.054173 -0.083636
0.066465 0.019843 0.098075
-0.284406 -0.037384 0.092740
-0.244893 -0.010717 -0.099079
0.123950 -0.038392 -0.091941
0.103018 0.097311 -0.022674
0.446404 -0.086058 -0.050237
0.401801 0.066047 0.075156
-0.225573 -0.009258 -0.099217
0.344158 0.078999 0.061381
-0.431146 -0.040521 0.091382
-0.238838 -0.041246 -0.090706
0.062445 0.089034 0.045585
-0.123369 0.076730 0.064252
