-0.207853 -0.083546 -0.054336
-0.218222 -0.091588 0.039654
0.077118 -0.084920 -0.052161
0.282425 -0.098411 0.016322
0.164609 -0.099149 -0.010597
0.099684 -0.088868 -0.045092
0.400972 0.065252 -0.075493
0.449343 -0.075291 0.065620
-0.112084 -0.078608 0.061584
-0.133440 -0.084931 0.052505
-0.035536 0.097942 0.020215
0.308208 -0.055400 -0.082802
0.356664 0.062225 0.078360
-0.247370 0.042180 -0.090403
-0.123909 -0.081434 -0.057444
0.251416 -0.034908 -0.093321
-0.327496 0.064463 0.076552
0.065250 -0.078625 0.061563
0.155428 -0.045986 0.088743
-0.033248 -0.060743 -0.078965
-0.360476 -0.015038 -0.098502
0.464857 0.093575 0.035329
-0.062718 0.099395 0.010826
0.127301 -0.034114 0.093970
0.385415 -0.086747 0.049436
-0.384360 -0.055728 0.082942
-0.437634 -0.098025 0.018757
-0.402883 0.090771 0.042081
-0.216233 0.098687 -0.015686
-0.411061 0.096211 -0.026919
0.425968 -0.009859 -0.099160
-0.360497 0.098545 -0.016588
-0.168654 -0.093041 -0.035803
-0.148047 0.080320 0.059678
-0.401115 0.098627 0.016433
-0.284156 0.041299 -0.090784
-0.387889 -0.007833 -0.099352
0.144841 0.099855 0.004970
0.069106 0.095114 -0.030691
-0.057146 -0.053923 0.084169
-0.043647 -0.007117 0.099782
-0.156033 0.091241 0.040996
0.279149 -0.007479 0.099748
-0.329130 -0.076585 0.064152
0.046528 -0.016899 -0.098207
0.302454 -0.075598 0.065272
0.404086 0.002732 0.099988
0.278700 -0.034253 0.093920
0.097538 0.095729 -0.028578
-0.309035 -0.098936 -0.012642
-0.287695 0.067827 0.073586
-0.284494 -0.055933 -0.082440
0.425165 -0.064170 -0.076242
-0.115993 0.082692 0.056298
0.142695 -0.055512 0.083089
-0.038125 0.003469 0.099965
0.148603 0.095135 -0.030622
-0.391225 -0.060017 0.079891
-0.173650 0.042746 -0.090150
0.376573 0.071028 0.070464
0.028896 -0.099014 0.012384
0.256273 -0.046204 -0.088269
-0.089207 -0.041912 -0.090417
0.108712 0.016802 0.098622
-0.079335 -0.037277 0.092786
0.281255 0.065819 0.075356
0.113890 0.099516 -0.009182
0.203208 0.028872 0.095795
-0.290762 0.077614 -0.062805
0.350772 -0.098922 -0.012730
0.292768 -0.024267 -0.096671
-0.381431 -0.098658 -0.014401
-0.300016 -0.057861 0.081493
0.374206 -0.094604 -0.031462
-0.305872 -0.071767 -0.069129
-0.423003 -0.092378 0.037829
-0.063462 -0.029763 0.095468
-0.449584 -0.035040 0.093637
-0.059793 -0.099435 -0.007568
0.162330 -0.059062 -0.080269
-0.424339 -0.095686 -0.027922
0.020537 -0.099379 0.008521
0.331219 0.092610 0.037833
0.268242 -0.082165 0.056731
-0.038086 -0.074130 0.066936
-0.151402 -0.079347 -0.060270
0.225966 -0.099351 0.008818
-0.318826 -0.059027 0.080659
0.062127 -0.093004 -0.035905
-0.302869 0.047909 0.087882
-0.091559 -0.053774 0.084270
0.454248 -0.078877 0.061237
0.432434 0.028135 0.096009
0.131456 0.093863 -0.034168
0.439272 -0.095092 0.030330
0.039712 0.085669 0.051652
-0.113464 0.099816 -0.005839
0.114753 0.067364 -0.073631
-0.013202 -0.092100 0.038472
0.319811 -0.085243 -0.051616
0.217314 -0.059835 0.080032
0.409429 -0.037829 0.092547
-0.087688 -0.082533 -0.055828
0.391011 -0.080407 0.059265
0.051833 -0.097609 0.020661
0.147638 0.090773 -0.041716
-0.113719 0.054017 0.084264
0.204929 0.036687 -0.092765
0.262172 0.064914 0.076154
-0.430503 -0.016983 0.098557
-0.221683 -0.064102 0.076664
-0.282180 -0.023236 0.097265
0.010309 -0.029471 -0.095190
-0.097651 0.014476 0.098991
0.062124 -0.009033 0.099601
0.221791 -0.090789 0.041502
0.323666 -0.096268 -0.025919
0.430517 0.050555 -0.085982
0.074291 0.094004 -0.033776
-0.371832 -0.096641 0.024989
0.410625 -0.097991 -0.018588
-0.391564 -0.083766 -0.054013
-0.300891 0.058354 -0.080953
-0.065681 0.026028 0.096621
-0.090407 -0.056727 -0.081901
0.310322 -0.089324 0.044559
-0.380763 -0.086065 -0.050226
-0.345354 -0.078045 -0.061948
-0.182992 -0.096517 -0.025063
0.112330 0.097915 0.020335
0.291031 -0.043482 -0.089656
-0.236053 -0.093596 0.034623
0.026498 0.099236 -0.012148
0.418405 -0.022732 0.097377
-0.447686 -0.067597 0.073583
0.044192 -0.099741 -0.000789
-0.182278 0.020117 -0.097651
-0.435421 0.099342 0.011382
0.408448 -0.091459 -0.039591
-0.144417 -0.031251 -0.094638
-0.020813 0.079191 0.061134
-0.347351 -0.049818 0.086642
-0.307207 -0.023316 0.097247
0.056713 0.092066 -0.038727
-0.293707 0.070185 0.071308
0.157984 -0.013296 0.099141
-0.188097 -0.031044 0.095076
0.245397 -0.083395 0.054921
0.184966 0.098911 -0.014273
0.111660 0.079805 -0.059980
-0.431067 -0.099609 -0.004999
0.381711 -0.070066 -0.070830
0.217997 -0.060729 -0.078976
0.105551 0.075337 0.065833
0.317401 -0.058852 0.080795
0.130804 -0.010828 0.099431
0.331082 0.099118 -0.012967
0.286342 -0.060818 -0.078907
0.303489 -0.050090 -0.086119
-0.107658 0.090641 -0.042021
-0.465940 -0.060590 0.079446
-0.070671 -0.098094 0.018320
-0.363370 -0.037094 0.092865
-0.163358 -0.024331 0.097020
-0.140221 -0.007769 0.099720
0.390176 -0.090762 -0.041201
-0.431475 0.001912 -0.099651
0.078933 0.087242 -0.048629
0.462877 -0.072606 0.068653
-0.438533 -0.037108 0.092859
-0.040612 -0.014556 -0.098579
-0.403004 0.024295 0.097080
-0.009422 -0.025201 0.096793
-0.376787 0.077172 -0.063374
0.228734 -0.098563 -0.014994
-0.174474 -0.028058 -0.095600
0.149969 0.080452 0.059508
0.351275 0.002980 -0.099617
0.139768 0.015794 -0.098419
-0.442774 0.091371 0.040695
0.163112 -0.098351 -0.016333
0.267727 0.001661 -0.099659
-0.390044 0.054386 0.084013
-0.435223 0.077715 0.063037
-0.184570 0.099254 0.012313
0.429797 0.041197 -0.090828
-0.352185 0.097920 0.020313
0.130653 -0.087789 0.047571
-0.443969 -0.006510 -0.099477
-0.093915 -0.097725 0.020142
0.095097 -0.078092 0.062250
0.039551 -0.092538 -0.037097
-0.410872 -0.010280 0.099483
-0.035670 -0.025307 0.096763
-0.224887 -0.017262 -0.098150
-0.082119 -0.090752 -0.041224
-0.303925 -0.099605 0.005478
-0.395639 0.091201 -0.040727
0.320412 0.016081 0.098737
0.083612 -0.093768 -0.033784
-0.141167 0.034346 -0.093608
-0.432880 -0.088219 0.046727
0.005204 -0.055876 0.082842
0.186144 -0.095920 0.027478
-0.097877 0.061762 0.078718
-0.112889 -0.099750 0.000878
0.375944 -0.082451 0.056310
0.119990 0.086507 0.050235
0.241620 -0.075075 0.065865
-0.278755 0.012950 -0.098870
-0.022144 0.063763 -0.076803
0.273645 -0.088524 0.046129
0.086365 0.086783 0.049768
-0.198017 -0.095816 0.027838
-0.134311 -0.074670 0.066324
0.221282 0.069572 0.071920
0.152968 -0.060799 0.079285
0.099641 -0.098514 -0.015307
-0.161050 -0.079244 0.060765
0.040433 0.099982 0.000922
0.289453 -0.094294 -0.032322
-0.180963 0.050528 -0.085998
-0.248019 0.090804 0.042006
-0.015463 -0.000475 -0.099689
0.084696 -0.088599 -0.045618
0.126659 -0.073263 0.067920
0.043206 -0.054712 0.083633
-0.228427 0.099839 0.005456
0.243501 -0.020046 0.097977
0.037970 0.030820 -0.094866
-0.458121 0.087791 0.048025
0.253631 0.000851 -0.099684
-0.385789 -0.049369 0.086908
0.233988 0.073146 0.068318
0.453951 -0.094520 0.032057
0.117726 0.095070 0.031178
-0.222182 -0.018820 0.098252
0.237759 0.012458 0.099299
-0.257641 0.091894 0.039487
-0.193803 0.097801 0.020845
-0.354049 0.066904 -0.074037
0.436991 -0.038226 -0.092013
-0.397794 -0.009103 0.099594
-0.244829 -0.081118 -0.057909
-0.158014 0.018755 -0.097950
-0.364682 0.099289 -0.011588
0.418766 0.081601 0.057904
0.121191 0.065783 -0.075026
0.224519 0.089370 -0.044563
-0.322617 -0.098289 -0.016729
0.227960 0.073584 -0.067458
-0.161341 0.089758 -0.043803
-0.331508 -0.037702 0.092602
-0.311258 0.005849 0.099890
-0.349301 0.065323 0.075794
-0.423355 0.084030 0.054331
0.054234 0.038526 0.092347
-0.090329 0.079787 0.060366
-0.432930 0.084612 0.053440
0.360636 0.075799 -0.064945
0.270459 0.066827 0.074467
-0.249390 -0.067387 0.073768
-0.035509 -0.044424 -0.089176
0.156339 -0.093608 -0.034227
0.285439 0.098771 -0.015158
0.313661 0.067584 0.073800
-0.180153 -0.060094 -0.079468
-0.088163 -0.025019 0.096846
0.259276 0.099626 0.008380
-0.013649 -0.086986 -0.048669
-0.368530 0.074048 -0.066932
-0.144341 0.088257 -0.046749
0.263914 0.070167 0.071326
-0.449146 0.099856 0.004944
-0.060003 -0.087773 0.047603
0.408178 0.042469 0.090640
0.331774 0.061255 0.079112
-0.293423 -0.066988 0.074120
-0.195197 0.021515 0.097701
0.111674 -0.055333 0.083211
0.146575 0.083633 0.054915
0.054440 0.068104 0.073342
0.147120 0.091489 0.040424
-0.253286 0.063698 0.077217
0.157341 0.059693 0.080323
-0.275945 -0.056222 -0.082243
0.412321 -0.046884 -0.087923
-0.254126 -0.089349 0.044510
-0.067401 0.099537 -0.008959
0.205550 -0.067669 0.073520
0.451052 -0.025643 0.096665
0.418702 0.035962 0.093389
0.322331 -0.088335 -0.046138
0.276870 0.068645 -0.072484
-0.161200 0.089913 0.043861
-0.465405 -0.017346 -0.098137
0.054624 0.086529 0.050199
0.066182 0.093449 0.035679
0.207067 -0.079386 0.060582
0.333249 -0.026144 -0.096157
0.337751 0.090316 0.043071
0.370617 -0.099145 0.011001
0.445975 -0.008710 0.099631
0.298442 -0.083826 -0.053924
0.273263 -0.039949 0.091630
-0.204401 0.099902 -0.003103
0.270476 0.087731 0.048144
-0.410968 0.096596 0.025957
-0.209580 0.085430 0.052057
0.065906 0.098359 -0.017756
-0.459165 -0.099770 0.000251
0.371422 0.037351 -0.092492
-0.375982 0.091214 0.041059
-0.315154 0.090376 0.042953
-0.254696 0.099191 0.012872
0.207248 0.094751 0.032064
0.132089 -0.098782 -0.013613
-0.152243 0.044689 -0.089160
-0.172070 -0.099740 -0.000838
0.422338 0.099646 0.008165
0.235729 0.098090 0.019552
0.331187 -0.033420 -0.093857
0.306439 0.092053 0.039121
0.275015 -0.091237 0.040467
-0.381504 -0.099621 0.004997
0.352511 -0.097597 0.020712
-0.343860 -0.099701 0.002425
0.288811 0.093326 0.036020
-0.217590 0.037471 0.092803
0.393188 0.099877 0.004259
0.155330 0.095685 -0.028728
0.376724 -0.007524 0.099744
-0.161069 0.012972 0.099229
0.125140 0.099785 0.006694
0.321984 -0.028015 0.095976
-0.055869 0.097557 -0.021575
0.215911 0.047474 -0.087741
-0.452886 -0.090128 -0.042617
0.454551 0.021497 0.097705
0.142409 -0.085150 0.052135
-0.048319 -0.000312 -0.099694
-0.053869 -0.017094 0.098539
0.078600 -0.037703 0.092602
-0.176307 0.078887 0.061526
0.191463 -0.033890 -0.093688
0.379514 -0.085424 0.051672
-0.342427 -0.045359 0.089063
0.119080 -0.099704 -0.001981
-0.024757 0.011991 0.099343
-0.427591 0.086576 -0.049755
-0.381937 -0.082596 0.056096
-0.422402 0.032740 -0.094186
0.353932 0.059264 -0.080293
0.052660 0.089700 0.044279
0.070945 -0.099753 -0.000433
0.138905 -0.024367 -0.096649
0.052045 0.093825 0.034636
-0.362838 0.072733 -0.068397
-0.456916 0.096382 0.026691
0.062257 -0.039176 -0.091602
-0.395446 0.064404 0.076604
0.297109 0.052607 0.085131
-0.188003 0.009525 0.099576
0.437041 0.076768 -0.063846
0.445495 0.009896 0.099541
-0.422857 0.013600 -0.098767
-0.282915 0.077641 0.063133
0.242989 -0.079466 0.060478
-0.325012 0.026028 -0.096258
-0.126677 0.067246 -0.073735
0.376235 0.083304 -0.055035
0.264358 -0.088939 -0.044952
-0.428099 -0.073954 0.067136
0.432337 -0.025463 -0.096354
0.059227 -0.070358 0.070901
-0.206331 0.070548 0.070945
0.083681 0.023473 0.097264
0.283414 0.081643 0.057842
-0.019302 -0.059250 0.080486
-0.426546 0.049774 -0.086444
0.039610 0.093228 0.036294
0.309642 -0.093395 -0.034818
-0.093387 -0.001581 0.100017
0.203832 -0.099064 0.011858
0.340357 0.099845 0.005296
-0.133994 0.032719 -0.094194
0.317900 0.058398 -0.080924
-0.195755 -0.091786 0.039198
0.138334 -0.030351 -0.094935
0.106955 -0.042883 0.090324
-0.353556 0.080477 -0.059114
-0.245587 0.050202 -0.086191
-0.024528 0.003577 0.099961
-0.288661 0.098967 -0.013919
0.087881 0.031434 -0.094656
-0.325840 0.069334 0.072158
-0.275594 -0.030241 -0.094966
0.190235 0.092139 0.038922
0.236684 0.098521 -0.016735
0.237984 -0.085767 0.051091
-0.004077 -0.091080 -0.040467
-0.137437 0.044323 -0.089347
-0.421644 0.057376 0.081981
0.333073 0.010668 -0.099106
0.399230 0.091250 0.040975
0.078544 -0.056942 -0.081755
-0.070472 -0.092692 -0.036740
0.313654 -0.098617 0.015020
-0.360141 0.038832 0.092214
0.013723 0.033904 -0.093767
0.017865 -0.048089 -0.087302
-0.036300 -0.021810 -0.097221
-0.436973 -0.092806 -0.036455
0.050773 -0.004101 0.099937
0.022950 0.012270 0.099317
-0.116944 -0.070890 0.070369
-0.316117 -0.078268 0.062024
0.309494 -0.099693 0.002680
0.198966 -0.098548 -0.015090
0.051973 0.068595 -0.072535
0.383596 -0.017573 -0.098101
0.359789 0.082176 0.057058
-0.364550 -0.060853 -0.078880
0.402560 -0.085377 -0.051388
-0.121784 -0.054993 0.083441
-0.157476 0.098946 -0.014054
-0.157850 0.061795 -0.078330
0.170028 0.098806 0.015302
0.155993 -0.068907 0.072352
0.420480 0.091409 0.040608
0.085098 -0.099562 -0.006225
0.390010 -0.043678 0.089919
0.458694 -0.016632 -0.098250
0.360278 -0.094973 -0.030375
0.123755 -0.051799 -0.085108
0.110077 0.092275 0.038607
0.451803 -0.014555 -0.098579
0.280694 -0.051057 0.085909
-0.124653 0.075816 0.065289
-0.040380 -0.034000 -0.093648
-0.308406 0.047970 -0.087488
0.374989 -0.062783 -0.077383
0.258906 0.068448 -0.072676
-0.269661 -0.050070 -0.086131
0.146576 -0.094456 -0.031873
0.147683 -0.092102 -0.038105
-0.120961 -0.098722 -0.013992
0.134583 -0.061507 0.078735
-0.391162 -0.097413 0.021536
-0.331208 0.070578 -0.070551
0.216583 -0.041109 -0.090765
0.231243 0.013574 0.099134
0.068256 0.050720 0.086247
0.332539 0.060497 -0.079337
0.321537 0.093734 0.034888
0.113560 0.065249 0.075859
0.329628 -0.052879 -0.084469
-0.115729 0.093034 -0.036469
-0.237949 -0.067492 0.073676
0.034418 0.075886 -0.064847
0.296675 0.018369 0.098374
-0.448548 0.043560 -0.089735
0.272259 0.053037 -0.084514
-0.145766 -0.091443 0.039991
-0.185830 0.093438 0.035711
0.233811 -0.088576 0.046027
-0.216414 0.062038 0.078505
0.124476 -0.091370 0.040158
-0.226036 -0.060586 0.079449
0.443266 0.067770 0.073637
0.086717 -0.004437 -0.099564
0.131153 0.099894 -0.003370
-0.019826 -0.094219 -0.032530
-0.416042 0.098759 -0.015232
0.172948 0.011116 -0.099063
-0.450728 0.097284 0.023159
-0.401036 0.093331 -0.035645
-0.091529 -0.097932 -0.018853
0.302639 -0.080326 -0.059008
0.382878 0.078782 -0.061299
-0.376031 -0.097659 -0.020075
-0.040442 -0.099642 0.004319
0.378185 0.012161 0.099327
-0.395679 0.098088 -0.019200
0.237394 -0.072099 -0.068797
0.001437 0.062007 0.078529
-0.164559 -0.031195 0.095021
-0.463181 0.020355 -0.097598
-0.050851 -0.069281 -0.071615
0.102897 0.040245 0.091603
0.140557 -0.049507 0.086826
-0.012721 0.099453 -0.009847
-0.018775 -0.069767 -0.071129
0.152201 0.099580 -0.008507
-0.289727 0.058486 -0.080864
-0.284729 -0.066080 -0.074558
0.267062 -0.028220 0.095916
0.292233 -0.032332 -0.094249
-0.334390 0.087400 -0.048363
-0.455805 -0.004480 0.099925
0.193099 0.046045 0.088832
-0.004602 -0.085393 0.051724
0.407671 -0.073791 -0.066959
0.382631 -0.091111 -0.040393
0.169107 0.099911 0.003178
-0.253707 -0.092029 0.038635
-0.373773 -0.048600 -0.087000
-0.370867 -0.008210 -0.099316
-0.265934 -0.099270 0.009675
-0.143365 -0.098742 -0.013868
-0.222067 0.065588 -0.075197
-0.010159 0.099998 0.000408
0.211149 0.013748 -0.098743
-0.040014 0.099760 0.006967
0.223495 -0.087770 -0.047247
-0.268155 0.072145 -0.068984
-0.005583 0.074076 -0.066899
0.022457 -0.042417 -0.090199
0.341083 -0.098120 -0.017792
0.417949 0.095977 0.028087
-0.457736 -0.060771 -0.078944
0.319244 0.065332 -0.075423
-0.271432 -0.096871 -0.023600
-0.138384 0.008440 0.099679
-0.302482 0.099935 0.002403
-0.380049 0.096584 -0.025635
0.158610 0.025866 0.096668
-0.174703 -0.029240 0.095620
-0.332107 0.071571 0.069921
0.355004 -0.004659 0.099920
0.117163 -0.000010 0.100066
0.336610 -0.017196 -0.098160
-0.169941 -0.092639 0.037227
0.069148 -0.099193 0.010494
0.389873 -0.074084 -0.066625
0.130776 -0.031979 -0.094376
-0.081590 -0.056365 0.082509
0.004332 -0.031335 -0.094608
-0.370503 0.059935 0.080136
0.325866 -0.043835 0.089839
0.422407 0.029672 -0.095200
0.281058 0.032744 0.094547
0.366983 -0.037428 0.092721
-0.227372 -0.094086 -0.032898
0.273435 -0.093781 0.034110
0.219031 0.034935 -0.093396
-0.444591 0.014145 -0.098681
0.334840 0.097365 0.022795
-0.025048 0.031302 -0.094704
0.378739 -0.096235 0.026396
0.401305 -0.096231 -0.026045
0.045278 -0.069913 0.071346
-0.204432 0.011384 0.099401
0.121669 -0.037661 0.092620
0.234497 0.044826 -0.089091
-0.435920 -0.099278 -0.009227
0.115615 0.074770 -0.066113
0.342259 -0.068804 -0.072092
0.431500 0.099710 -0.007125
0.432928 -0.012740 -0.098866
0.153679 0.007496 0.099768
0.180409 -0.096863 -0.023635
-0.433451 0.064211 0.076774
0.272987 0.099662 0.007996
-0.365286 -0.080345 0.059345
0.347180 0.087059 0.049302
-0.167438 0.009025 0.099624
-0.285374 0.080245 -0.059413
0.251688 0.027033 -0.095966
0.070921 0.096922 -0.024413
-0.285100 -0.061190 -0.078618
0.431348 0.085245 0.052369
-0.021013 -0.099748 0.000951
-0.129934 -0.098480 -0.015522
0.388351 0.008775 -0.099285
0.302406 -0.005233 -0.099539
-0.064256 0.090959 0.041648
0.252609 0.045718 -0.088636
0.334012 -0.063779 -0.076586
0.063325 0.078390 -0.061804
0.449221 -0.096695 0.024750
0.107990 -0.002524 0.099987
-0.454259 0.051595 -0.085367
0.317243 -0.019396 -0.097760
-0.312348 0.099802 0.006515
-0.002755 -0.041198 -0.090726
-0.003311 0.099946 0.002054
-0.411165 0.090858 -0.041518
-0.214835 -0.053398 -0.084162
-0.074160 -0.099101 0.011466
-0.027146 -0.092690 0.037109
0.278572 -0.042129 -0.090324
0.217747 -0.093594 -0.034267
-0.081177 0.060056 -0.079679
-0.244877 0.019098 -0.097879
0.084498 -0.099310 0.009250
-0.326333 -0.059690 -0.079782
-0.400242 -0.074442 -0.066220
-0.114619 -0.095231 0.029850
-0.386626 0.087550 -0.048108
-0.077745 0.038740 -0.091891
0.033814 -0.094429 0.032309
0.202100 -0.096833 0.024129
-0.034844 0.091901 -0.039109
0.456678 -0.054463 -0.083439
0.287293 -0.064212 0.076567
0.258470 0.019810 -0.097720
0.198318 0.098705 -0.015572
-0.146736 -0.093507 -0.034507
-0.403877 0.091306 -0.040483
0.149745 0.050052 -0.086279
-0.428240 0.082085 0.057192
0.395095 -0.068997 0.072262
-0.300276 -0.091357 0.040189
-0.327346 -0.060078 0.079844
-0.179887 0.055499 0.083256
0.336274 -0.074120 0.066948
0.382651 0.071175 0.070317
0.301868 -0.024270 -0.096671
0.016099 0.072538 -0.068591
-0.024612 0.099348 -0.010958
-0.069678 -0.067259 -0.073518
-0.109276 -0.066060 -0.074575
-0.423975 -0.056067 -0.082349
-0.076031 -0.008442 0.099657
0.361971 -0.096891 0.023870
0.451474 -0.092463 -0.037270
0.277931 0.089367 0.044932
0.342909 0.080090 0.059976
-0.180038 0.068566 -0.072563
0.166854 0.034982 -0.093379
0.244391 0.080854 -0.058628
-0.463620 0.042482 -0.090272
0.383144 0.057562 -0.081491
-0.161916 0.027015 0.096334
-0.407557 0.039384 -0.091613
-0.229916 -0.018926 0.098228
-0.026489 -0.099614 0.005213
-0.191385 -0.057769 0.081555
-0.306162 -0.058351 0.081160
-0.191445 -0.083115 -0.054970
-0.079134 -0.063008 -0.077208
0.290525 -0.043666 0.089925
0.073905 0.026873 -0.096013
0.354534 0.013804 0.099097
0.370963 0.011695 0.099371
-0.099290 0.022833 0.097407
0.140142 -0.096861 -0.023643
-0.247168 0.098985 -0.013809
0.024749 0.031984 -0.094458
-0.150417 -0.098503 -0.015373
-0.049736 -0.006313 -0.099495
-0.174003 -0.098183 -0.017394
-0.062088 0.095696 -0.028691
0.422112 -0.095992 -0.026869
0.415889 -0.095527 -0.028470
0.278436 -0.072661 -0.068235
0.186302 -0.012030 -0.098955
0.264311 -0.009063 0.099598
-0.273426 -0.007749 0.099722
-0.004516 0.086569 -0.049768
-0.269020 -0.009275 -0.099215
-0.442363 -0.099459 -0.007312
-0.195685 0.021643 -0.097310
0.352596 0.009247 -0.099240
0.417116 -0.004169 -0.099572
0.115031 0.016095 0.098734
0.269586 -0.085792 -0.050687
0.350765 0.096328 0.026879
0.328818 -0.046852 -0.087939
-0.429399 0.093561 -0.035006
-0.055375 -0.061480 0.078756
-0.093328 0.005281 -0.099545
-0.218060 0.053550 -0.084210
0.094895 0.099223 -0.012284
0.050228 0.076902 -0.063695
0.076920 -0.060221 0.079733
-0.289921 -0.016543 -0.098264
-0.431926 -0.076850 0.063851
0.078430 0.097934 -0.019889
-0.227052 -0.026253 -0.096125
-0.312012 -0.099640 0.004376
0.375481 -0.075239 -0.065316
-0.427211 0.044743 0.089495
-0.316418 -0.007382 -0.099394
0.196290 -0.027543 -0.095750
0.242081 0.098993 -0.013754
0.456663 -0.099159 0.010848
0.087996 -0.097161 0.022662
0.173270 -0.020766 0.097817
0.200330 -0.099604 0.005526
-0.419101 -0.057641 0.081642
0.261399 -0.032775 -0.094089
-0.047949 0.037688 -0.092347
-0.025106 -0.096584 0.025194
-0.325675 -0.090084 0.043067
0.170868 0.069022 0.072470
0.258100 -0.037851 -0.092175
0.085689 -0.069425 0.071834
-0.196002 -0.037470 0.092703
-0.377403 -0.094761 -0.031024
0.023769 -0.050929 -0.085622
-0.026271 -0.056647 0.082318
-0.016313 0.025280 -0.096476
0.265764 -0.003064 0.099970
0.005848 -0.099736 -0.000977
-0.196210 0.034880 -0.093416
0.055383 -0.058777 -0.080490
-0.361401 0.069009 0.072483
0.058554 -0.097750 -0.019666
-0.265886 0.039007 -0.091776
-0.408688 -0.076329 0.064442
-0.352055 -0.076355 0.064413
-0.224953 -0.087155 0.048744
0.226684 -0.054593 -0.083350
-0.409984 0.099994 -0.000161
-0.002578 -0.047776 0.087831
-0.093597 -0.080697 0.058891
0.179315 0.058648 0.081117
-0.153776 0.013342 -0.098808
-0.206055 -0.098775 -0.013657
-0.347423 0.073772 -0.067244
0.276254 -0.012630 0.099246
-0.198545 -0.092409 -0.037395
0.298824 -0.091970 0.038772
-0.389967 0.077360 0.063495
0.146897 -0.022436 -0.097081
0.086232 0.007206 0.099796
0.073479 -0.037075 -0.092511
0.408917 -0.099566 0.006550
-0.118162 -0.099642 0.004324
-0.188089 -0.044386 0.089559
0.287921 0.089307 -0.044688
-0.073009 -0.096571 -0.024876
-0.414784 -0.096468 -0.025231
0.404468 0.079872 -0.059894
-0.359953 0.007839 -0.099373
-0.232557 0.067486 -0.073524
-0.109942 0.026834 -0.096024
-0.058517 0.004564 -0.099567
-0.279006 0.047790 -0.087580
0.113720 0.096464 -0.026046
-0.214548 -0.045832 -0.088459
-0.116514 0.049699 0.086851
-0.251779 -0.020130 -0.097596
-0.419372 0.090422 0.042863
-0.093476 0.066131 0.075081
-0.380717 -0.074005 0.067078
0.311156 0.099235 0.012517
-0.328555 0.000632 0.100054
-0.009687 0.053941 -0.083953
-0.248622 -0.037780 0.092568
-0.407069 0.024156 -0.096748
0.260114 -0.096770 -0.024049
0.327035 -0.099082 -0.011305
0.358198 -0.087067 -0.048531
-0.261568 0.019286 0.098200
0.184012 -0.038744 0.092151
-0.275263 -0.016839 -0.098217
0.009379 -0.099587 0.006056
0.442372 -0.083401 0.054913
-0.413011 0.065766 0.075403
0.280688 0.090565 -0.042195
0.226387 -0.042421 -0.090197
-0.139509 0.008081 -0.099350
0.415028 -0.063911 0.076833
0.056769 0.098130 0.019373
-0.117555 0.085877 0.051300
0.018391 0.096651 0.025768
0.230677 0.077516 -0.062931
-0.271960 0.099578 0.008883
-0.251447 -0.056742 -0.081890
-0.267886 -0.059676 0.080155
0.164581 -0.093519 0.034836
-0.359994 0.011979 0.099344
0.338521 0.099428 -0.010113
0.078439 -0.089747 0.043728
-0.368517 0.019116 0.098238
-0.116536 0.027352 -0.095874
-0.253556 -0.070982 -0.069914
-0.038918 0.081728 -0.057354
-0.268226 0.054153 0.084172
0.183228 -0.050240 -0.086030
0.158466 0.088933 -0.045423
-0.345934 0.087551 -0.048107
-0.154826 0.054497 0.083937
-0.057722 -0.099748 0.000934
-0.443218 0.061275 -0.078734
0.191654 -0.095192 -0.029621
-0.222225 -0.097747 0.020041
0.279683 0.000948 0.100044
0.437068 -0.063569 0.077134
-0.218865 -0.087025 0.048964
0.254302 0.058473 0.081235
-0.313095 -0.073097 -0.067746
0.043131 -0.045075 -0.088844
0.227134 -0.076331 0.064440
-0.129885 0.089167 0.045324
-0.020249 -0.066238 0.074782
0.018425 0.032627 0.094590
-0.406051 0.049657 -0.086512
0.352878 -0.072071 -0.068825
0.224650 0.029715 -0.095187
-0.170330 0.088670 0.046301
-0.101023 0.094152 -0.033364
-0.360627 0.095685 0.029093
-0.261540 0.005917 -0.099525
-0.073474 0.096694 -0.025255
0.041621 -0.073868 0.067234
0.229564 -0.002221 -0.099634
0.451251 -0.071180 -0.069716
0.251636 0.098238 0.018889
-0.403016 -0.041700 -0.090509
0.318037 0.053074 -0.084492
-0.329025 -0.099379 0.008524
0.303004 -0.003898 0.099944
-0.410046 -0.028820 0.095742
-0.235352 0.006393 -0.099510
0.178888 -0.018915 0.098230
0.165657 -0.007369 -0.099395
0.149012 -0.045382 0.089051
0.151497 -0.063267 -0.077008
0.065353 -0.090667 -0.041420
0.338459 0.094105 -0.033495
0.318303 0.045130 -0.088935
0.145421 -0.039176 -0.091602
-0.158831 -0.096509 0.025453
0.404530 0.099249 0.012367
-0.222381 0.083303 -0.055038
0.072707 0.071971 0.069521
-0.225627 -0.079904 0.059914
-0.258285 0.024196 0.097102
-0.426324 0.060667 0.079568
0.256476 -0.047152 0.088149
-0.022368 0.059092 0.080789
-0.174064 -0.098081 0.018406
-0.303845 0.013309 -0.098813
0.387409 -0.099139 -0.010698
-0.121556 0.079973 0.060126
0.245255 0.097857 0.020593
-0.347484 0.000541 -0.099694
0.242104 0.083993 -0.054023
0.413477 -0.081170 -0.057832
-0.272524 0.097648 0.021529
-0.115005 -0.099016 0.012369
0.347462 0.099460 -0.009776
-0.331519 0.030619 -0.094924
-0.014982 0.088713 0.046216
0.131289 0.099245 0.012407
-0.185794 0.092711 -0.037236
0.143814 -0.069343 -0.071553
0.351406 -0.061323 0.078878
0.406974 0.096815 0.025201
0.229800 -0.023019 0.097313
-0.405806 0.086016 -0.050702
-0.013092 -0.075809 0.065032
-0.265747 0.076684 0.064304
0.015967 0.048484 -0.087206
-0.015234 0.084761 0.053187
-0.046180 -0.099289 0.009479
-0.300686 -0.006547 0.099836
0.056919 -0.023525 -0.096837
0.067071 0.010367 0.099497
-0.129411 -0.000866 0.100039
-0.325271 -0.038551 0.092235
0.446294 -0.067541 -0.073270
0.364861 0.071197 -0.069933
-0.061734 -0.088053 -0.046692
-0.233742 -0.094713 -0.031157
-0.234271 -0.071488 0.069771
-0.408374 -0.089811 0.043603
-0.049218 0.099277 -0.011706
-0.178545 -0.084173 -0.053414
-0.432729 -0.095040 0.030507
0.343680 -0.005409 -0.099534
0.104348 0.012985 -0.098864
0.178869 -0.080768 -0.058424
0.317697 0.076887 -0.063711
-0.445091 0.099970 -0.000926
0.024639 -0.086471 0.049902
0.147845 0.087058 0.049303
0.019078 0.073576 0.067830
-0.314365 0.096955 -0.024265
-0.299689 -0.099229 -0.009752
-0.148476 0.003945 -0.099587
-0.390045 0.046845 -0.088062
-0.196671 -0.050293 -0.085999
0.463016 0.099931 0.002528
0.308986 -0.047568 0.087937
0.214569 0.034354 0.093968
-0.435910 0.098232 0.018917
-0.112848 -0.088912 0.045367
0.356926 -0.099766 0.000378
-0.240884 0.091065 -0.041041
0.138488 0.047900 0.087887
0.400388 0.069650 0.071843
-0.180064 0.090915 -0.041386
-0.385716 -0.007945 0.099704
0.160839 -0.098601 0.015121
0.022614 0.090007 0.043677
0.081948 -0.082426 0.056348
0.237298 0.079767 -0.060029
-0.215436 -0.042129 0.090686
-0.311597 0.054634 -0.083482
-0.084359 0.081856 -0.057166
0.205117 -0.060235 -0.079359
0.068475 -0.096715 -0.024295
0.465238 -0.095245 -0.029440
0.234980 -0.094043 0.033381
0.220167 -0.019044 0.098202
-0.336746 0.044635 0.089550
-0.341036 0.022923 -0.097024
0.339158 -0.095119 -0.029875
-0.013464 0.096177 0.027399
-0.275907 0.063271 0.077548
0.002458 -0.097454 0.021355
0.003147 -0.090711 0.041682
-0.382494 -0.099710 -0.001778
-0.394891 0.095207 0.030737
-0.450273 -0.056757 -0.081880
-0.349277 0.049427 0.087011
0.194996 -0.091746 -0.038928
-0.243141 0.096138 -0.027170
0.335766 0.012693 0.099273
-0.269432 -0.043951 -0.089417
-0.196317 0.042177 -0.090404
-0.208139 0.060582 -0.079271
0.152326 0.018097 -0.098055
0.284254 0.099915 -0.002679
-0.345062 -0.093382 -0.034855
-0.211492 0.099375 -0.010676
-0.188063 -0.099559 0.006625
-0.245419 0.029335 -0.095298
-0.164591 0.099923 0.002794
0.036119 0.068475 0.073015
0.062565 -0.031509 0.094908
0.167931 0.078238 0.062363
-0.443278 0.075789 0.065320
0.208348 -0.091096 -0.040429
-0.255169 0.090618 -0.042074
-0.168211 0.025498 0.096775
-0.065986 0.038322 -0.092072
0.137232 0.052583 -0.084782
-0.188865 0.099804 0.006499
-0.297269 0.010283 -0.099142
0.301588 -0.023898 0.097117
-0.181039 -0.029405 0.095572
-0.082880 0.066997 -0.073955
-0.403173 -0.078753 0.061398
0.385564 0.062393 -0.077866
-0.077850 -0.088619 0.045943
-0.080142 0.048725 0.087427
0.165546 0.092458 -0.037822
-0.450214 -0.085883 -0.050533
0.109363 -0.096110 -0.026462
-0.115683 -0.097222 0.022393
-0.248023 0.043109 0.090328
-0.446334 -0.063287 0.077354
-0.135707 0.087889 -0.047470
-0.379280 0.091486 -0.040067
-0.466508 -0.098402 0.016376
0.064888 -0.097810 -0.019399
-0.427922 0.098856 -0.014618
-0.097110 -0.043035 0.090247
0.282565 0.064820 -0.075875
0.450867 0.092469 -0.037795
0.170953 -0.026768 0.096338
0.316352 0.054170 0.084159
-0.354254 -0.081262 -0.057696
0.360625 0.051228 -0.085584
0.386137 0.017036 -0.098223
-0.439805 -0.005863 0.099882
-0.385893 0.099788 0.006663
0.359780 -0.069998 -0.070898
-0.145454 -0.089370 -0.044105
-0.125073 -0.038658 -0.091826
-0.232152 -0.077795 -0.062270
0.047977 0.065418 0.075710
-0.347498 -0.005263 0.099901
-0.235207 -0.055641 -0.082639
0.254059 -0.022610 -0.097042
-0.005168 -0.041717 0.090865
-0.022810 -0.098172 -0.017464
0.443700 -0.038912 0.092079
-0.300889 0.065150 -0.075583
-0.258627 0.013979 0.099070
0.051516 0.060558 0.079652
0.088453 0.024660 -0.096636
0.436648 -0.020085 -0.097606
0.036197 -0.006280 0.099861
0.043651 0.080786 -0.058715
0.199474 0.094872 0.031726
-0.110431 -0.025058 -0.096472
-0.199993 0.094364 -0.032776
-0.117618 -0.017557 0.098466
-0.207505 -0.096782 -0.023996
0.146134 -0.030637 0.095214
-0.347066 -0.062946 -0.077256
-0.291079 -0.054926 0.083487
0.091520 0.063882 -0.076701
-0.349876 -0.022246 -0.097123
0.204498 0.099803 -0.006150
0.282187 0.082663 -0.055980
0.330280 -0.039678 0.091747
-0.388551 0.075035 -0.065812
-0.464491 0.030526 0.095314
-0.031515 0.006961 0.099819
0.395569 -0.060631 -0.079052
0.065899 0.099634 0.008291
0.379096 -0.099062 0.011879
0.323931 -0.020095 -0.097604
0.325991 0.099122 0.013306
0.242448 -0.088740 -0.045342
-0.198791 -0.066934 0.074168
-0.154524 0.085126 -0.052208
-0.048829 0.029783 -0.095167
0.095534 -0.099359 0.008732
-0.241686 0.064793 -0.075898
0.294171 0.092045 0.039139
-0.359317 -0.072485 -0.068411
0.134959 -0.095572 -0.028314
-0.045543 0.087793 0.048023
-0.368064 -0.089297 -0.044250
0.293134 0.088717 0.046208
0.180693 0.084841 0.053052
0.398467 0.096206 0.027297
-0.168242 0.092219 0.038735
0.391046 0.083152 -0.055260
-0.340189 0.065267 -0.075480
-0.314616 0.074803 -0.066076
0.169398 0.082927 0.055953
0.101865 -0.085292 -0.051533
0.232730 -0.034449 0.093850
-0.239639 0.097504 0.022175
-0.144837 -0.076714 -0.063643
0.313758 0.030123 0.095431
0.332809 -0.012823 0.099216
0.316211 -0.070081 -0.070815
-0.193656 -0.075370 -0.065168
0.270091 -0.065667 -0.074922
-0.095902 -0.054367 -0.083505
0.222987 -0.026033 0.096552
0.364121 0.099837 0.005550
0.118622 -0.037278 -0.092423
-0.276896 0.081105 -0.058272
0.370776 0.085221 -0.052047
-0.216926 0.047111 -0.087926
-0.401190 -0.096894 0.023856
0.427482 -0.092260 0.038102
-0.019659 -0.099438 0.007903
0.121582 -0.096826 -0.023801
0.396624 -0.093310 -0.035055
0.031817 0.061195 0.079158
-0.143440 -0.056264 0.082578
-0.043404 0.022053 -0.097218
0.360376 -0.099546 0.006757
0.001488 -0.024692 -0.096576
-0.340084 -0.085074 0.052264
-0.364075 -0.045412 0.089036
-0.353929 -0.099589 0.006008
0.072384 0.037944 -0.092236
-0.154867 -0.020053 -0.097613
-0.257893 -0.096463 -0.025248
0.216895 0.027685 -0.095777
0.137558 0.000657 -0.099690
-0.194974 0.099787 -0.006311
-0.396832 -0.055484 0.083108
-0.259305 -0.053042 0.084736
0.049190 -0.098174 -0.017453
-0.212500 0.082648 0.056365
-0.271639 -0.090780 0.041522
0.369263 0.056847 0.082340
-0.342781 0.028885 -0.095428
0.021170 -0.001139 -0.099668
-0.212693 -0.083469 0.054812
0.210867 -0.056592 -0.081992
-0.438822 -0.065826 -0.074781
-0.115565 -0.097323 -0.021575
-0.056146 -0.096762 -0.024084
0.077275 0.088058 0.047502
-0.289679 -0.000575 -0.099685
-0.060724 -0.016248 0.098673
-0.243213 -0.015689 -0.098399
-0.387223 0.068566 -0.072564
-0.082874 0.030232 0.095400
0.019718 -0.082529 0.056195
-0.392182 -0.032546 -0.094172
0.390243 0.096437 0.026504
0.047528 -0.099416 0.008137
0.275628 0.096202 -0.026949
0.438038 0.065036 0.076047
0.463166 0.099331 0.011503
0.196240 -0.021384 -0.097316
0.061146 0.033628 0.094229
-0.443318 -0.029055 0.095674
-0.186256 -0.068417 0.072842
-0.112147 -0.099531 0.006916
0.420690 -0.045131 0.089179
0.350394 -0.092249 0.038128
-0.427843 -0.038963 -0.091694
-0.370529 -0.070667 -0.070229
-0.272724 -0.060961 -0.078796
0.310578 -0.063405 -0.076900
-0.103676 0.002512 0.099995
-0.066154 0.055484 -0.082904
0.040499 0.082112 0.057153
0.417121 0.065429 -0.075338
0.394034 0.056358 0.082672
0.214383 0.089466 0.044738
-0.402072 -0.023221 -0.096905
-0.351396 -0.044726 0.089385
-0.398563 0.073766 -0.067251
0.000931 0.002765 -0.099624
-0.315521 -0.085335 -0.051459
0.263849 -0.044093 -0.089345
0.268037 -0.049909 -0.086225
0.016169 0.092039 0.039152
0.236711 -0.002953 -0.099611
-0.284953 -0.015227 0.098835
-0.159871 0.082477 -0.056253
-0.424617 -0.031140 0.095041
-0.266369 -0.011665 0.099352
-0.366125 -0.063022 0.077560
0.192010 -0.095599 0.028583
0.112304 -0.091390 0.040112
-0.268660 -0.088360 0.046451
-0.459272 0.066002 0.075195
-0.083715 0.076223 0.064827
0.452469 -0.065575 -0.075003
-0.202569 -0.024665 0.096945
0.083150 -0.049108 0.087062
0.145642 0.029968 0.095476
0.324716 0.063227 -0.077220
-0.423899 0.001361 0.100031
-0.203122 -0.043911 0.089800
-0.149678 -0.066049 -0.074585
-0.415621 0.099919 0.002941
-0.216589 -0.065552 -0.075023
0.218522 0.061722 -0.078387
0.329975 0.098100 0.019509
-0.310188 -0.067638 -0.073184
0.445961 0.024872 0.096951
0.387043 0.083735 0.054765
0.178460 0.077651 0.063119
0.462778 0.066014 0.075185
0.010998 -0.082750 -0.055508
0.432122 -0.082794 -0.055443
-0.422667 0.096364 -0.026393
0.327155 -0.051055 0.085911
0.283831 -0.084628 -0.052655
0.293180 0.058692 0.081086
-0.024530 -0.011774 -0.098979
-0.263874 -0.095187 0.030001
0.267605 -0.098356 -0.016302
0.149323 -0.081758 0.057330
0.095955 -0.097536 0.020988
0.376615 -0.098017 0.018809
-0.438018 0.005069 -0.099552
-0.375219 -0.076255 0.064526
0.278147 0.039320 0.092003
0.359136 0.011596 -0.099018
-0.438953 0.094827 0.031851
-0.252223 0.045361 -0.088818
0.250654 0.023948 0.097158
-0.193038 -0.085375 0.051755
0.057598 0.077003 -0.063580
-0.131225 -0.079834 0.060005
-0.216339 -0.007247 0.099770
-0.026863 -0.016731 0.098597
0.351400 0.098630 -0.016045
-0.346482 0.099927 0.002660
0.412239 0.084017 -0.053987
0.428266 -0.046383 0.088541
0.109257 -0.010087 -0.099138
0.208770 -0.041811 0.090824
0.024594 0.078712 -0.061389
0.191215 0.099939 -0.001921
-0.424869 0.073261 -0.067825
-0.418220 -0.015779 0.098747
0.069801 -0.093342 0.035329
0.098479 -0.006529 -0.099475
0.408421 0.096823 -0.024810
0.397302 -0.093816 0.034013
0.241846 0.081712 0.057741
0.335662 -0.076647 -0.063718
-0.061684 0.075546 0.065595
-0.322630 -0.069837 -0.071059
-0.098494 -0.091734 0.039318
0.103203 -0.010638 -0.099086
0.457725 0.048274 0.087693
-0.447734 -0.021429 -0.097306
0.391848 0.075039 -0.065807
0.441063 0.099656 0.008058
-0.293452 0.064805 -0.075888
0.042444 -0.097276 0.022150
-0.327698 0.098062 0.019679
0.441547 -0.043466 -0.089664
-0.150571 -0.095400 -0.028906
-0.060994 -0.008149 -0.099322
0.175519 -0.097827 0.019682
-0.092561 0.093048 -0.036431
0.178522 -0.052299 0.085175
-0.068214 -0.034377 0.093876
-0.382140 0.042389 0.090675
0.027254 -0.096380 0.025895
-0.074943 -0.071930 -0.068966
0.389605 0.094071 -0.033590
-0.179800 0.004541 -0.099568
0.242406 0.067691 -0.073343
0.109219 0.039209 0.092051
-0.225296 -0.001681 -0.099651
0.416081 0.053284 0.084730
0.083206 0.012218 -0.098959
0.048503 0.019752 0.098096
0.439670 0.024633 -0.096642
0.047840 0.050521 0.086364
0.184376 0.082419 -0.056339
-0.192946 0.063211 -0.077232
-0.449575 0.096983 -0.024143
-0.222168 -0.000869 0.100039
-0.197156 0.066859 0.074440
-0.283892 0.060574 -0.079277
-0.100760 -0.050634 -0.085797
-0.256226 0.078575 -0.061566
-0.302862 0.041579 0.091025
-0.386570 0.085063 0.052676
-0.172808 0.056022 0.082901
0.009573 0.073485 -0.067570
-0.214027 0.078784 0.061659
-0.054666 0.077615 0.063166
-0.142861 0.099242 -0.012080
0.011715 0.008105 0.099711
0.240785 0.052169 0.085390
-0.170669 0.076900 0.064060
-0.377813 0.062088 -0.078103
-0.369940 -0.068427 0.072831
0.121373 0.070770 -0.070360
-0.215362 0.067644 -0.073385
0.355729 0.099888 -0.003556
0.274780 0.031671 0.094934
-0.387110 -0.096439 0.025692
0.044586 -0.065119 -0.075405
-0.397121 -0.093844 -0.033572
0.210309 -0.093823 -0.033630
0.273377 0.076499 0.064515
0.258941 0.080587 -0.058972
-0.139308 0.095326 -0.029966
0.191048 0.089223 0.045215
0.003834 -0.098545 0.015473
0.314461 -0.094787 0.031315
-0.163141 0.065224 0.075881
-0.050926 0.095797 -0.028344
-0.048207 0.051798 -0.085247
-0.234696 0.073913 0.067447
0.259743 0.073861 0.067506
-0.314712 0.025498 0.096775
0.100226 0.067511 0.073865
0.321352 -0.096576 0.025220
-0.301317 -0.017832 -0.098060
-0.284277 0.028497 -0.095541
0.260698 -0.027183 0.096218
0.076794 0.075124 0.066073
-0.123709 0.026147 0.096586
0.328155 -0.058841 0.080803
-0.454430 0.056071 0.082868
-0.176180 0.099375 0.011033
-0.438235 0.086135 0.050864
-0.129753 0.093718 0.034934
0.188506 -0.049680 0.086724
-0.163742 0.044883 -0.089061
0.354925 -0.034333 0.093891
-0.092051 -0.091230 0.040481
0.219856 -0.011343 -0.099020
-0.125046 0.099983 -0.000513
0.287785 0.087775 0.048058
0.338177 -0.088223 -0.046357
0.323626 0.099694 0.007660
-0.176625 -0.020899 0.097787
0.224764 -0.069943 -0.070953
-0.348707 -0.092767 0.036927
-0.202010 -0.087853 0.047446
0.239192 0.031595 0.094961
-0.250753 0.013587 0.099132
0.110481 -0.038130 0.092417
0.290742 0.046780 -0.088095
0.366562 -0.062005 0.078349
-0.320209 0.098729 0.015783
-0.275289 -0.097103 0.022925
0.430653 -0.051298 0.085767
0.268131 0.079126 -0.060855
-0.431486 0.068866 0.072626
-0.155075 0.099434 0.010408
-0.361800 0.048621 -0.087125
-0.282623 0.065145 0.075950
-0.239114 -0.042557 -0.090128
-0.466850 -0.030916 -0.094759
-0.204637 -0.008774 -0.099263
0.082514 0.043366 0.090197
-0.065612 -0.075543 -0.064971
-0.244460 -0.044214 0.089646
0.362692 0.045485 -0.088754
-0.080520 -0.015920 0.098725
0.162331 -0.018909 0.098232
-0.393417 0.036874 -0.092698
-0.095648 -0.084844 0.052653
-0.095116 0.098357 0.018132
-0.018297 0.071383 0.070109
-0.067532 0.097059 0.024165
-0.181191 -0.004595 0.099922
0.197228 -0.048230 0.087582
-0.465180 0.050951 -0.085747
0.078686 0.099005 -0.013680
-0.265498 0.095224 -0.030317
0.046501 -0.039741 0.091720
0.284742 -0.099582 -0.005869
0.047632 -0.012199 0.099302
0.209578 0.087454 -0.048271
-0.317418 -0.076681 -0.063680
0.453330 -0.079546 -0.060012
-0.052147 0.005772 -0.099529
-0.156628 -0.031199 0.095020
-0.004315 0.056988 0.082245
-0.189659 -0.050593 -0.085821
-0.281578 0.006676 0.099846
0.123672 0.010456 0.099488
-0.006318 -0.017028 -0.098187
0.080484 -0.099728 0.001593
-0.060072 -0.075392 0.065505
-0.254438 0.019511 0.098149
0.139281 -0.099584 0.006147
0.199877 0.045773 0.088970
-0.233043 -0.044639 -0.089067
0.225693 0.005892 -0.099526
-0.101133 -0.083283 -0.054724
-0.356902 0.076366 -0.064302
-0.194702 -0.094157 -0.032703
0.015991 -0.034250 -0.093558
-0.365637 -0.089814 0.043597
0.221972 -0.011927 0.099327
0.285897 0.098688 0.016043
0.446437 -0.062391 0.078050
0.445467 -0.015540 -0.098423
0.399205 0.098351 -0.017809
-0.027627 -0.075508 -0.065011
0.347635 -0.068368 0.072891
-0.343718 0.018499 0.098354
0.118472 0.089826 0.044031
0.399546 -0.027865 0.096019
-0.241496 0.098573 0.016774
0.177593 -0.091798 -0.038807
0.016270 -0.034221 0.093931
-0.245464 0.072968 0.068520
0.425753 -0.061954 0.078388
0.012876 0.026655 -0.096076
0.261300 0.013886 0.099084
0.232244 -0.058333 -0.080809
0.353973 0.099359 -0.010837
-0.142925 0.093019 0.036875
0.186152 0.076877 -0.063723
-0.310316 -0.062587 0.077897
-0.308999 -0.056870 -0.081803
-0.319403 0.000329 0.100063
0.106544 -0.063982 -0.076408
0.093007 -0.052017 -0.084979
-0.377523 0.027951 0.096062
0.449597 0.008244 -0.099335
0.438551 0.070437 -0.070692
-0.092932 0.090047 0.043599
-0.028491 0.097496 0.022209
-0.086848 -0.081093 0.058308
0.344914 -0.051865 0.085432
0.272644 0.098838 0.015096
0.309610 -0.008320 -0.099305
-0.412496 0.035267 -0.093276
-0.058452 0.054284 0.084082
-0.304823 -0.028518 0.095830
-0.001905 -0.030085 -0.095012
-0.155772 -0.099326 -0.008722
-0.461196 0.099940 0.002270
-0.130837 0.085603 0.051765
0.197497 0.051487 0.085793
-0.031978 0.099840 0.005452
0.046175 -0.086594 0.049693
0.244427 -0.030967 -0.094740
0.199724 0.062048 -0.078134
-0.460695 -0.020806 0.097808
0.442568 -0.023368 -0.096872
-0.142991 -0.070148 0.071110
-0.289397 0.099837 0.005529
-0.048168 0.013814 -0.098733
0.127327 -0.072994 -0.067863
-0.282453 0.059983 0.080099
-0.463244 -0.089497 0.044218
-0.219234 0.088845 -0.045594
0.039466 -0.016531 -0.098266
-0.312561 0.011597 0.099381
-0.300862 0.086933 -0.049152
0.023076 0.094900 0.031651
-0.325043 -0.017804 -0.098064
0.318858 0.096203 0.027307
-0.261433 0.099133 -0.012875
-0.276826 -0.013972 0.099034
0.450866 0.098163 -0.018861
-0.187059 -0.098216 -0.017186
0.100460 0.049844 -0.086402
0.222730 0.055627 0.083170
0.220083 -0.049214 -0.086636
-0.358375 -0.088329 0.046512
-0.066812 0.000567 0.100056
0.459373 0.028012 -0.095682
0.082643 0.094981 0.031426
0.032472 -0.098126 0.018117
0.192495 -0.097644 0.020504
-0.143394 0.033388 0.094316
-0.361847 -0.095391 0.029301
-0.333136 -0.023614 0.097180
-0.449282 -0.080177 0.059561
-0.247750 0.083385 -0.054916
0.360283 0.089583 0.044508
-0.179459 0.060849 -0.079064
-0.347496 -0.060443 0.079561
-0.138914 -0.020494 0.097877
0.120030 -0.091807 -0.038787
0.371038 -0.084806 0.052717
0.248069 0.084981 -0.052453
0.005102 0.085454 0.052016
0.327558 -0.097696 -0.019907
0.031015 -0.057421 -0.081429
-0.313153 -0.032659 0.094494
-0.162215 0.001187 -0.099674
-0.296027 0.087177 0.049103
0.340899 -0.090868 -0.040957
0.055995 -0.049765 -0.086311
0.277949 -0.098805 -0.013471
-0.147662 0.048900 -0.086961
-0.017163 -0.080913 0.058574
-0.398464 -0.099068 -0.011457
-0.211510 0.038109 -0.092165
-0.336859 -0.040818 -0.090891
0.394769 0.050253 0.086523
0.232480 0.067349 -0.073644
0.152677 -0.098580 0.015255
0.165178 -0.025737 0.096638
0.257601 0.038309 0.092441
-0.022026 -0.088919 0.045353
0.322186 -0.068324 -0.072572
0.302065 -0.032588 -0.094157
-0.205266 -0.075660 -0.064839
0.117759 0.079669 0.060518
-0.270004 0.098797 0.015356
0.178255 -0.098800 0.013863
0.293000 0.098723 -0.015459
-0.250089 -0.097247 -0.021914
-0.441281 -0.067173 0.073957
0.274463 0.025376 0.096810
0.156157 0.099899 -0.003212
0.093036 -0.001593 -0.099653
-0.055980 0.096334 0.026856
-0.384550 0.022949 0.097381
-0.272016 0.063865 -0.076717
0.130385 -0.099469 -0.007214
-0.048001 0.089017 -0.045258
-0.013523 0.045957 0.088877
0.037528 0.045576 0.089071
0.334906 -0.038028 -0.092098
-0.335247 0.007109 -0.099442
0.178585 0.049039 0.087241
0.141989 0.083262 -0.055097
0.433300 0.073046 -0.068068
0.426506 0.064937 0.076134
-0.240910 -0.057253 0.081906
0.163387 0.070603 0.070889
0.307086 -0.010034 0.099506
-0.282702 0.070747 0.070746
0.432065 0.097924 0.020292
0.255322 0.065351 0.075769
-0.239412 -0.028390 -0.095504
0.288267 0.086087 -0.050582
-0.392938 0.001731 0.100019
-0.060622 0.047803 -0.087574
0.223549 0.083432 -0.054848
0.413567 -0.007822 0.099715
-0.322075 -0.064127 0.076642
-0.431164 0.034275 -0.093634
0.355957 0.023760 0.097200
-0.398091 0.052025 -0.085112
0.213394 -0.098929 -0.012687
-0.411848 -0.065605 0.075339
-0.194716 0.050935 -0.085757
-0.399080 -0.047724 0.087858
0.225801 0.018966 0.098271
0.088857 0.099103 0.013426
-0.240717 0.071037 -0.070092
-0.211995 0.098824 0.015183
-0.369446 -0.077281 0.063295
0.322808 -0.002474 0.099989
-0.208603 0.037596 0.092749
0.349057 0.080873 -0.058603
-0.361804 -0.072506 0.068753
0.115721 -0.097030 -0.022888
-0.166992 -0.098382 0.016501
0.241329 0.058845 0.080981
0.259682 -0.086694 -0.049162
-0.393974 0.093597 -0.034907
-0.130252 -0.013760 0.099067
-0.448550 -0.058606 0.080985
-0.432576 0.014121 0.099047
-0.072078 0.029813 0.095521
0.253255 -0.089180 0.044841
-0.426868 0.051850 0.085579
0.245462 -0.082445 -0.055956
-0.464807 0.033939 -0.093755
-0.211212 0.093876 0.034494
-0.080087 -0.014247 -0.098627
-0.244172 0.013772 0.099102
-0.256538 -0.063869 0.076870
0.060521 -0.089237 0.044730
-0.278446 -0.070712 0.070547
-0.357290 -0.057826 0.081517
-0.289371 -0.029962 -0.095048
0.425867 -0.081106 -0.057927
0.093540 -0.059169 0.080549
0.372207 -0.090492 0.042188
0.184168 0.095148 0.030939
-0.228716 -0.092641 0.037222
-0.089251 0.005571 0.099899
-0.344243 -0.069549 -0.071347
0.432388 -0.031398 0.094948
-0.463655 0.001109 -0.099676
-0.186566 0.011856 -0.098993
-0.310317 0.061814 -0.078315
-0.445982 -0.015509 0.098790
0.445454 0.084608 -0.053083
-0.378286 -0.043485 -0.089655
0.158874 -0.010391 -0.099110
-0.198801 -0.010063 -0.099141
-0.305234 -0.094012 0.033468
-0.241136 -0.061146 -0.078652
-0.316027 -0.039793 0.091697
0.062069 -0.087473 -0.047830
0.009765 -0.097847 -0.019232
0.233393 -0.004852 0.099914
0.369174 -0.093019 -0.035865
0.165611 -0.081508 -0.057336
0.342990 -0.065331 0.075580
-0.151085 -0.092764 0.036935
0.138954 0.099929 -0.002257
-0.124180 0.046718 0.088489
0.014918 0.000736 -0.099688
-0.043587 -0.005869 -0.099519
0.304239 -0.071334 -0.069562
-0.093861 -0.098901 -0.012861
-0.251609 -0.086159 0.050430
0.302306 0.096149 0.027496
0.135981 0.086015 0.051068
0.038515 0.006501 0.099862
0.026835 -0.046704 -0.088015
0.222187 -0.016678 -0.098242
0.184142 -0.097853 0.019566
0.303158 0.003913 0.099951
-0.055118 -0.092271 0.038077
-0.010711 0.008943 0.099631
0.119825 -0.023901 0.097116
0.327923 -0.025671 0.096657
0.128454 0.039857 -0.091408
0.344899 0.015681 -0.098437
0.301645 -0.098114 0.018198
0.102762 0.091130 0.041253
0.342870 0.096319 -0.026547
0.100339 -0.018853 -0.097882
0.448049 0.061988 -0.078180
0.253055 -0.028975 -0.095334
-0.302374 -0.097832 0.019662
-0.171165 -0.024642 0.096950
0.322283 0.050727 0.086243
0.002555 -0.068530 0.072729
0.034389 -0.083304 0.055056
-0.009421 -0.010365 0.099475
-0.032288 0.093972 0.034227
0.266124 0.099472 0.010009
-0.147012 0.008342 0.099688
0.074766 0.051715 -0.085296
0.239300 0.099879 0.004189
-0.172115 0.088230 -0.046802
-0.407662 -0.097137 0.022771
-0.398492 -0.035349 0.093526
0.406175 -0.089276 0.044652
-0.373950 0.065733 0.075432
-0.236510 0.039651 -0.091497
-0.388709 -0.038263 -0.091997
0.202222 -0.068319 -0.072577
-0.447888 -0.099234 0.010054
0.018675 -0.071022 -0.069874
-0.215504 0.032732 -0.094189
-0.327658 0.059088 0.080793
0.404737 -0.086470 0.049904
0.058506 0.008362 -0.099324
-0.023206 0.023755 -0.096838
0.038796 0.051837 0.085586
0.023154 -0.056970 -0.081735
-0.190620 0.067048 0.074273
0.162403 0.043867 -0.089579
0.412721 -0.059322 0.080430
0.364349 0.081536 -0.057637
-0.065596 0.088312 -0.046640
0.212558 -0.005666 0.099888
-0.349508 -0.099008 0.012452
0.094188 -0.037564 -0.092299
-0.411490 0.098703 0.015948
0.135845 0.089771 0.044139
0.377405 0.098404 -0.017474
0.355578 -0.027122 0.096235
-0.104868 0.072842 -0.068287
-0.395786 0.049869 0.086750
-0.036064 -0.091719 -0.038990
-0.250131 -0.078118 0.062216
-0.067134 0.035735 0.093470
-0.400284 -0.099576 0.006408
-0.004422 0.057673 -0.081416
0.196989 0.090219 0.043260
0.426020 -0.073998 0.067086
-0.084140 0.040108 -0.091299
0.363618 -0.076455 -0.063937
0.050974 -0.099724 0.001708
0.287948 -0.078414 -0.061472
-0.437048 0.089804 0.044076
-0.023712 -0.004281 -0.099569
0.170348 -0.070751 0.070508
0.293682 -0.088999 -0.044834
-0.326855 0.053068 -0.084496
-0.436953 -0.002612 -0.099621
0.296374 -0.049918 -0.086220
0.184069 -0.089762 -0.043337
-0.268259 -0.064731 0.076110
0.228706 -0.078616 -0.061212
-0.407684 -0.085356 0.051787
-0.031837 -0.014291 -0.098620
0.407345 -0.050180 -0.086065
0.135720 -0.070391 -0.070505
0.008648 0.082028 -0.056914
0.160696 -0.035164 -0.093229
-0.242520 0.004832 -0.099559
-0.269287 0.022288 -0.097166
-0.399857 0.040255 -0.091236
0.179405 0.099970 0.001297
0.153036 0.030940 0.095194
0.049765 -0.022589 -0.097046
0.242018 0.094525 0.032691
-0.155708 -0.082867 0.055699
-0.008573 -0.041744 -0.090490
-0.059731 -0.065689 0.075266
0.435404 -0.068991 0.072268
-0.037526 0.007056 -0.099447
0.452329 -0.032015 0.094726
0.382811 0.075016 -0.065833
-0.377915 -0.057559 -0.081335
0.269846 0.073110 0.068358
-0.397407 0.017998 0.098433
0.063754 0.097789 0.020899
0.341901 -0.099692 0.002733
0.215533 -0.068813 0.072446
0.061621 -0.037970 0.092486
0.235214 0.099423 0.010528
-0.214871 0.076849 -0.063755
-0.096725 -0.088448 -0.045915
0.033994 0.012184 0.099325
0.109362 -0.081318 0.057978
-0.296336 -0.098030 0.018726
-0.152700 0.038221 -0.092116
0.225078 -0.006927 -0.099437
0.096575 0.093702 -0.034615
-0.391322 0.038366 0.092416
-0.135088 -0.070185 0.071073
-0.248962 0.082954 0.055913
-0.154384 0.016777 0.098626
0.225435 0.023520 -0.096891
-0.315509 0.048430 -0.087238
0.145225 0.052571 0.085152
0.011989 -0.099708 -0.001849
-0.105956 -0.097862 0.019529
-0.321220 0.058767 0.081036
-0.370068 0.099620 -0.008083
0.028472 -0.001625 -0.099652
-0.036085 -0.078016 -0.061985
