-21.440124 6.689133 -13.480755
-21.259575 4.328580 -57.486559
-21.282958 4.634298 -13.812207
-20.958126 0.387367 -4.628619
-20.932089 0.046958 -3.979005
-21.214543 3.739831 -18.652740
-20.951483 0.300518 -27.827432
-21.257883 4.306461 -56.821931
-21.257577 4.302456 -31.325410
-21.397520 6.132118 -39.740499
-21.410752 6.305108 -2.224897
-20.933786 0.069135 -55.420091
-21.128433 2.614006 -48.704955
-21.088145 2.087264 -8.344320
-21.288589 4.707919 -41.176041
-21.539620 7.989959 -19.999839
-20.938292 0.128057 -18.080016
-21.349358 5.502427 2.566671
-21.085418 2.051609 -40.662066
-20.924033 -0.058376 -10.954190
-21.458155 6.924866 0.573969
-21.289301 4.717226 -46.867722
-21.231311 3.959052 -14.168043
-21.527697 7.834075 -35.048699
-21.461567 6.969482 -10.247133
-21.211159 3.695577 -20.424170
-21.430044 6.557344 -55.719740
-21.126470 2.588333 -18.271944
-20.964218 0.467015 -44.916177
-21.377188 5.866288 -31.583942
-21.218444 3.790825 -51.365894
-21.203222 3.591815 -43.038497
-21.501954 7.497502 -1.047855
-21.274025 4.517512 -11.763324
-21.431068 6.570720 -37.180984
-20.975352 0.612579 -13.141045
-21.436229 6.638196 -9.049038
-20.921308 -0.094005 3.568752
-21.150170 2.898200 -26.710061
-20.976837 0.632004 -55.064407
-21.527540 7.832023 -10.006200
-21.088206 2.088070 3.616889
-21.026966 1.287400 -57.690665
-21.534621 7.924598 -33.405959
-21.070657 1.858625 -8.911019
-21.378582 5.884506 -53.823263
-21.265728 4.409027 -25.761429
-21.063736 1.768138 -16.400735
-21.332316 5.279615 -54.407929
-21.224118 3.865017 -24.344601
-21.155923 2.973412 -32.847981
-21.468109 7.055005 -31.284716
-21.194014 3.471429 -47.374711
-21.044480 1.516386 -1.453372
-21.250571 4.210863 -1.512627
-21.121526 2.523703 -47.250906
-21.250199 4.206005 -33.018226
-20.932600 0.053634 -39.713785
-21.024066 1.249479 -53.250480
-20.924812 -0.048186 -19.015814
-21.059305 1.710202 -39.256070
-21.496445 7.425477 -38.896493
-21.521438 7.752241 -30.151767
-21.120898 2.515487 -27.409733
-21.043457 1.503004 -34.214061
-21.212998 3.719629 -56.452697
-21.229477 3.935074 -51.947575
-21.293830 4.776446 -30.250554
-20.969613 0.537546 -46.559674
-21.461240 6.965203 -15.281089
-21.352821 5.547707 -24.298794
-20.968870 0.527836 -15.946440
-21.472306 7.109879 -13.913263
-21.152427 2.927706 -25.482612
-21.053487 1.634145 3.186147
-21.176786 3.246187 -48.918743
-21.324030 5.171282 -37.461420
-20.925482 -0.039429 -19.907862
-20.950632 0.289392 -42.945681
-21.178834 3.272955 -41.295693
-21.185350 3.358145 -2.214869
-21.345467 5.451558 -48.079855
-21.306445 4.941378 -17.573132
-21.434353 6.613676 -11.999685
-21.002611 0.968973 -36.156244
-21.086526 2.066104 -22.820529
-21.292940 4.764812 -25.232047
-21.391204 6.049534 -36.034666
-21.037775 1.428715 -41.944281
-21.450987 6.831158 -54.868360
-21.178709 3.271326 -44.765236
-21.494610 7.401496 -48.865882
-20.973464 0.587904 -2.942739
-21.000871 0.946223 -55.684296
-21.449152 6.807163 -1.454143
-21.458960 6.935393 -22.957458
-21.537803 7.966204 -23.691711
-21.078825 1.965421 -2.106923
-21.079707 1.976942 -5.686616
-20.990276 0.807700 -24.601600
-21.395925 6.111255 -41.430487
-21.162671 3.061636 -55.277771
-21.363330 5.685107 -2.330554
-21.023689 1.244551 -16.807016
-21.001622 0.956043 -17.393619
-21.247196 4.166739 -43.481341
-21.166013 3.105339 -22.081269
-21.135379 2.704817 -45.125394
-20.928969 0.006161 -6.616198
-21.539418 7.987326 -51.121101
-20.924594 -0.051042 -41.331673
-21.037362 1.423313 -6.753748
-21.299566 4.851431 1.800434
-21.447034 6.779467 -60.347956
-21.191354 3.436641 -21.527353
-21.539380 7.986818 -29.603446
-20.981078 0.687444 -12.504551
-21.501587 7.492709 -8.708523
-20.934588 0.079619 -33.296041
-21.221820 3.834964 -44.606989
-20.985507 0.745352 0.672384
-21.043622 1.505157 -56.138062
-21.293192 4.768102 -60.630585
-21.131137 2.649349 -22.924568
-20.928704 0.002694 -1.974866
-21.293193 4.768116 -51.911762
-21.338201 5.356565 -28.202548
-21.334031 5.302037 -24.848098
-21.052487 1.621062 -36.502250
-20.922400 -0.079722 -50.279224
-21.382579 5.936771 -17.417213
-21.221401 3.829489 -45.864285
-21.265608 4.407464 -12.622454
-20.928484 -0.000183 -14.934813
-21.500589 7.479660 -57.085974
-21.477979 7.184050 -30.629029
-20.924155 -0.056780 -14.282393
-21.125716 2.578474 -51.795641
-21.511342 7.620242 -5.056956
-21.243726 4.121371 -26.482730
-21.292875 4.763960 -3.474130
-21.188103 3.394144 -39.540780
-21.108007 2.346944 -51.030666
-20.960418 0.417334 -39.001846
-21.281486 4.615061 -54.629472
-21.443086 6.727848 -14.555716
-20.998144 0.910577 -43.219353
-21.032502 1.359781 3.723837
-21.281056 4.609428 -34.128625
-21.422236 6.455252 -51.416652
-21.036337 1.409920 -48.443509
-21.324260 5.174289 -22.566945
-21.088340 2.089821 -25.251713
-20.947343 0.246382 -8.461955
-21.414617 6.355646 -59.482937
-21.498951 7.458241 -47.016096
-21.002592 0.968724 -23.124006
-21.156169 2.976623 -43.236224
-21.315274 5.056812 -49.846187
-21.255797 4.279194 -13.375259
-21.109978 2.372721 -3.808111
-21.366942 5.732329 -16.406426
-21.107006 2.333862 -23.493064
-21.389807 6.031275 -23.936238
-20.992024 0.830562 -18.283210
-21.282845 4.632821 1.093337
-21.087632 2.080554 -30.348653
-21.467334 7.044873 -0.485855
-21.378291 5.880711 -2.930373
-21.172431 3.189238 -53.308336
-20.943824 0.200381 -36.946693
-20.917736 -0.140707 -30.775589
-21.391087 6.048008 2.842706
-21.104732 2.304129 -29.410372
-21.322833 5.155633 -43.513293
-20.974004 0.594959 -25.947578
-21.404847 6.227909 -16.772556
-21.100636 2.250583 0.776496
-21.196489 3.503778 -40.196847
-21.343074 5.420265 -38.176478
-21.088991 2.098327 -36.870059
-21.029319 1.318162 -18.698019
-20.917512 -0.143631 -32.489486
-21.492317 7.371505 -19.057184
-20.936286 0.101823 -3.396296
-20.964964 0.476775 -35.664980
-21.231328 3.959274 -58.851731
-21.527442 7.830738 -60.480005
-21.322589 5.152450 -11.653078
-21.448919 6.804111 -16.948572
-21.474654 7.140587 1.294163
-21.343520 5.426103 3.287543
-21.322665 5.153435 -59.655586
-21.458858 6.934061 -29.765750
-21.421815 6.449747 -36.532091
-21.105006 2.307706 -59.455799
-21.245024 4.138338 -17.097376
-21.141332 2.782653 0.973598
-21.214809 3.743298 -4.410753
-21.263467 4.379471 2.265492
-21.178858 3.273271 -8.308044
-21.362189 5.670192 -11.345116
-21.141544 2.785417 -14.058372
-20.987055 0.765586 -3.545624
-20.922159 -0.082869 -59.520798
-21.225086 3.877672 -3.536068
-20.991494 0.823631 -59.942601
-21.175335 3.227216 -24.698893
-21.098470 2.222254 -4.914042
-21.516920 7.693180 -46.469866
-21.539629 7.990084 -6.856724
-21.015904 1.142775 -46.253948
-21.136916 2.724914 -7.268501
-21.158166 3.002734 -60.100466
-21.185754 3.363435 2.468255
-21.249028 4.190684 -23.639634
-20.989175 0.793309 -53.712986
-21.225228 3.879525 -22.616523
-21.309957 4.987290 -35.063798
-21.025597 1.269495 -2.536147
-21.338855 5.365113 -4.564030
-20.926119 -0.031106 -23.544315
-21.243259 4.115272 -36.767749
-21.136595 2.720714 -29.927715
-21.080531 1.987721 -48.358001
-21.334904 5.313457 -20.967864
-21.470601 7.087590 -21.039272
-21.041267 1.474377 -49.638243
-21.346613 5.466544 -19.285738
-21.022751 1.232286 -0.572909
-20.917681 -0.141426 -22.869913
-21.401010 6.177739 -4.889176
-21.011086 1.079773 -7.292727
-21.041188 1.473340 -23.422412
-21.532150 7.892294 -34.478585
-21.517424 7.699761 -16.901042
-21.284739 4.657582 -32.540512
-21.329169 5.238476 -0.438654
-21.210811 3.691038 -14.782751
-21.214144 3.734612 -35.433479
-21.329592 5.244008 -60.304364
-21.218038 3.785520 -22.060662
-21.416276 6.377331 -35.317724
-21.243259 4.115262 -0.165372
-21.081959 2.006391 -41.779240
-20.996179 0.884887 -29.985761
-21.194641 3.479625 -44.120470
-21.089096 2.099701 -11.403533
-21.164967 3.091661 -57.558851
-21.538554 7.976027 -39.932902
-21.358344 5.619912 -33.313786
-20.995194 0.872006 -10.311247
-20.992160 0.832340 -32.168476
-21.205327 3.619339 -60.341107
-21.199170 3.538832 -15.417309
-20.917748 -0.140541 -17.288099
-21.380792 5.913404 -8.725606
-20.981910 0.698330 -0.775827
-21.391107 6.048267 -25.713724
-21.382478 5.935453 -42.143239
-20.984284 0.729366 -5.291194
-21.502966 7.510737 -22.457423
-21.243618 4.119960 -46.632977
-21.232447 3.973908 -40.688646
-21.416021 6.373996 -46.368351
-21.428889 6.542236 -40.187157
-21.489674 7.336956 -1.780616
-21.450353 6.822860 2.877553
-21.194085 3.472346 -17.169201
-20.973735 0.591437 -18.949925
-21.140524 2.772089 1.785104
-21.131794 2.657950 -21.478030
-21.399876 6.162911 -56.746552
-20.956608 0.367523 -30.390027
-21.490659 7.349829 -60.076230
-21.532538 7.897369 -9.413074
-21.488970 7.327748 -26.783365
-20.918246 -0.134037 -43.768491
-21.058974 1.705876 -54.223844
-21.307551 4.955829 2.915574
-21.005472 1.006381 -16.292516
-21.397608 6.133266 -40.788121
-21.154495 2.954739 -18.826720
-21.331634 5.270705 -20.386165
-20.972392 0.573878 -45.961018
-20.941689 0.172460 -36.242243
-21.176729 3.245442 -19.974283
-21.039827 1.455548 1.310396
-21.254200 4.258307 -9.704738
-21.255848 4.279853 -18.092496
-21.433937 6.608242 -32.042680
-21.076194 1.931021 -38.114685
-21.261758 4.357128 -37.606576
-21.103733 2.291071 -37.547409
-20.981930 0.698585 -47.285467
-21.207173 3.643463 -7.059057
-21.395192 6.101674 -9.569852
-21.019872 1.194644 -35.607707
-21.404819 6.227535 -16.108686
-21.144527 2.824419 -20.782337
-21.195904 3.496136 -38.306838
-21.293530 4.772523 -33.437172
-21.503528 7.518086 0.712863
-21.319248 5.108767 -53.439903
-21.112797 2.409569 -32.714550
-21.382472 5.935374 -54.439331
-21.095979 2.189694 1.443238
-21.007446 1.032195 -45.613737
-21.179339 3.279554 -32.247306
-21.330283 5.253041 -36.636662
-21.425287 6.495146 1.186611
-21.445131 6.754590 -4.788887
-21.427574 6.525049 -38.717513
-21.360472 5.647740 -28.873837
-21.283725 4.644331 -15.275094
-20.946317 0.232972 -49.017428
-21.377916 5.875800 -56.029684
-21.528226 7.841000 -25.641411
-21.404965 6.229445 -14.006084
-21.242773 4.108908 -60.868309
-21.076580 1.936065 -35.061236
-21.369348 5.763779 -45.237756
-21.401729 6.187143 -19.252635
-21.016875 1.155469 -28.682206
-21.292145 4.754407 -48.228151
-21.480008 7.210575 3.444350
-21.166122 3.106754 -42.514472
-21.187532 3.386672 -8.920671
-21.063089 1.759673 -0.332284
-21.030060 1.327846 -27.315932
-21.127063 2.596084 -58.456206
-21.494082 7.394592 -28.483849
-21.192055 3.445811 -31.478900
-21.033892 1.377956 -31.293432
-21.208020 3.654544 -55.830717
-21.344676 5.441222 -29.751576
-20.918300 -0.133322 -16.480048
-21.193843 3.469191 -34.238830
-21.209592 3.675097 -57.886705
-20.965795 0.487639 -31.270477
-21.311728 5.010442 -4.092375
-21.432758 6.592822 3.859712
-21.524379 7.790700 -31.989834
-21.028183 1.303307 -58.389068
-21.347096 5.472852 -10.460444
-20.948917 0.266964 1.958400
-21.024638 1.256965 -51.182225
-21.145870 2.841983 -31.196169
-21.313551 5.034278 -18.137830
-21.077412 1.946940 -7.451359
-21.418813 6.410502 -20.549131
-21.171535 3.177533 -27.747751
-21.457428 6.915362 -2.382173
-21.033746 1.376036 -25.980537
-21.162830 3.063723 -56.244737
-21.253910 4.254513 3.147219
-21.214847 3.743798 -49.623658
-21.393351 6.077608 -20.037974
-21.330514 5.256064 -6.231741
-21.269694 4.460879 -22.232691
-21.281702 4.617875 -44.041374
-20.927968 -0.006930 -45.858177
-21.390966 6.046419 -60.970576
-21.044562 1.517454 -11.632063
-20.929043 0.007128 -54.241427
-21.206157 3.630187 -5.066476
-21.199955 3.549093 -10.754619
-21.041156 1.472917 -30.538670
-21.380869 5.914414 -34.699050
-21.164049 3.079653 -3.763403
-21.042776 1.494099 -26.733294
-21.069700 1.846110 -33.712667
-20.987281 0.768552 -39.775884
-20.925055 -0.045018 -58.481999
-21.484013 7.262946 -12.141531
-21.099085 2.230298 -34.289277
-21.483882 7.261224 -35.496011
-21.462139 6.976951 -57.528734
-21.268774 4.448855 -42.917704
-21.400316 6.168672 -52.047193
-21.412182 6.323808 -47.462197
-21.127380 2.600231 -35.475855
-21.074398 1.907533 -60.149669
-21.191142 3.433874 1.778934
-21.175131 3.224538 -0.841378
-21.032625 1.361389 0.692746
-21.538050 7.969434 -48.455964
-21.019600 1.191091 -4.489717
-21.101580 2.262914 -1.473202
-21.439841 6.685430 -26.944355
-21.302491 4.889679 -7.824245
-21.400717 6.173904 -29.330361
-21.076197 1.931059 -43.877976
-21.078584 1.962270 -33.129171
-20.972173 0.571021 -41.430807
-21.249165 4.192481 -41.482427
-21.484152 7.264753 -44.463349
-21.335509 5.321360 -14.009141
-21.125587 2.576798 -39.848263
-21.001977 0.960684 -30.777077
-21.265330 4.403833 -49.671383
-21.043919 1.509041 -50.239804
-21.001690 0.956927 -22.285591
-20.924303 -0.054843 -5.141510
-21.532293 7.894169 -12.054756
-21.470197 7.082304 -45.407491
-21.308645 4.970144 -39.336051
-21.241725 4.095208 -29.975916
-21.523764 7.782660 -2.454574
-20.973208 0.584546 -52.054784
-21.252190 4.232037 -21.055718
-21.471189 7.095281 -39.586749
-21.406162 6.245095 -48.710487
-21.047531 1.556265 -29.935836
-21.102600 2.276251 -12.136182
-20.930571 0.027110 -29.928897
-21.427413 6.522945 -30.780502
-21.185007 3.353663 -2.964608
-21.189984 3.418738 -34.851028
-21.364812 5.704482 -22.383491
-21.485466 7.281944 -47.615339
-21.533359 7.908109 -35.744582
-21.036372 1.410380 -7.800825
-20.919345 -0.119661 -26.096856
-21.128367 2.613137 -49.360900
-21.298044 4.831533 -6.943686
-21.260976 4.346898 0.399758
-21.156125 2.976048 -6.693675
-20.988453 0.783864 -54.404991
-21.476688 7.167168 -42.984148
-21.313515 5.033804 -49.261956
-20.971315 0.559807 -14.672822
-21.447618 6.787099 -18.652264
-21.324746 5.180651 -21.938637
-21.372846 5.809516 -23.060639
-21.364121 5.695443 -21.436685
-21.358552 5.622628 -30.301909
-21.318132 5.094167 -31.584999
-20.932438 0.051519 -10.039899
-21.493723 7.389899 -25.157672
-20.986636 0.760117 -6.468420
-21.524038 7.786236 -50.483560
-20.999609 0.929722 2.087597
-21.286934 4.686289 -56.023713
-21.290858 4.737583 3.662491
-21.463339 6.992650 -32.695562
-21.449640 6.813540 -48.978962
-21.197402 3.515725 -60.919185
-21.035953 1.404896 -47.526981
-21.422072 6.453117 -27.832469
-21.186713 3.375964 -46.325602
-21.041785 1.481150 -31.911064
-20.929865 0.017878 -28.491905
-21.252248 4.232788 -38.398980
-21.314261 5.043561 -1.487471
-21.100849 2.253366 -36.095346
-21.392483 6.066262 -7.195698
-21.027148 1.289777 -51.897228
-21.188948 3.405187 -13.647950
-21.146556 2.850952 -13.311308
-20.934609 0.079901 -42.159217
-20.949192 0.270557 -40.250854
-21.330340 5.253784 -3.053494
-21.318744 5.102175 -8.604167
-21.264417 4.391894 -14.614482
-21.496292 7.423487 -21.818164
-21.291262 4.742866 -58.346918
-21.197471 3.516623 -28.341992
-21.112735 2.408761 -22.241942
-21.483652 7.258224 -17.320131
-21.385458 5.974404 -15.256679
-21.300297 4.860991 -52.629578
-21.539435 7.987541 2.026347
-21.007719 1.035752 -21.665342
-21.024640 1.256993 -60.402526
-21.277202 4.559048 -59.848426
-21.333716 5.297929 -34.537991
-21.283797 4.645264 -36.477244
-20.919246 -0.120964 -44.486973
-21.534448 7.922346 -0.632234
-21.343722 5.428741 -46.432008
-21.072700 1.885330 -58.446165
-21.176615 3.243942 -22.914180
-20.990650 0.812597 -11.200296
-20.919025 -0.123848 -7.619135
-21.247202 4.166819 -30.629774
-21.538205 7.971459 -42.524951
-21.392550 6.067139 -1.513001
-21.401457 6.183584 -5.512059
-21.212126 3.708227 -32.603407
-21.059126 1.707862 -28.945810
-21.478470 7.190469 -42.163774
-21.263335 4.377741 -42.221024
-21.058335 1.697522 -9.619549
-21.017421 1.162606 -14.833141
-21.187961 3.392283 -33.441745
-21.011275 1.082251 -28.041484
-21.041399 1.476096 -42.590222
-21.052159 1.616771 -59.571402
-21.124715 2.565390 -60.824853
-21.069489 1.843359 -46.260479
-21.227235 3.905759 -49.060490
-21.509382 7.594628 0.056607
-21.533421 7.908916 -53.820440
-21.190672 3.427729 -52.463698
-21.424353 6.482936 -17.628794
-21.346863 5.469814 -32.643411
-20.995037 0.869952 -57.117008
-21.081082 1.994927 -39.946514
-20.985272 0.742283 3.678054
-21.448989 6.805025 -56.843198
-21.065009 1.784783 -27.774247
-21.335380 5.319680 -41.074478
-21.266302 4.416536 -2.495061
-20.920814 -0.100462 -38.488512
-21.361973 5.667363 -40.375382
-21.334304 5.305604 -61.089060
-20.995584 0.877101 -2.054411
-21.137532 2.732971 -26.118482
-21.092662 2.146327 2.107315
-21.000745 0.944581 -19.848080
-21.000469 0.940971 -23.922585
-20.989897 0.802754 -27.061409
-21.016712 1.153329 -43.913599
-21.364640 5.702230 -59.299173
-21.535026 7.929898 -56.712999
-21.173633 3.204964 -58.785158
-21.476790 7.168512 -20.346677
-21.298685 4.839915 -35.709384
-21.536836 7.953569 -39.240831
-21.424499 6.484843 -6.732287
-21.158323 3.004791 -14.901761
-21.074267 1.905820 -48.951663
-21.482410 7.241984 -18.097817
-20.987407 0.770195 -1.425443
-21.456159 6.898776 -29.112427
-20.964970 0.476853 -47.980040
-21.272880 4.502534 -22.946296
-21.353228 5.553024 -44.678251
-21.172479 3.189870 -12.006037
-21.523114 7.774155 -45.840209
-20.986474 0.757994 -33.591000
-21.068084 1.824981 0.311709
-20.920873 -0.099682 -48.546636
-20.944757 0.212572 -26.833563
-20.950014 0.281304 -31.894789
-21.531124 7.878888 -41.820489
-21.295861 4.803003 -41.761650
-21.465784 7.024608 -34.275923
-21.395886 6.110744 -42.837438
-21.147330 2.861063 -46.677597
-20.925439 -0.039997 -34.877975
-21.116068 2.452341 -3.171336
-21.246270 4.154636 -58.196594
-21.279628 4.590762 -28.546476
-21.004674 0.995952 3.029002
-21.051776 1.611765 -44.407110
-21.347441 5.477364 -47.370255
-20.993928 0.855454 -52.771265
-20.917984 -0.137453 -31.387275
-21.121471 2.522974 -0.892382
-21.483565 7.257087 -24.494721
-21.091273 2.128162 -56.542363
-21.383613 5.950287 0.037027
-21.126243 2.585366 -53.106879
-21.461423 6.967594 -45.956147
-21.437590 6.656003 -24.157174
-21.460681 6.957891 -25.853015
-21.086275 2.062816 -19.965727
-21.412575 6.328945 -30.051678
-21.169347 3.148922 -36.478242
-21.136190 2.715422 -1.890392
-21.474960 7.144582 -6.884451
-21.380337 5.907454 -51.016842
-21.042422 1.489474 -46.892387
-21.422353 6.456778 -23.460357
-21.395730 6.108703 0.580616
-21.459218 6.938767 -41.587767
-21.204829 3.612826 3.763270
-21.257223 4.297836 -59.311909
-21.537670 7.964471 1.312603
-21.449653 6.813706 1.764874
-21.131872 2.658966 -24.876276
-21.306771 4.945634 -40.431582
-21.121808 2.527383 -19.409772
-20.931561 0.040050 -51.402480
-20.955571 0.353957 -7.150226
-20.930482 0.025941 2.749054
-21.110380 2.377969 -28.015746
-21.462167 6.977327 -3.845012
-21.160453 3.032634 -51.351870
-20.973765 0.591831 -20.702394
-21.534485 7.922827 -15.370759
-21.025788 1.271999 -5.539027
-21.538050 7.969436 -49.616221
-21.284163 4.650060 -37.074749
-21.396629 6.120467 -32.742864
-21.471234 7.095873 -59.034352
-21.534914 7.928432 -11.464897
-21.416641 6.382101 -45.720942
-21.419543 6.420041 -3.591022
-21.484124 7.264393 -37.623188
-21.117224 2.467451 -12.708216
-21.252401 4.234788 -55.613850
-21.242041 4.099344 -47.397133
-21.484167 7.264959 -61.083954
-20.924348 -0.054252 -2.676219
-21.098797 2.226536 -50.004118
-20.944467 0.208782 -53.574278
-21.413928 6.346634 2.286277
-21.462426 6.980706 -34.991233
-21.047756 1.559209 -56.906161
-21.157350 2.992072 -10.851074
-21.102040 2.268936 -45.647257
-21.522401 7.764842 -10.798637
-21.382314 5.933302 -46.926822
-21.062259 1.748822 -19.263719
-21.489729 7.337671 -48.214440
-21.060468 1.725416 -52.907471
-21.309542 4.981872 -42.528283
-21.513105 7.643303 -23.064194
-21.072341 1.880641 -12.724366
-21.222485 3.843666 -12.857285
-21.239303 4.063546 -53.975647
-21.400699 6.173676 -55.202931
-21.021659 1.218019 -3.195643
-20.923132 -0.070148 -56.156985
-20.921755 -0.088157 -47.421379
-21.345027 5.445799 -33.947491
-21.451228 6.834301 -33.504141
-21.533420 7.908907 -28.031033
-20.969532 0.536496 -34.758448
-21.057017 1.680296 -45.566430
-21.256712 4.291149 -4.028320
-20.973921 0.593872 -29.500700
-20.994379 0.861343 -48.824317
-21.389480 6.026998 -52.931465
-21.175319 3.227000 -45.537193
-21.490604 7.349111 -16.063771
-21.278247 4.572712 -16.074189
-21.375681 5.846588 -18.230008
-21.382055 5.929916 -12.915975
-21.511516 7.622520 -57.797600
-21.190783 3.429183 -5.674676
-20.959768 0.408834 -32.716668
-21.496945 7.432023 -51.435037
-21.240815 4.083318 -25.246040
-21.535337 7.933962 -18.377326
-20.917735 -0.140719 -40.742491
-21.477212 7.174028 -4.407719
-21.059091 1.707412 -14.085451
-21.041503 1.477455 -40.871695
-21.230498 3.948426 -45.227892
-21.142578 2.798934 -11.485433
-21.387882 6.006107 -24.665731
-21.052476 1.620918 -32.544549
-20.986536 0.758803 0.051198
-21.428257 6.533977 -50.691052
-21.069195 1.839509 -18.154800
-21.094833 2.174710 -28.595665
-21.415056 6.361376 -57.337437
-21.017076 1.158089 -37.128673
-21.469957 7.079169 -5.712134
-21.284622 4.656057 -8.965567
-20.923033 -0.071452 -52.012548
-20.933266 0.062336 -0.322713
-21.228841 3.926755 -19.437674
-21.439472 6.680602 -11.020505
-20.960274 0.415452 -58.901251
-21.365476 5.713158 -37.079017
-21.347420 5.477096 -52.827962
-20.926942 -0.020342 -56.826608
-20.918009 -0.137138 1.003215
-21.502065 7.498955 -7.390986
-21.530874 7.875620 -5.687377
-21.531125 7.878897 -7.954482
-20.987082 0.765944 -49.874804
-21.270433 4.470539 -5.963838
-21.494298 7.397409 -36.590925
-21.270796 4.475285 -27.338470
-21.200673 3.558484 -37.292426
-20.977273 0.637698 -58.240142
-21.106373 2.325580 -41.209045
-21.430836 6.567694 -49.838131
-21.463247 6.991445 -27.440405
-21.263950 4.385784 -7.411416
-21.196194 3.499932 -59.712543
-21.144456 2.823487 -50.212987
-21.158429 3.006177 -4.556158
-21.233844 3.992167 -31.959205
-21.058118 1.694691 -37.570150
-21.089309 2.102489 -54.807128
-21.305431 4.928120 -58.971603
-21.295660 4.800368 -26.607604
-21.217191 3.774451 -29.173703
-20.923988 -0.058958 -12.904613
-21.533491 7.909834 -14.724415
-21.537869 7.967067 -54.632301
-21.386809 5.992075 -37.618123
-21.080986 1.993663 -13.461731
-21.191616 3.440066 -50.823106
-20.967095 0.504628 -37.923320
-21.305755 4.932351 -23.643407
-21.081791 2.004199 -6.509455
-21.128682 2.617264 -8.682051
-21.231193 3.957513 -33.842729
-21.271570 4.485416 -39.778863
-21.364205 5.696537 1.101447
-21.359354 5.633118 -49.284694
-20.985161 0.740834 -40.649733
-21.384606 5.963269 -7.834232
-21.065970 1.797351 -24.248817
-21.538270 7.972317 -13.910802
-21.280797 4.606044 -20.514861
-21.473930 7.131110 -53.118285
-21.182159 3.316423 -18.043704
-21.409745 6.291945 -26.450565
-21.344947 5.444756 -31.121140
-21.026016 1.274978 -33.203195
-21.139981 2.764983 -47.819032
-21.409551 6.289406 -49.327801
-21.304006 4.909490 -19.849698
-21.145287 2.834354 -17.431798
-21.130870 2.645861 -33.855097
-21.525106 7.800196 3.506003
-21.093386 2.155787 -55.906244
-21.369767 5.769263 -57.468229
-21.467558 7.047803 -8.046814
-21.395736 6.108787 -10.732195
-21.302192 4.885767 -13.198156
-21.539321 7.986056 -37.316962
-21.055291 1.657724 -5.103429
-21.392043 6.060498 -34.052210
-21.267902 4.437448 -24.324620
-21.044762 1.520068 -43.294004
-21.430007 6.556860 -8.342666
-21.293307 4.769601 -53.910389
-21.023781 1.245759 -12.831587
-21.136265 2.716396 -54.398343
-21.442608 6.721606 -48.202637
-21.014956 1.130379 -19.312601
-21.067448 1.816664 -50.715763
-21.048444 1.568211 2.187526
-21.143502 2.811021 -7.886881
-21.020512 1.203015 -29.312392
-21.145842 2.841608 -53.820280
-21.101262 2.258764 -18.904541
-21.324533 5.177860 -45.209740
-21.043672 1.505823 -38.528783
-21.329254 5.239581 -27.205650
-21.108887 2.358455 -16.432074
-21.259798 4.331500 -10.660446
-21.174640 3.218129 -48.345154
-21.390711 6.043085 -58.718653
-21.451862 6.842588 -21.898962
-21.435016 6.622340 -52.630211
-21.255232 4.271808 -6.512063
-21.342326 5.410486 -9.802984
-21.206072 3.629078 -9.555219
-21.509187 7.592071 -38.170324
-21.233365 3.985912 -34.501233
-21.426946 6.516830 -21.434448
-21.077045 1.942139 -51.564680
-20.929323 0.010795 -37.529476
-21.254865 4.267000 -35.185592
-21.477928 7.183379 -50.874951
-21.102661 2.277046 -38.803936
-20.973929 0.593980 -56.168940
-21.412152 6.323412 -11.501640
-21.081214 1.996648 -15.725121
-21.486532 7.295876 -54.544442
-20.919444 -0.118368 -5.938100
-21.309349 4.979343 -14.704334
-21.091563 2.131957 2.792094
-21.532190 7.892817 -44.554805
-20.930552 0.026860 -13.578439
-21.333975 5.301305 -48.672021
-21.535069 7.930464 -47.545849
-21.275410 4.535619 -45.560583
-21.306711 4.944853 -16.803731
-21.247222 4.167079 -52.552332
-21.533401 7.908648 -1.644655
-21.148857 2.881025 -34.693545
-21.533609 7.911378 -59.229284
-21.295961 4.804306 -51.169469
-21.178159 3.264131 3.244310
-21.392491 6.066359 -48.011408
-21.323747 5.167579 -15.918802
-21.170546 3.164597 -16.468897
-21.266350 4.417161 -39.088084
-21.020368 1.201128 -44.968469
-21.380018 5.903290 -6.555956
-21.126665 2.590891 -24.117867
-21.473669 7.127706 -55.470711
-21.345666 5.454154 -7.160055
-21.494692 7.402563 -33.759196
-20.986018 0.752037 -50.804209
-21.078337 1.959039 -57.332007
-21.440845 6.698548 -40.951369
-21.234136 3.995993 -27.852789
-21.358348 5.619961 -27.676523
-21.267954 4.438131 -0.858745
-21.204278 3.605624 -6.497929
-21.465927 7.026481 -46.616672
-21.304076 4.910407 -57.011979
-20.980290 0.677140 -7.855798
-21.486097 7.290185 -6.250206
-21.135860 2.711106 3.744071
-21.031992 1.353110 -34.772162
-20.920383 -0.106091 -46.574270
-20.993312 0.847396 -25.415440
-20.934479 0.078200 -57.801161
-21.419083 6.414027 -43.507622
-21.375094 5.838902 -50.114938
-21.072775 1.886313 -0.918530
-21.111014 2.386263 -43.413861
-21.002161 0.963094 -38.293444
-21.317422 5.084890 -54.976785
-21.534735 7.926090 -26.835958
-21.101553 2.262568 -14.998627
-21.526852 7.823029 -12.651817
-21.344444 5.438183 -17.115029
-21.329941 5.248562 -57.975200
-21.106751 2.330523 -26.762094
-21.215977 3.758579 -27.170984
-21.533196 7.905974 -55.245426
-21.533033 7.903835 -24.369039
-21.493175 7.382730 -43.771644
-21.243682 4.120795 -50.359296
-21.154479 2.954533 -38.059805
-21.423511 6.471920 -22.595398
-21.347127 5.473260 -56.723567
-21.378996 5.889928 -58.140611
-21.302493 4.889701 -10.273211
-21.104213 2.297346 -44.471623
-21.535739 7.939224 -55.992851
-21.329472 5.242429 -15.215131
-21.039048 1.445362 -21.081840
-20.942030 0.176920 -25.520635
-20.974505 0.601508 -9.051859
-21.378108 5.878312 3.822496
-21.538223 7.971703 -22.133784
-21.262495 4.366763 -8.256267
-21.370347 5.776841 -14.461823
-21.447487 6.785387 -28.309778
-21.442734 6.723245 -35.934290
-21.193006 3.458251 -41.855959
-21.145958 2.843125 -41.845483
-21.054971 1.653545 -15.157431
-21.497742 7.442437 -40.979669
-20.968511 0.523143 -28.893039
-21.470315 7.083856 2.333720
-21.233886 3.992714 -16.090463
-20.960840 0.422848 -22.821245
-21.216957 3.771385 -12.094070
-20.925707 -0.036486 -15.753189
-21.137822 2.736755 2.503746
-21.155704 2.970548 -37.373616
-21.221495 3.830719 -53.168297
-21.395607 6.107100 -60.085241
-21.297733 4.827466 -2.043285
-21.134564 2.694154 -40.750347
-21.431683 6.578763 -25.299916
-21.406118 6.244522 -33.353981
-21.115439 2.444119 -31.973684
-21.529517 7.857868 -20.833582
-21.538984 7.981644 -36.446675
-21.508666 7.585264 -40.423154
-21.348585 5.492319 -42.774035
-21.313280 5.030741 -29.092709
-21.185324 3.357812 -0.172411
-21.144677 2.826374 -9.329474
-21.006019 1.013526 -59.388340
-21.302903 4.895066 -50.402202
-21.030883 1.338607 -17.892451
-20.933902 0.070654 -24.789629
-21.528846 7.849098 -17.603756
-21.333139 5.290381 -56.152441
-21.350654 5.519379 -5.112278
-21.290215 4.729177 -29.624893
-21.496472 7.425838 -52.591267
-21.212192 3.709092 -55.228203
-21.451512 6.838019 -7.362171
-21.109588 2.367622 -2.513996
-21.474986 7.144924 -58.451085
-21.539760 7.991786 2.743664
-21.507200 7.566098 -3.712887
-21.535694 7.938633 -30.932757
-21.122359 2.534590 -9.942665
-21.234256 3.997562 -9.026304
-20.943911 0.201519 -21.995125
-21.025425 1.267252 -20.491289
-21.294419 4.784142 -38.062372
-21.493690 7.389461 -19.776205
-21.095940 2.189185 -47.814905
-21.040471 1.463963 -22.765459
-21.423626 6.473431 -53.394913
-21.519232 7.723399 -13.281505
-21.181344 3.305768 -30.434500
-20.981835 0.697338 -51.399841
-20.918624 -0.129094 -35.722012
-20.925933 -0.033533 -53.048516
-21.386429 5.987100 -44.117728
-21.091358 2.129268 -17.217936
-20.995367 0.874263 -9.633926
-21.491890 7.365922 -2.932205
-21.052160 1.616786 -55.476850
-21.172535 3.190609 -29.023976
-21.001422 0.953430 -61.011826
-21.173677 3.205531 -1.566004
-20.960282 0.415548 -43.621291
-20.921988 -0.085115 -20.629823
-21.426183 6.506862 -58.041963
-21.526160 7.813988 -52.065356
-21.471762 7.102767 -13.007033
-21.225263 3.879984 -48.295158
-21.495260 7.409987 -26.214653
-21.354359 5.567809 -26.419122
-21.138132 2.740816 -46.038715
-21.433970 6.608667 -37.917545
-21.366865 5.731316 -4.049135
-21.367061 5.733878 -12.043063
-21.347690 5.480625 -52.057972
-21.298145 4.832863 -27.887362
-21.497148 7.434677 -23.855001
-21.012651 1.100242 -39.135201
-21.053676 1.636614 -24.860783
-21.014282 1.121569 -15.556555
-21.148448 2.875686 -56.949779
-21.372212 5.801224 -0.603810
-21.092848 2.148754 -25.849261
-20.950868 0.292474 -34.163617
-21.195341 3.488771 1.027576
-21.045936 1.535416 -22.092318
-20.968749 0.526251 -60.466400
-20.918061 -0.136453 -11.782301
-21.095488 2.183269 -53.646030
-21.425575 6.498906 -12.601914
-20.938765 0.134233 0.403912
-21.072882 1.887712 -4.197780
-20.917537 -0.143308 -1.255857
-21.478201 7.186950 -49.557055
-21.296736 4.814437 -30.988310
-21.466554 7.034682 -51.986237
-21.352501 5.543519 -45.790295
-21.150133 2.897707 -15.858851
-21.121725 2.526299 -5.903556
-21.188984 3.405661 -53.900519
-21.386132 5.983218 1.805662
-21.098014 2.216299 -31.314502
-21.015844 1.141987 -8.592694
-21.138807 2.749628 0.309133
-21.037269 1.422101 -40.083578
-21.208330 3.658590 -25.730025
-21.003370 0.978903 -14.102595
-21.163694 3.075007 -23.535758
-21.194354 3.475871 -50.177836
-21.190678 3.427809 -7.691409
-21.469208 7.069379 -9.514913
-21.410565 6.302664 -4.258597
-21.148223 2.872746 -44.280079
-21.286690 4.683089 -4.855229
-21.265268 4.403017 -29.163396
-21.444967 6.752446 -54.086100
-21.147371 2.861608 -39.191773
-21.277539 4.563454 -44.806782
-21.385170 5.970641 -39.041792
-21.085839 2.057117 -20.523558
-21.489078 7.329160 -11.559762
-21.176930 3.248065 -10.224089
-21.038566 1.439062 -3.748770
-21.306682 4.944477 -18.972864
-21.120025 2.504070 -42.743923
-21.205308 3.619079 -57.226560
-21.428423 6.536150 -42.050579
-21.207779 3.651390 -54.445426
-21.510638 7.611046 -27.337775
-20.953631 0.328599 1.391177
-20.930734 0.029233 -9.340843
-21.205443 3.620853 -36.108110
-21.294850 4.789781 -46.165005
-21.442681 6.722562 -44.860299
-21.399208 6.154184 -27.260247
-21.289854 4.724461 -21.451708
-20.927477 -0.013340 -21.429860
-21.081431 1.999487 -10.208384
-20.921464 -0.091958 -60.340160
-21.098363 2.220861 -52.436277
-21.310245 4.991062 -12.345462
-21.200795 3.560082 0.353708
-21.533244 7.906606 -58.297983
-21.451817 6.842008 -19.376824
-21.521888 7.758129 -43.155944
-20.939033 0.137745 -24.200430
-20.982904 0.711318 -11.803609
-21.422638 6.460515 -6.132389
-21.299370 4.848880 0.062287
-21.317799 5.089820 -5.674278
-21.338364 5.358691 0.539414
-21.153402 2.940453 -59.306799
