-41.733434 61.010766 -46.458611
0.739144 35.084328 -42.253370
-13.344325 57.506825 -24.745621
-12.549252 56.964730 -19.278254
0.269516 38.682048 -58.820825
-12.332003 56.816605 -0.865558
-1.263387 43.626146 3.303162
-10.731626 55.629741 -46.377412
-7.983181 53.192092 -30.663664
-14.779326 58.366864 -46.547636
-10.214291 55.207729 -31.984875
-22.384750 61.545441 -23.922577
0.846906 34.258790 -53.130655
-9.306950 54.467572 -27.182452
-21.902846 61.419783 -39.979129
-31.805551 62.736279 -59.109138
-2.622140 46.241806 -0.297705
-23.647056 61.874591 -59.068202
0.665714 35.646864 -5.439220
-33.271277 62.681755 -20.570178
-28.231964 62.605950 -43.946090
-0.649799 42.199843 -49.723993
-18.920488 60.399855 -15.149462
-33.237986 62.684702 -31.825977
-19.121972 60.471335 -1.453421
-33.721982 62.641867 2.023424
-17.600852 59.808939 -16.267175
-16.199644 59.166141 -9.382423
-39.182284 61.756241 -46.617056
-17.973932 59.978572 -13.235177
-11.156827 55.976595 -26.431828
-7.866324 53.078756 -53.995111
-12.828281 57.154977 2.169422
-10.351992 55.320057 -7.676142
-40.910107 61.296691 -32.312200
-11.225399 56.032532 -41.426291
-32.395326 62.734829 -5.591685
-11.991601 56.584513 -41.334717
-40.909616 61.296822 -14.965406
-8.015188 53.223134 -32.100173
-34.463210 62.576267 -47.184011
-23.643855 61.873757 -17.483357
-26.716832 62.452181 -35.494225
-3.871189 48.261967 -39.608663
-10.476351 55.421502 -41.466028
-5.368545 50.318919 -48.414293
-42.353545 60.787362 -44.905904
-3.625339 47.903350 -48.697964
-12.305136 56.798287 -12.322898
-0.363677 41.465478 -0.891586
-19.129474 60.473996 -10.894046
-3.901507 48.303634 -40.739840
-36.173225 62.366060 -46.381399
-40.609281 61.376702 -23.469434
-17.655241 59.833669 -39.296363
-45.286528 59.570228 -4.187672
-38.390190 61.966915 -57.688055
-16.798500 59.444125 -8.179318
-28.246601 62.607173 -10.324485
-10.363573 55.329504 -56.191149
-5.058864 49.894206 -36.778023
-1.127440 43.349917 -27.649849
-16.285446 59.210849 -56.946858
-3.075323 46.992388 -25.479875
-34.960733 62.532236 -49.206148
-22.858531 61.668981 -44.810993
-29.145324 62.682304 -19.028509
-21.342186 61.258988 -25.498070
-29.677963 62.726832 -54.217645
-15.959659 59.031090 -50.530108
-46.136043 59.178949 -13.279307
-22.101111 61.471481 -27.161769
-43.884492 60.215993 -9.870340
-2.574880 46.163532 -57.458140
-36.864424 62.244498 -18.077034
-43.516498 60.368393 -46.835931
-12.611400 57.007103 -29.742888
-9.206573 54.378611 -26.685082
0.092323 40.039487 -13.755217
-3.425233 47.571925 -3.566215
-37.005092 62.219758 1.553668
-0.330230 41.379634 -37.424275
-18.687170 60.302868 -46.906027
-16.954301 59.514965 -57.413467
-14.194068 58.037513 1.474207
-1.847612 44.813222 -9.581401
-1.146742 43.389137 -31.506991
-3.692139 48.013987 -10.859839
-37.784428 62.082695 -41.140542
-9.028669 54.206069 -43.778230
-13.624726 57.698008 -35.548966
0.277058 38.624274 -34.519624
-38.228680 62.004564 1.362061
-11.194854 56.007615 -45.002424
-10.032987 55.059831 -34.231467
-5.055411 49.889460 -29.404289
-34.786921 62.547618 -40.264422
-17.161578 59.609210 -56.414098
-12.062022 56.632527 -50.589125
-6.756285 51.917641 -43.052334
-46.127445 59.182909 -19.264219
0.755756 34.957068 -53.402416
0.513126 36.815806 0.378994
-31.155470 62.737877 -44.441947
0.328167 38.232733 -45.138690
-10.512821 55.451252 -23.006718
-3.868890 48.258808 -49.575270
0.366817 37.936645 -2.556414
-5.780359 50.793342 -42.388802
0.630423 35.917216 -54.424884
-33.940450 62.622532 -6.611504
0.715335 35.266728 -61.025154
-8.879453 54.061351 -11.340043
-4.210468 48.728244 -60.247075
0.745925 35.032382 -55.636220
-10.125156 55.135017 -60.695690
-38.870357 61.839205 -35.170228
-1.266454 43.632378 3.785862
-12.861942 57.177927 -44.688541
-34.545290 62.569003 -32.808490
-3.920410 48.329613 -7.583139
-0.440603 41.662918 -34.292445
-15.735823 58.905128 -40.975313
-30.780820 62.738797 -33.476263
-0.500080 41.815572 -15.300024
-43.092933 60.520988 -30.183659
-25.791052 62.293976 -12.658945
-34.282180 62.592289 -48.219517
-10.869607 55.742298 -13.102914
-1.776095 44.667907 -29.119816
-33.149033 62.692574 -5.311738
-0.281142 41.253642 -53.231794
-40.937754 61.289338 -15.697204
-1.995311 45.113329 -12.712253
-32.412728 62.734786 -6.223894
-4.533220 49.171806 -60.214332
-12.110386 56.665503 -10.386897
0.322731 38.274379 -1.678417
-34.399838 62.581876 -46.370889
-6.389358 51.494929 -31.996589
-21.789019 61.390102 -20.280612
-26.690560 62.447692 0.812993
-2.727815 46.416830 -56.670580
-4.124030 48.609451 -24.008341
-44.559176 59.905240 -0.376011
-18.572449 60.250706 -53.641575
0.523137 36.739113 -56.147378
-33.295013 62.679655 -38.401776
-44.511223 59.927326 -37.814563
-38.282160 61.995158 -42.475000
-6.691562 51.843078 -18.226924
-5.379691 50.331759 3.776765
-0.285298 41.264308 -59.657127
-8.664833 53.853199 -40.687543
-6.266499 51.353391 -61.038614
-0.379064 41.504970 -53.660443
-26.272996 62.376335 -0.337704
-4.758115 49.480881 -49.001982
0.775072 34.809096 -51.917892
-2.965591 46.810645 -49.584996
-23.706838 61.890180 -30.669921
0.897587 33.870537 -43.994425
-37.403580 62.149675 -29.213675
-27.845882 62.573674 -4.106693
-0.202059 41.050666 -0.355152
-18.576874 60.252718 0.950369
-1.710531 44.534690 -55.503702
-1.506902 44.120939 -0.808060
-21.203650 61.209840 -42.707079
-33.930504 62.623413 -46.119124
-10.444394 55.395433 -2.747994
-32.281424 62.735109 -39.100292
-3.502819 47.700427 -41.051408
-9.287923 54.452050 -19.494654
-20.027194 60.792475 -55.501437
-6.493266 51.614635 -24.441246
0.202068 39.198749 -39.858289
0.196474 39.241610 -31.498304
-14.496843 58.207898 -29.358986
0.293205 38.500576 -40.737521
-39.966557 61.547648 -19.500549
-44.727795 59.827576 -25.836505
0.296418 38.475957 -23.539258
-23.352874 61.797882 -45.313113
-36.830144 62.250527 -1.476502
-24.901697 62.141996 -44.838259
-13.133659 57.363189 -38.105255
-10.190555 55.188366 -10.498522
-21.772355 61.385757 -57.834735
-13.319966 57.490217 -48.973413
-25.746506 62.286364 -25.006032
-7.356770 52.584561 -14.510962
-0.269016 41.222521 -34.034173
-43.301040 60.446015 -22.568251
-29.360436 62.700287 -21.577266
-45.681154 59.388467 -33.940975
-21.433058 61.291226 -37.573030
-1.345872 43.793746 -52.410078
-33.080951 62.698599 -1.307578
-20.069237 60.807391 -26.554040
-0.800184 42.585827 -2.188751
-42.052394 60.895856 -4.401374
0.487572 37.011569 -35.167872
0.542969 36.587185 -8.753048
0.327660 38.236621 -6.456180
-29.535927 62.714958 -9.819010
0.630489 35.916710 -47.447071
-11.287671 56.083330 -41.921958
-33.643366 62.648825 -54.223495
-6.668773 51.816824 -11.600126
-44.010601 60.157908 -47.817144
0.590264 36.224867 -17.203607
-9.722236 54.806339 -22.116005
-9.133822 54.308053 -11.715641
-14.878955 58.422930 -25.163341
-1.496613 44.100034 -28.311902
-0.422059 41.615323 -47.215408
-4.870660 49.635554 -17.762710
-19.378944 60.562499 -41.084659
-43.163190 60.495677 -0.414139
-45.487575 59.477628 -58.207634
-19.707777 60.679157 -30.246194
-44.971727 59.715223 -1.823222
-20.457209 60.945030 -58.474572
-25.546316 62.252154 -46.755392
-5.559296 50.538670 -47.886471
-0.727282 42.398715 -13.904209
-17.129586 59.594664 -34.689868
-6.607186 51.745874 -48.912951
-30.267490 62.740059 -40.113474
-1.663221 44.438561 -56.720361
-30.594864 62.739254 -15.549735
-29.432472 62.706309 -3.975925
-37.794902 62.080853 1.094365
-1.709679 44.532960 -4.028300
-38.682348 61.889210 -29.728338
-14.487289 58.202521 -39.056438
-23.488923 61.833358 -37.110134
-45.489943 59.476537 -31.687011
0.631807 35.906616 -4.134875
-3.401686 47.532926 -46.508617
-3.060888 46.968481 -19.069170
-9.595209 54.702717 -4.217441
-0.667265 42.244672 -3.813893
-44.941733 59.729038 -34.055537
-29.003577 62.670455 -25.819271
0.168345 39.457098 0.538469
-4.834691 49.586122 -45.567932
-34.901648 62.537465 1.224943
-17.661334 59.836439 -14.819838
-38.917574 61.826646 -23.897883
-38.115355 62.024494 -11.241173
-46.141509 59.176432 -10.248566
0.763976 34.894100 -54.058598
-2.364219 45.814626 3.521178
-41.341697 61.151894 -26.173080
0.508463 36.851525 -18.142504
0.395247 37.718851 -18.598183
-6.567874 51.700585 -42.555753
-9.468957 54.599728 -38.217697
-7.724413 52.941123 -23.138408
-39.139111 61.767724 -24.466509
-23.810473 61.917203 -0.216765
-46.011700 59.236220 -31.896417
-1.136002 43.367314 -6.840945
-41.854136 60.967281 -1.810435
-39.556416 61.656733 -59.728458
-1.455401 44.016295 -55.256243
-23.983789 61.962396 -54.759638
-4.704000 49.406510 -22.794057
0.207764 39.155119 -55.283502
-18.152939 60.059963 -51.415659
-1.075451 43.244283 -22.917936
-1.458574 44.022744 -1.338478
0.088307 40.070247 -23.708155
-12.873012 57.185475 -49.019055
0.330324 38.216212 -50.697837
-34.951701 62.533035 -59.274344
-0.223437 41.105537 -21.392524
0.427741 37.469918 -42.446942
-8.535806 53.728061 -29.920894
-21.949067 61.431835 3.316890
-0.113561 40.823527 -41.881779
-41.050444 61.256822 -18.535089
-4.264977 48.803156 -16.313389
-20.085058 60.813003 -18.451265
-3.187157 47.177613 -10.057508
-46.173306 59.161786 3.115420
-3.626946 47.906011 -28.030880
-14.593898 58.262515 -20.436658
-11.234889 56.040273 -23.951432
-31.755728 62.736401 -4.613934
-10.246140 55.233709 -8.460455
-23.353681 61.798093 0.084587
-6.200781 51.277682 -60.442724
-10.386313 55.348054 -3.780674
-21.252661 61.227228 -4.081076
-26.829285 62.471398 -15.548440
-26.911188 62.485394 -5.078737
-0.505406 41.829243 0.489902
0.596122 36.179994 1.492812
-17.941203 59.963690 -45.168746
-45.165308 59.626061 -52.054152
-6.445145 51.559197 3.757685
-33.242912 62.684266 -45.473599
-19.742668 60.691536 -9.764854
0.510115 36.838869 -40.910179
-39.021468 61.799014 -8.936021
-9.225248 54.396723 -39.998532
0.045931 40.394882 -50.777466
-7.906674 53.117890 -48.701536
-0.287037 41.268773 -38.451480
-40.107357 61.510199 -39.899350
-0.784654 42.545965 0.001958
-31.980340 62.735849 -42.414819
-37.059837 62.210130 -57.977804
0.520589 36.758631 -47.440543
-27.404350 62.536763 -0.432560
-18.887652 60.388206 -34.851331
-19.704793 60.678099 -27.950724
-2.769211 46.485391 -15.807133
-10.385059 55.347031 -38.406538
0.688978 35.468643 -6.661453
-33.045009 62.701780 -46.129617
-29.597519 62.720107 -60.804088
-43.811593 60.249570 -59.111717
-38.790524 61.860438 -2.483090
-22.001197 61.445428 -47.297977
-43.228224 60.472247 -32.980306
-28.258269 62.608149 -39.469293
0.309269 38.377509 -9.927556
-2.058680 45.242088 -59.215419
-41.386041 61.135919 -21.646535
-1.723410 44.560859 -8.001205
-1.802555 44.721671 -2.966534
0.406379 37.633568 -31.058122
-30.152527 62.740342 -61.045510
-45.022688 59.691750 -15.213046
-3.650400 47.944858 -9.629819
-15.470482 58.755809 -13.638079
-3.057667 46.963145 -46.057685
-0.176815 40.985876 -28.112116
0.275057 38.639596 -55.515824
-40.385121 61.436322 -20.553274
-45.504657 59.469760 -18.663494
-1.756201 44.627486 3.703487
-27.415823 62.537722 -23.769382
-25.476343 62.240196 -17.627159
-32.010132 62.735776 -26.186052
0.315868 38.326955 -44.449054
-31.634838 62.736698 -57.450998
-12.630767 57.020308 -7.364139
-11.854397 56.490964 3.169970
-33.412388 62.669267 -18.780326
-40.098598 61.512529 1.193372
-1.727409 44.568984 -4.765824
0.658280 35.703811 -32.396483
-44.050490 60.139536 -55.014068
-34.342198 62.586977 0.878830
-42.660446 60.676797 -6.371525
-22.111259 61.474127 -15.108732
-25.407337 62.228404 -22.316382
-3.892754 48.291605 -3.738728
0.559136 36.463333 -25.323954
-43.476465 60.382815 -49.882542
-1.187828 43.472619 -29.484060
-4.399898 48.988579 -18.721454
-17.682072 59.845868 -43.824134
-40.760120 61.336583 -16.300272
-15.865264 58.977970 -29.090518
0.789948 34.695136 -0.327256
-5.863662 50.889310 -37.978161
-25.249046 62.201354 -57.967790
-9.288924 54.452867 -35.305798
-11.275732 56.073590 -53.118978
-19.067148 60.451885 -34.096741
-3.345507 47.439879 -5.272579
-3.404837 47.538144 -52.673738
-6.280700 51.369751 -11.871592
-25.129880 62.180990 -30.246398
0.865142 34.119084 -22.481488
-18.970807 60.417707 -28.668572
0.632466 35.901565 -50.214030
-38.762194 61.867973 -27.361428
-35.290673 62.503035 -43.149297
-24.788919 62.122724 -29.100855
-2.154416 45.436612 -55.797980
-16.951917 59.513881 -21.639106
-14.294595 58.094084 -44.615611
-45.148878 59.633629 -30.072123
-17.448347 59.739598 -9.276387
-29.098820 62.678417 -57.228531
-34.057438 62.612179 -1.721576
-16.276812 59.206923 -46.098460
-18.557849 60.244068 -41.011897
-20.799572 61.066488 -40.668285
-33.250575 62.683587 -41.140784
-22.735447 61.636886 -30.994315
-20.941283 61.116762 -14.370000
-4.711094 49.416261 -27.543223
-22.205413 61.498678 -18.464521
-5.680647 50.678471 -9.172663
-0.096422 40.779538 -39.835522
-15.405647 58.719323 -8.813819
-2.921802 46.738120 -27.743852
-39.902676 61.564638 -43.285909
-20.746931 61.047813 -46.647063
-35.304658 62.501798 -8.305807
-30.391611 62.739754 -0.087963
-3.799729 48.163760 -15.597941
-2.638817 46.269427 -51.607018
-8.742277 53.928309 -33.435277
-17.334250 59.687721 -47.568170
-8.611047 53.801034 -60.405148
-31.476529 62.737087 -9.859885
-39.934731 61.556113 -16.402239
-23.696217 61.887410 1.622449
-41.412494 61.126389 -60.013704
-0.956087 42.985969 -60.974799
-7.053824 52.260416 -44.277235
-0.942986 42.952343 -13.994492
-6.211138 51.289614 -3.658439
-2.999294 46.866466 -50.709327
-15.048237 58.518192 -23.134429
-30.543926 62.739380 -56.512443
-6.550019 51.680016 -5.423543
-18.940357 60.406904 -47.511558
-2.260646 45.643084 -23.599484
-7.800571 53.014985 -18.366905
-21.382259 61.273204 -13.363061
-25.839991 62.302339 -27.603454
-38.302475 61.990245 -13.207194
-36.792250 62.257191 -21.637613
-35.966675 62.402387 -15.623269
-2.081205 45.287855 -40.391405
-29.882944 62.741004 -46.266116
-7.149169 52.370256 -48.520590
-1.758233 44.631615 -10.164244
0.602164 36.133704 -8.946538
-25.352571 62.219045 -44.314543
-12.670104 57.047129 -53.881081
-31.676478 62.736596 1.670345
-21.023859 61.146057 -4.981669
-37.514517 62.130165 -58.293989
0.466526 37.172795 -0.243449
-18.685731 60.302213 -17.834559
-22.961668 61.695874 -7.226223
-9.964507 55.003969 -19.774223
-39.057503 61.789430 -59.755957
-15.673525 58.870070 -4.988975
-41.959012 60.929498 -21.406387
-35.215300 62.509706 3.863200
-2.397956 45.870502 -25.976096
-29.192890 62.686281 -39.019741
-43.910932 60.203815 -39.624624
-8.169917 53.373200 -23.985574
-32.682901 62.733828 -2.230173
-41.809681 60.983297 -47.592325
-11.960037 56.562992 -49.835891
-3.786264 48.145255 -2.621673
0.468992 37.153903 -44.248435
-20.066441 60.806399 -52.918289
-36.734343 62.267375 -52.968009
-36.709953 62.271665 -48.418105
-21.615593 61.344881 -14.866060
-28.503111 62.628617 -23.112793
-3.157337 47.128224 -21.240577
-6.219114 51.298803 -46.578528
-7.432205 52.657721 -39.002578
-35.565574 62.472929 -51.667265
-15.672399 58.869436 -32.707678
-1.097463 43.289007 -19.439788
-45.516692 59.464217 -60.066211
-16.801714 59.445586 -58.940738
-6.188752 51.263824 0.786620
-7.240447 52.471743 -1.219102
-23.049546 61.718789 -3.355341
-10.126674 55.136255 -5.693152
-2.012186 45.147617 -5.670147
-45.629347 59.412329 1.818225
-14.520948 58.221463 -17.921923
-18.750957 60.331870 -15.738969
-0.713387 42.363051 -50.407774
-34.986950 62.529915 -55.572624
-30.931576 62.738427 -47.014173
0.864199 34.126311 -28.933059
-25.871321 62.307693 0.615752
-9.086836 54.262483 -47.924469
-13.293517 57.472184 -9.561776
0.100394 39.977655 -36.817661
-0.005547 40.546296 -56.537279
-9.702830 54.790508 -35.497156
-42.504131 60.733112 -26.816984
-2.900159 46.702273 -20.496786
-25.346152 62.217948 -42.566679
-31.525841 62.736966 -1.852399
-6.460501 51.576888 -13.390906
-26.160148 62.357051 -54.855936
-20.658563 61.016463 -16.413167
-26.503781 62.415773 -1.830305
-2.081645 45.288749 -54.411536
-2.339417 45.773548 -43.631006
-8.558506 53.750077 1.166621
-9.927559 54.973829 -55.873985
-20.308525 60.892282 -51.112240
-28.597320 62.636493 -37.142292
-5.005700 49.821141 -16.352433
-20.789138 61.062786 -35.652269
-37.852890 62.070655 -11.717453
-14.568660 58.248313 -47.942037
-36.797028 62.256351 -9.412638
-34.183778 62.600997 -54.385360
-41.542793 61.079447 -58.178559
-11.982985 56.578638 2.354704
-6.410970 51.519827 -6.709897
-1.980061 45.082343 -5.087331
-19.311659 60.538629 -54.648248
-1.979340 45.080878 -28.433530
-28.300180 62.611652 -21.508570
-3.786059 48.144972 -56.598462
-25.999309 62.329565 -31.996484
-29.279677 62.693536 0.401697
-38.486447 61.941314 -22.486839
-27.296740 62.527767 -23.094558
0.562328 36.438882 -6.443302
-5.370666 50.321362 -58.044036
-30.538554 62.739393 -4.859357
-3.789308 48.149438 -36.784067
-14.482676 58.199926 -8.486022
0.609118 36.080429 -53.924424
-16.339132 59.235259 1.430416
-39.152108 61.764267 -54.165130
-0.749531 42.455818 -53.423556
-39.050037 61.791415 -45.250524
-17.176395 59.615946 -31.746993
-43.242637 60.467055 -55.977784
-21.467670 61.303505 -33.630949
0.324957 38.257329 -29.510643
-34.583400 62.565630 -53.875555
-16.239866 59.188776 -41.727728
0.819093 34.471863 -45.917614
-5.171586 50.049121 -4.217892
-16.536537 59.325016 -59.687418
-0.377464 41.500865 -49.545922
-24.844326 62.132192 -5.987923
-3.954493 48.376453 -12.454873
-32.842156 62.719733 -0.079704
-28.745930 62.648916 -2.160730
-46.126185 59.183490 1.099166
-22.179532 61.491930 -8.746908
-5.072978 49.913602 -33.389535
-22.862395 61.669988 -13.581689
-3.239099 47.263642 -31.223498
-21.326567 61.253447 -60.866120
-23.949981 61.953580 -8.059314
-5.323437 50.257811 1.230618
0.487982 37.008428 -53.549895
0.132533 39.731442 -27.500484
-19.176516 60.490685 -16.895498
-5.167877 50.044023 -43.668996
-21.784149 61.388832 -32.473328
-20.170734 60.843398 -3.975886
0.475106 37.107067 1.367124
-43.958093 60.182093 -58.206539
0.453681 37.271200 -31.962998
-8.425018 53.620612 -31.633355
-22.281707 61.518572 -31.697397
-30.134079 62.740387 -0.616787
-11.674318 56.368183 -47.671274
-32.097670 62.735561 -13.514917
-21.929738 61.426795 -13.897487
-8.894270 54.075721 -29.548133
-40.753241 61.338413 2.093805
-1.157986 43.411984 -20.150381
-28.064933 62.591986 -53.126498
-36.092638 62.380233 -47.601181
-18.403506 60.173891 -2.920923
-35.624371 62.462588 -21.971269
-42.971625 60.564691 -55.420066
-36.300824 62.343619 -9.654916
-44.409412 59.974220 -36.667443
-30.384831 62.739771 -19.293966
-38.346079 61.978647 -30.499019
-19.985854 60.777809 -61.077621
-18.322080 60.136868 -32.313109
-33.990247 62.618125 -56.541895
-25.134696 62.181813 -43.153382
-2.962954 46.806277 -6.464609
-37.547582 62.124350 -27.840352
-38.822972 61.851808 -49.834671
-27.853151 62.574282 -56.829073
-17.557748 59.789341 -18.477472
-18.553222 60.241964 -50.555088
0.682769 35.516210 -60.577172
-42.878785 60.598138 -44.987240
0.631736 35.907158 -25.476539
-5.192055 50.077251 -5.259178
-11.319426 56.109233 -44.065570
-5.698918 50.699519 -30.114709
0.399325 37.687612 -44.768221
-45.153209 59.631634 -37.664162
-1.114016 43.322641 -17.287357
-17.849431 59.921963 -35.634674
-39.048404 61.791850 -12.171078
-8.839362 54.022468 -4.095032
-15.274300 58.645408 -17.299318
-14.774307 58.364040 -48.956526
-13.640948 57.709068 -4.021497
-18.601250 60.263801 -24.388248
0.359767 37.990654 -56.344995
0.684531 35.502707 -30.491186
-38.879491 61.836775 -58.182817
-15.681784 58.874718 -51.072929
-2.492356 46.026852 -53.200755
-32.780393 62.725199 -34.647298
-14.611317 58.272318 0.681774
-33.189044 62.689033 -57.079392
0.782838 34.749597 -12.387759
-42.396676 60.771824 -8.289237
-5.114030 49.970020 -19.084558
-15.234519 58.623021 -50.914256
-6.865649 52.043632 -46.713683
-41.069228 61.250055 1.479380
-10.277607 55.259378 -7.053256
-7.339856 52.568156 -10.802904
-23.101269 61.732276 -48.277810
-2.761532 46.472673 -45.945035
-29.563911 62.717297 -16.253322
0.227317 39.005322 -5.971461
-30.919709 62.738456 -35.803412
-41.778711 60.994454 0.684819
-33.084901 62.698250 -16.193330
-0.152800 40.924239 -38.960862
-30.728376 62.738926 -23.718431
-13.397419 57.543026 -60.160653
-30.737739 62.738903 -43.887104
-13.787572 57.808759 -46.394265
-36.872755 62.243033 3.099635
-5.319770 50.252772 -46.385878
0.718263 35.244294 -29.762754
-36.229824 62.356106 -1.034060
0.281023 38.593898 -17.375517
0.057243 40.308228 -10.824797
-2.101946 45.330000 0.794571
-37.156818 62.193074 -6.224748
-32.068593 62.735632 -29.313843
-36.591663 62.292469 0.249041
-19.176638 60.490728 -51.893384
-3.879043 48.272761 -55.360506
-5.853907 50.878072 0.607791
-2.561143 46.140781 -27.871681
-43.088552 60.522566 -29.649251
-43.557648 60.353568 -25.678833
-46.044340 59.221187 -12.371270
0.420357 37.526488 -37.714592
-8.632585 53.821923 -48.115617
-43.942174 60.189425 -9.058430
-6.403239 51.510921 -57.580001
-6.440227 51.553532 -3.157811
-1.526747 44.161262 -36.753130
-24.879167 62.138146 -49.191580
-16.389210 59.258029 -7.566637
-30.194915 62.740237 -3.927284
-34.235129 62.596453 -40.030918
-15.340683 58.682765 -49.377149
-28.851722 62.657760 -6.371421
-26.240524 62.370786 -13.063319
-38.377138 61.970387 -58.383724
-22.203039 61.498059 2.096837
-26.999429 62.500474 -29.896411
-13.391622 57.539073 -15.082263
-29.266666 62.692448 -21.079476
-24.212434 62.022016 -7.013182
-26.064487 62.340703 -10.319973
-0.606602 42.088975 -24.216017
-43.466713 60.386328 -46.084927
-17.615672 59.815678 -52.346052
-36.982189 62.223786 -27.751576
0.144218 39.641927 -26.241501
-16.549667 59.330985 -5.242137
-7.839495 53.052736 -1.870051
-7.041939 52.246724 -17.439942
0.135752 39.706787 -52.886601
-37.146543 62.194881 0.613132
-39.743048 61.607095 -17.040754
-20.306693 60.891632 -5.593796
-4.438822 49.042073 -46.166940
0.209046 39.145295 -59.373811
-41.681847 61.029351 -36.858580
-31.928306 62.735977 -11.447329
-28.520477 62.630069 -24.450834
-12.218467 56.739194 -52.025500
-12.742515 57.096500 3.055467
-33.008844 62.704981 -15.031440
-29.644824 62.724061 -50.431853
-9.686480 54.777171 2.153009
0.208117 39.152415 -19.222437
0.241321 38.898041 -52.321587
-20.390401 60.921328 -23.141578
-4.380681 48.962170 -38.431630
-0.540760 41.919983 -14.289456
-9.425780 54.564507 -16.432733
-13.192923 57.403596 -56.766637
-44.034974 60.146682 -41.549409
0.120434 39.824136 -34.266840
-14.784612 58.369839 -40.549327
-39.533969 61.662703 -43.660415
-1.606444 44.323198 -56.010286
-7.693020 52.910676 -24.732486
-7.012214 52.212480 -40.887950
-11.005280 55.852972 -40.889025
-23.437199 61.819871 -55.814278
-0.538753 41.914831 -22.177137
-23.855870 61.929040 -4.084476
-13.225881 57.426068 -52.290527
-0.901280 42.845299 -5.208196
0.362694 37.968230 -58.822597
-44.394358 59.981154 -20.612585
-0.234044 41.132761 -59.154219
-9.102886 54.278050 -10.389243
-33.629188 62.650080 -48.022099
-9.553880 54.669003 -24.573142
-41.123011 61.230679 -30.384359
-13.178254 57.393595 -33.564200
-1.446672 43.998560 -15.441447
-24.700796 62.107665 -17.455736
-42.356854 60.786170 -16.873476
-23.901044 61.940820 -41.395949
-6.348510 51.447871 -0.208856
-7.176875 52.402175 0.805621
-5.329728 50.266457 -14.797856
0.286962 38.548398 -39.117630
-17.596756 59.807077 -41.580020
-15.664395 58.864932 -42.054975
-16.738974 59.417059 -12.201634
-6.249640 51.333969 -39.536330
-11.041762 55.882732 2.583815
-2.911822 46.721591 -44.246911
-10.382936 55.345300 -54.486206
-7.600865 52.821299 3.306475
-40.297756 61.459559 -5.604128
-32.637409 62.734234 -56.184237
-18.552002 60.241409 -8.911514
-40.264821 61.468318 -55.126822
-5.292231 50.214924 -54.825429
-23.105462 61.733369 -36.057410
-13.410539 57.551971 -11.202090
-0.772595 42.515016 -1.534573
-5.010595 49.827868 -13.616667
-13.093709 57.335951 -38.708361
-1.377054 43.857105 -46.071879
-9.017785 54.195513 -2.278689
-28.193676 62.602749 -26.416987
-14.214314 58.048906 -41.021925
-32.688419 62.733339 -46.590916
-25.380315 62.223786 -35.221195
-38.903883 61.830288 -42.677319
-45.857316 59.307329 -40.790850
-44.351469 60.000907 -57.039621
-20.556561 60.980276 3.618834
0.366004 37.942873 -22.384096
-30.807777 62.738731 -46.021626
-1.912849 44.945776 -37.904515
-12.912061 57.212100 -34.671205
-32.629649 62.734253 -40.317368
-34.350797 62.586216 -54.944893
-16.945938 59.511162 -51.467090
-10.236834 55.226118 -9.834661
-44.080697 60.125623 -16.634593
-8.709034 53.896068 -27.720701
-44.335129 60.008434 -12.875161
-37.770383 62.085165 -57.041913
-30.034299 62.740632 -12.756288
-26.894340 62.482515 -18.592293
-31.112899 62.737981 -53.428668
-3.232381 47.252514 -8.822321
-39.999631 61.538851 -57.990202
-35.588179 62.468953 -47.464719
-11.291733 56.086643 -43.466175
-4.326544 48.887768 -32.380497
-24.832642 62.130196 -50.818776
-41.480278 61.101969 -29.634664
-6.087548 51.147234 -22.611440
-37.356142 62.158018 -23.036434
-3.252516 47.285864 -56.784637
0.324856 38.258104 -33.318672
0.757560 34.943251 -4.683635
-25.567349 62.255748 -41.023012
-25.437861 62.233620 -0.925498
-44.919118 59.739454 -36.516989
-46.231475 59.134994 -38.348891
-43.059019 60.533206 -4.019635
-39.749088 61.605488 -40.985933
-6.954770 52.146303 -8.553135
-19.738179 60.689943 -7.107644
-3.065257 46.975716 -55.072096
-1.063522 43.220044 -26.557395
-24.705275 62.108430 -36.266449
-20.989013 61.133695 -56.562181
-1.529340 44.166530 -59.087589
-24.257495 62.031910 -5.447198
-2.110665 45.347715 -9.206942
-29.564878 62.717378 -10.334510
-28.848488 62.657490 -16.607197
0.739274 35.083335 -49.569394
-1.862950 44.844388 -26.143227
-36.665766 62.279436 -2.721576
-33.825079 62.632743 -55.656876
-1.116027 43.326728 -4.263589
0.041450 40.425671 -5.975426
-26.640884 62.439202 -46.886638
-21.180326 61.201566 -34.103701
-32.478575 62.734625 -32.681286
-42.212254 60.838264 -19.780612
-31.154634 62.737879 -54.905562
-44.610924 59.881405 -59.933393
-3.064479 46.974428 -58.836407
-16.561076 59.336173 -3.210358
-12.403083 56.865069 -57.553750
-4.513862 49.145201 -57.004345
-16.477514 59.298179 0.929294
-7.533146 52.755620 -55.881992
-0.201056 41.048093 -6.240559
-10.805341 55.689873 -4.297171
-21.313362 61.248762 -35.959405
-24.895960 62.141016 -26.118992
-16.382051 59.254773 -37.477249
0.782852 34.749492 -46.377762
-2.184010 45.496744 -58.305124
-40.120857 61.506609 -33.987000
-31.038254 62.738165 -41.303993
-17.129663 59.594699 -54.603141
-39.543273 61.660229 -51.078378
-21.191416 61.205500 -42.195062
-1.168678 43.433709 -35.244054
-7.500828 52.724277 -44.748125
-2.212300 45.554226 -57.757581
-40.327807 61.451566 -9.924243
-6.291075 51.381703 -4.870328
-9.782800 54.855743 -28.512860
-22.377852 61.543642 -21.509156
-0.622610 42.130061 -54.930606
-32.604395 62.734315 -34.140268
-5.046112 49.876680 -20.806693
-14.734239 58.341491 -17.194117
-39.141349 61.767129 -54.709927
-4.567787 49.219311 -31.207699
-29.379183 62.701854 -24.732054
-12.044058 56.620279 -21.009492
-38.719487 61.879332 -45.871500
-16.036004 59.074053 -24.167399
-27.027579 62.505266 -28.180387
-2.257197 45.637371 -0.633211
-9.269770 54.437243 -39.343493
-38.064011 62.033524 -4.868316
-40.453734 61.418073 -6.242491
-12.117377 56.670269 -2.720406
-23.627533 61.869501 -22.948091
-8.862243 54.044659 -37.618044
-12.727276 57.086110 -13.610842
0.162860 39.499113 -17.970851
-17.251201 59.649960 -49.901897
-38.982847 61.809286 2.894360
-13.714247 57.759046 -8.527128
-14.466939 58.191070 -7.198915
-26.336024 62.387106 -18.379902
-15.742221 58.908728 -20.215848
-7.259081 52.489816 -40.247912
0.555551 36.490799 -49.718570
-29.989032 62.740743 -58.273456
-3.478453 47.660070 -56.068501
-8.169221 53.372524 -22.097330
-32.517700 62.734528 -50.681013
-31.712872 62.736507 -44.965037
-30.848766 62.738630 -18.881528
-17.391324 59.713671 -42.321910
-36.339010 62.336903 -12.594039
-8.660555 53.849051 -17.572393
-12.101129 56.659191 -3.566125
-5.307276 50.235601 -16.460902
-8.723616 53.910210 -3.258194
-25.185167 62.190438 -48.652228
-31.822419 62.736237 -38.121617
-1.986213 45.094842 -44.668767
-39.387873 61.701561 -32.841818
-13.819215 57.826566 -21.495856
-26.145881 62.354612 -36.793296
-20.529744 60.970762 1.236866
-45.788587 59.338984 -0.728597
-9.938825 54.983019 -43.725699
-0.666885 42.243699 -29.727365
0.802129 34.601816 -5.698534
-16.802315 59.445859 -29.684582
0.089691 40.059650 -44.375052
-35.124161 62.517772 -40.738241
-38.406905 61.962470 -23.907859
-29.350793 62.699481 -54.767944
-13.153121 57.376459 1.693793
0.303432 38.422228 0.017883
-24.655136 62.099862 -21.833044
-26.502874 62.415618 -10.847635
-4.224624 48.747698 -5.799729
-11.984219 56.579480 -60.371474
-40.808957 61.323594 -12.997393
-23.483503 61.831944 -26.013668
-8.502474 53.695733 -38.759622
-32.203640 62.735300 -1.824745
-4.100503 48.577116 -44.801610
-33.085657 62.698183 -23.512853
0.544129 36.578298 -17.640148
-4.168324 48.670324 -14.196622
-42.194354 60.844713 -22.314496
-18.393112 60.169165 -49.056667
-31.440164 62.737177 -19.025851
-17.891654 59.941161 -17.338594
-11.012250 55.858657 -18.956789
-5.853210 50.877269 -52.512879
-7.061066 52.268759 -21.337742
-16.385978 59.256559 -2.156755
-16.738343 59.416773 3.021286
-27.021778 62.504293 -39.850858
-42.598572 60.699088 -18.623162
-42.073461 60.888266 -37.278819
-13.114362 57.350032 -28.890450
-21.238060 61.222047 -26.665545
-24.159142 62.008119 -17.592137
-39.028821 61.797058 -43.369370
0.567368 36.400271 -29.990342
-10.587434 55.512117 -42.687436
-46.179251 59.159048 -41.402866
-0.136267 40.881805 -54.620858
-1.522841 44.153326 0.645282
-0.370944 41.484131 -45.338212
-19.433869 60.581985 0.133605
-42.155890 60.858570 1.808773
-5.353883 50.299654 -50.979646
-4.844314 49.599346 -56.145147
-34.621881 62.562225 -52.108465
0.630929 35.913340 -6.180288
-43.344200 60.430466 2.406915
-4.558544 49.206609 -40.391505
-13.804188 57.818109 -41.434724
-6.316307 51.410772 -40.762986
-38.035883 62.038471 -6.211661
0.238690 38.918202 -41.504479
-38.150921 62.018239 -18.289939
-3.917057 48.325005 -5.952190
0.596150 36.179778 -24.248179
-9.309458 54.469618 -20.147264
0.509532 36.843338 -25.995918
-37.854357 62.070397 -56.478227
-38.158881 62.016839 -3.369997
-23.352166 61.797698 -1.815053
0.209759 39.139834 3.162752
-21.847499 61.405351 -46.762118
-7.818156 53.032040 -52.091023
-29.337087 62.698335 1.276226
-5.618407 50.606767 -11.256590
-1.086161 43.266044 -2.977607
-5.675609 50.672666 -55.561735
0.813079 34.517929 -43.926314
-9.187665 54.360273 3.862470
-12.888091 57.195757 -11.282352
-22.092131 61.469140 -16.811267
-1.168273 43.432885 -45.707512
0.393495 37.732275 -41.416469
-7.430555 52.656122 -12.659246
-19.292059 60.531676 -24.516381
-36.069448 62.384312 -42.433943
-9.999036 55.032136 -7.983328
-12.321633 56.809535 -27.152898
-10.242836 55.231013 -16.264255
-36.187976 62.363466 -51.408265
-34.547318 62.568823 -48.756375
-2.815983 46.562858 -36.713661
-14.261194 58.075288 -19.248300
-23.487517 61.832991 -7.460083
-7.435533 52.660949 -59.738476
-41.136956 61.225655 -53.778538
-0.623293 42.131814 -13.216436
-2.719183 46.402534 -60.195883
-36.309947 62.342015 -57.128360
-0.763518 42.491718 -0.597674
-43.328305 60.436192 -48.817937
-36.881774 62.241446 -25.810468
0.325530 38.252935 -31.652045
-26.647375 62.440312 -34.825388
-8.278969 53.478965 -56.242790
-17.654361 59.833269 -37.057595
-36.771795 62.260789 -12.119114
-13.643478 57.710794 -10.597583
-5.060741 49.896785 -26.199133
-25.084255 62.173193 -51.787644
-5.542625 50.519464 -58.554478
-22.182978 61.492828 -6.092099
-3.510595 47.713305 -31.606115
-17.121605 59.591034 -22.858777
0.865647 34.115219 -27.915315
-29.556964 62.716716 -32.836346
-40.430882 61.424151 -58.287296
-35.741239 62.442034 -22.573532
-28.984661 62.668873 -33.453015
-35.398640 62.493480 -46.382196
0.053219 40.339051 -27.249832
-17.972700 59.978011 -28.637053
-26.304207 62.381668 -3.961547
-40.523615 61.399487 0.623683
-24.143688 62.004090 -21.150158
-11.006667 55.854103 -36.903956
0.389900 37.759815 -36.536434
-13.672869 57.730833 -19.742250
-0.434092 41.646207 -35.864230
-40.832570 61.317314 -40.672734
-6.927746 52.115170 -51.744353
0.805274 34.577723 -32.633121
-34.197574 62.599776 -33.223282
-10.760837 55.653569 -59.988606
-17.536343 59.779608 -1.377088
-18.097034 60.034544 -44.665500
-37.225034 62.181077 -0.414059
-1.130340 43.355809 -2.139020
-0.680661 42.279055 -19.084033
-3.678175 47.990860 -14.048858
-28.472228 62.626035 -38.737804
0.298820 38.457560 -32.272617
-6.637300 51.780566 -15.890377
-33.548164 62.657250 -2.652735
-39.941910 61.554203 -13.754978
-20.357045 60.909495 -56.371569
-20.562576 60.982410 -60.353520
-7.419088 52.645000 -10.245321
-28.515886 62.629685 -35.196664
-17.916309 59.952372 -14.077896
-19.949316 60.764847 -40.786218
-44.098953 60.117214 -26.519918
0.290418 38.521923 -28.882958
-44.265831 60.040352 -11.791430
-6.381307 51.485655 -55.064255
-5.198923 50.086689 -59.553136
-2.415169 45.899012 -22.197177
-27.771582 62.567463 -40.710620
-32.051794 62.735674 -46.573063
-21.269697 61.233271 -55.292130
-9.948195 54.990663 -54.832891
-15.573895 58.814003 -38.568894
-10.157075 55.161055 -37.650119
-37.788557 62.081969 -23.255256
-0.669482 42.250364 -41.194719
-44.153559 60.092063 -60.982380
-22.843585 61.665084 -8.188325
0.901004 33.844358 -56.196479
-14.036961 57.949101 -59.876632
-8.932502 54.112801 -25.061182
-32.717052 62.730805 -35.234761
-10.807920 55.691976 -3.740122
-22.185347 61.493446 -25.006357
-10.665495 55.575794 -51.034449
-35.095763 62.520285 -25.769292
-4.449292 49.056463 -50.483673
-26.295915 62.380251 -34.223614
-5.509984 50.481861 -59.279186
-34.600962 62.564076 -42.948247
-21.639775 61.351186 -55.763910
-2.257290 45.637525 -29.241580
-8.824623 54.008174 -56.021839
-44.776765 59.805020 -54.811834
-18.763096 60.337390 -16.563350
-43.053566 60.535170 -1.348339
-22.714699 61.631476 -49.215762
-12.515239 56.941539 -2.557772
-5.718606 50.722200 -51.995186
-34.764500 62.549603 -56.728663
-18.592750 60.259937 -11.968652
-13.503008 57.615018 -28.611375
-29.390826 62.702828 -29.796351
-24.716547 62.110356 -18.441221
0.159927 39.521585 -6.005003
0.893499 33.901852 -18.927013
-11.982074 56.578017 -56.605117
-43.108206 60.515485 -28.397208
-2.719050 46.402313 -19.236396
-11.966404 56.567333 -27.633181
-28.716788 62.646480 -39.821744
-5.817394 50.836007 -32.911695
-14.790445 58.373121 -23.675222
-22.874232 61.673075 -31.601828
-4.002801 48.442844 -59.794386
-41.633081 61.046919 1.796685
-23.890363 61.938034 -48.352042
-44.818967 59.785582 -33.535532
-16.880880 59.481582 -1.187537
-3.802327 48.167330 1.320455
-45.843181 59.313839 -55.383136
-1.753130 44.621247 -12.649640
-10.975097 55.828350 -12.600654
-1.621493 44.353775 -40.134064
-31.881819 62.736091 -10.258355
-28.462523 62.625224 -50.741598
-1.186406 43.469730 -53.487330
-38.029657 62.039566 -31.824650
-34.077916 62.610366 -3.512676
-12.907219 57.208798 -32.955118
-14.301879 58.098183 -39.865905
-22.260945 61.513158 0.074034
-5.212255 50.105012 -28.396780
-1.428135 43.960895 -21.719489
-38.539160 61.927294 -5.288354
-3.273469 47.320567 -32.059780
-18.269382 60.112907 -12.804548
-19.780791 60.705060 -14.093285
-2.856342 46.629703 -1.133403
-25.065610 62.170007 -34.258365
-5.891388 50.921252 -48.059656
-42.390410 60.774081 -53.819845
-44.265090 60.040693 -6.012156
-30.951406 62.738378 -13.083438
-22.322352 61.529170 -30.687559
-5.133311 49.996518 -56.248058
-6.171944 51.244461 -39.036960
-37.298524 62.168152 -44.341860
-5.772007 50.783720 -14.013465
-3.969884 48.397605 -29.901718
-18.866834 60.380821 -4.625786
-4.774507 49.503409 -51.760898
-39.187386 61.754884 -14.315091
-2.547740 46.118581 -41.943775
-1.241083 43.580827 -51.864296
-20.189493 60.850053 -46.773119
-25.053049 62.167861 -6.969887
-0.142773 40.898503 -48.940248
-14.237511 58.061960 -54.909045
-3.867592 48.257025 -4.432314
-9.264351 54.432822 -37.724133
-9.792807 54.863906 -43.108825
-41.583455 61.064798 -14.790033
-45.895898 59.289558 -2.792360
-8.439115 53.634284 -26.110177
-28.052538 62.590950 -35.496567
-30.951341 62.738378 1.682866
-9.914023 54.962787 -42.464089
-39.607499 61.643147 0.533909
-19.984909 60.777474 -45.351723
-1.120330 43.335470 -47.342204
-45.084029 59.663498 -16.171343
-11.650900 56.352216 -14.086223
-35.890575 62.415770 -41.932086
0.662273 35.673223 -14.590023
-40.320087 61.453619 -31.616506
-8.995659 54.174054 -17.901452
-18.755969 60.334149 -54.265564
-3.291182 47.349904 -46.969638
-2.623650 46.244307 0.466393
-20.610348 60.999358 -28.532792
-2.597823 46.201531 -5.897219
-19.537664 60.618807 1.591677
-31.529871 62.736956 2.702132
0.106776 39.928762 -54.717729
-41.671499 61.033079 -6.345620
-6.926857 52.114146 -39.626877
-28.685032 62.643825 -40.491988
-1.325600 43.752556 -18.235675
-1.311329 43.723557 -4.519672
0.686993 35.483850 -27.781752
-10.814865 55.697642 -9.830980
-6.357123 51.457793 1.290443
-7.703413 52.920755 -9.901911
-9.829471 54.893815 -56.443014
-40.074776 61.518865 -43.803369
-8.429463 53.624924 -22.820977
0.446707 37.324630 -2.120335
-42.093501 60.881047 -2.995882
-42.227427 60.832798 -53.222694
-35.328331 62.499702 -6.477528
-7.646875 52.865921 -17.018064
-42.953131 60.571353 -8.955748
-46.113209 59.189466 -6.492890
-29.365866 62.700741 -56.334701
-1.585773 44.281197 -59.613211
-7.770192 52.985522 -57.487453
-21.694743 61.365519 -50.180821
-3.521729 47.731747 -58.564876
-4.176938 48.682163 -12.073243
0.817896 34.481033 -41.637496
-9.221338 54.392932 -3.294044
-10.665043 55.575426 -39.234367
-25.899100 62.312440 -0.730530
-21.625518 61.347469 1.124610
-10.078637 55.097070 -26.854237
0.432629 37.432476 -19.232404
-16.225527 59.180706 -39.882141
-9.738016 54.819210 -25.052627
-8.048085 53.255039 -14.202522
-37.738030 62.090855 -38.684763
-9.995525 55.029272 -28.051447
-10.726698 55.625720 -58.429681
0.858073 34.173239 -61.048814
-21.951065 61.432356 -12.969235
-29.213597 62.688012 3.556885
-7.058268 52.265536 -22.045473
-4.721163 49.430098 -4.207131
-32.925101 62.712392 -36.239744
-36.293555 62.344897 -38.814354
-18.925408 60.401601 -29.992661
0.611553 36.061777 -53.393298
-27.349700 62.532195 0.864042
0.183955 39.337511 -48.316722
-33.299955 62.679217 -37.525011
-28.227078 62.605541 -36.151920
-34.262336 62.594045 -30.880209
-15.711661 58.891531 -23.496946
-12.664390 57.043233 -44.081276
-19.480468 60.598516 -18.422062
-32.188844 62.735337 -45.612827
-40.132771 61.503440 -52.070241
-1.157685 43.411372 -7.364488
-39.445260 61.686297 -47.705023
-9.586464 54.695583 -29.161284
-43.392649 60.413011 -47.670773
-1.923809 44.968045 -30.833853
-15.318392 58.670221 1.946340
-1.089607 43.273045 -9.594597
-28.076502 62.592953 -2.270235
0.812067 34.525687 -7.553736
-8.571770 53.762941 -6.123773
-18.901879 60.393253 -39.365930
-24.692268 62.106207 -28.579366
-26.595208 62.431397 -40.222823
-28.960555 62.666858 -27.727639
-46.157550 59.169043 -4.183712
-6.440509 51.553857 -30.079377
-38.655078 61.896463 -17.746745
-24.224075 62.025051 -60.472718
-0.817685 42.630745 -51.621485
-30.166107 62.740308 -34.420937
-1.880695 44.880443 -15.829301
-3.520840 47.730275 -34.316252
-22.907538 61.681760 -8.684614
-28.319054 62.613230 3.460350
0.450450 37.295952 -13.197615
-5.729206 50.734412 -33.497825
-22.105482 61.472621 -26.494459
0.196137 39.244185 -13.658455
-8.700435 53.887728 -41.342618
-5.041766 49.870706 -11.121240
-1.897866 44.915333 -42.329641
-20.724228 61.039758 -42.496530
-19.153943 60.482677 -55.427638
0.139028 39.681690 -47.901972
-10.328449 55.300852 3.114604
-19.470255 60.594893 -58.990448
-25.599258 62.261201 -55.457878
-31.371524 62.737346 -12.431820
-0.801892 42.590210 -38.131192
-3.340201 47.431092 -39.619952
-0.287161 41.269092 -19.533001
-1.523432 44.154528 -41.840402
-26.859760 62.476606 -59.723974
-33.957936 62.620985 -19.956942
-43.994410 60.165366 -60.401590
-15.738170 58.906449 -25.032367
-9.003160 54.181329 -24.436133
-9.043090 54.220056 -0.287835
-36.375982 62.330401 -28.544699
-9.304961 54.465949 -13.625640
-30.040469 62.740617 -39.159525
-6.081033 51.139729 -48.676419
-19.957569 60.767775 3.776093
-36.483176 62.311549 1.795173
0.303862 38.418928 -60.376531
-33.728411 62.641298 -5.157021
-42.758520 60.641464 -53.474888
-5.306375 50.234363 -14.146850
-18.381452 60.163863 -56.979184
-16.161421 59.144631 -31.918038
-12.490144 56.924429 -49.324975
-43.921026 60.199166 -32.225961
-42.385131 60.775983 -1.583779
-39.554733 61.657181 -10.508617
0.161037 39.513078 -51.290292
-22.879632 61.674483 -36.989694
0.317465 38.314720 -28.318116
-21.878839 61.413523 -48.605505
-9.451432 54.585432 -17.857038
-23.367838 61.801784 -34.500617
-40.517913 61.401003 -57.731440
-3.328464 47.411652 -0.712116
-29.706464 62.729214 -28.670568
-24.487384 62.071195 -51.731304
-33.731706 62.641007 -52.768076
-9.824041 54.889385 -10.133643
-38.946012 61.819083 -21.544514
-26.407569 62.399332 -20.074469
-37.973986 62.049357 -59.186434
-21.286416 61.239203 -54.173244
-6.629036 51.771046 -13.880535
-6.552134 51.682452 -50.298326
-33.425233 62.668130 -59.594096
-14.874261 58.420288 -30.473387
-11.780571 56.440629 -32.470595
-42.303799 60.805284 -0.991865
-45.443350 59.497998 -23.552571
0.395301 37.718434 -27.597848
-35.947212 62.405809 -57.702540
-19.501169 60.605860 -3.057569
-23.504312 61.837371 -51.050954
-41.349806 61.148973 -44.566231
-22.394082 61.547874 -19.785045
-29.654887 62.724902 -37.136461
-8.129055 53.333569 -19.466559
-43.073108 60.528130 -31.500664
-35.264387 62.505362 -4.294333
-21.630827 61.348853 -27.300005
-40.258780 61.469925 -1.306634
-24.891152 62.140194 -35.559979
-1.236019 43.570537 -21.216744
-25.442738 62.234454 -53.713073
0.587141 36.248794 -39.744534
-3.009991 46.884183 -39.184233
-24.608899 62.091961 -27.942608
-0.676090 42.267325 -5.405095
-38.305202 61.989519 -50.752649
-28.673529 62.642863 -23.671020
-6.896894 52.079628 -13.231253
-4.194684 48.706551 -8.016554
0.641116 35.835302 -36.009657
-10.172615 55.173731 -51.884742
-2.916401 46.729174 -27.248162
0.173265 39.419404 -33.912557
-44.262431 60.041918 -25.752135
-19.491874 60.602563 -57.837049
-21.334749 61.256349 -57.433398
-37.043167 62.213062 -37.829940
-40.212166 61.482323 -44.562085
-45.091407 59.660099 -49.339852
0.726926 35.177930 -32.501493
-20.222507 60.861765 -12.505421
-43.034303 60.542110 -34.781794
0.383031 37.812433 -44.175033
-8.573952 53.765057 -9.327153
-27.179734 62.517986 -48.074816
-40.461279 61.416066 -21.223963
-10.607380 55.528388 0.152439
-32.282708 62.735106 -42.007671
-41.430069 61.120057 -15.381911
-0.528177 41.887688 -57.320009
-30.416939 62.739692 -18.516624
-44.052559 60.138583 -32.970871
-13.602498 57.682852 -19.185947
-28.355991 62.616318 -46.286660
-23.726349 61.895267 -53.252056
0.054452 40.329604 -45.639999
-9.889466 54.942755 -33.182200
-21.979272 61.439711 -1.547497
-7.171542 52.396031 -9.140617
-39.567595 61.653760 -9.070109
-14.509366 58.214945 -33.488496
0.604155 36.118450 -23.059622
-20.805863 61.068720 -32.856751
-22.722230 61.633440 -12.302964
-44.124833 60.105294 -56.570388
-1.053065 43.198797 -59.738595
-44.183855 60.078109 -31.402198
-21.255238 61.228142 -49.927441
-42.231822 60.831214 -54.494009
-11.967848 56.568317 -38.872033
-31.449296 62.737154 -9.333851
-42.206744 60.840249 -32.800072
-13.968240 57.910429 -37.591272
-26.550936 62.423831 -9.068649
-0.049920 40.660184 0.560989
-0.062614 40.692766 -47.065738
-5.890154 50.919830 -10.445785
-11.408837 56.182170 -40.655457
-29.278846 62.693466 -8.802454
0.780893 34.764500 -28.889253
-20.744916 61.047098 -37.791312
-22.234755 61.506329 -39.040574
-28.970822 62.667716 -9.213531
0.545737 36.565978 -37.971898
-8.164099 53.367557 -37.343476
-20.482920 60.954151 -12.025397
-44.133585 60.101263 -45.142829
-18.869816 60.381879 -23.630297
-30.791716 62.738771 -0.805176
-9.364177 54.514254 -18.736467
-5.469788 50.435554 -34.809500
-0.085948 40.752654 -55.883921
-0.775098 42.521439 -40.609790
-13.436453 57.569640 -17.398116
-15.512607 58.779514 -7.281551
-6.196539 51.272795 -26.431152
-37.639405 62.108200 -18.563567
-21.329756 61.254578 -45.419602
-0.972557 43.028241 -32.874491
-31.478782 62.737082 -12.958293
0.757674 34.942378 -58.161870
-2.141998 45.411379 -49.093479
-2.767424 46.482432 -3.549712
-6.597278 51.734459 2.524299
-18.369007 60.158205 -40.370555
-32.721875 62.730378 -29.384663
-35.869842 62.419417 -7.422894
0.399887 37.683302 -50.525932
-14.766536 58.359666 -31.064431
-13.527102 57.631446 -20.742415
-1.887542 44.894355 -46.879090
-1.892040 44.903495 -21.301969
-22.414836 61.553286 -10.034868
-21.462016 61.301499 -4.607993
-45.458132 59.491189 -20.187098
-14.380248 58.142284 -19.838345
-34.644811 62.560195 -16.180573
0.382744 37.814634 3.553346
-26.553241 62.424225 -26.819325
-16.797623 59.443726 -1.763227
-13.378131 57.529875 -34.141658
-4.402983 48.992819 -25.329490
-1.093215 43.280376 -10.649831
-44.046796 60.141237 -35.223392
-34.479091 62.574862 -0.394642
-3.558790 47.793128 -50.815478
-13.241223 57.436529 -5.116505
-2.470370 45.990437 -19.471332
-22.470884 61.567901 -60.924016
-38.681342 61.889477 -16.661335
-17.638381 59.826003 -44.428363
-1.144234 43.384040 -34.717414
0.779498 34.775189 -17.536621
-19.773225 60.702376 -5.198544
-27.909963 62.579031 -58.750956
-18.872729 60.382912 -31.069071
0.379014 37.843206 -1.913075
0.196177 39.243884 -30.823653
0.318375 38.307754 -54.065916
-3.133849 47.089323 -58.321314
-31.299854 62.737522 -23.669405
-13.793791 57.812259 -16.800783
-4.538827 49.179512 -5.485131
-34.180001 62.601332 -51.013461
-9.866533 54.924047 -6.796113
-12.252558 56.762438 -41.781905
-14.681843 58.312006 -15.111967
-19.412209 60.574301 -39.623448
-8.639278 53.828414 -13.267193
-19.878083 60.739576 -47.235907
-6.200635 51.277514 -58.184824
-17.460088 59.744937 -26.455086
-42.362189 60.784248 -23.602402
-38.061165 62.034025 -9.086721
-2.723431 46.409569 -35.560258
-20.222386 60.861722 -41.893049
0.380672 37.830510 -49.253585
-7.468085 52.692520 -56.445515
-2.393852 45.863705 -40.172599
0.832092 34.372273 -36.055729
-27.362241 62.533243 -19.728048
-36.178504 62.365132 -44.439479
0.396460 37.709558 -14.408398
-30.345610 62.739867 -37.445269
-18.793235 60.351093 -43.514978
-5.384620 50.337437 -17.035376
-5.340275 50.280951 -47.132467
-11.608552 56.323343 -38.359516
-16.596033 59.352067 -35.186268
-14.501038 58.210259 -26.267051
0.060278 40.284971 -59.088834
-2.796978 46.531380 2.567837
0.676905 35.561127 -33.000879
-29.931464 62.740885 -54.702763
-6.982304 52.178022 -16.320633
-21.232015 61.219903 2.487858
-39.231740 61.743087 -5.252389
-41.767814 60.998380 -19.418102
-22.433250 61.558087 -10.827216
-29.858613 62.741064 -26.488836
-18.163855 60.064926 -9.656041
-38.196193 62.010277 -48.581848
-1.406126 43.916175 -5.647369
-3.263353 47.303812 -16.167047
-1.554887 44.218440 -58.179620
-2.075944 45.277167 -1.303254
-0.725936 42.395260 -52.514152
-0.193810 41.029496 -49.590574
-23.782966 61.910030 2.741594
-40.447387 61.419761 -27.777109
-37.351163 62.158894 -1.587694
-17.198359 59.625933 -50.555533
-34.911668 62.536578 -57.397706
-10.478853 55.423543 -48.343388
-42.701955 60.661843 -0.377133
0.331951 38.203750 -9.349676
-27.283856 62.526690 0.158821
-5.226576 50.124693 -44.237818
-0.394013 41.543340 -29.551452
-3.793877 48.155717 -59.339381
-4.837961 49.590615 -5.442454
-12.613520 57.008549 -17.942755
-16.074331 59.095622 -8.023175
-20.982356 61.131333 -58.490119
-26.074192 62.342362 -50.180414
-44.149538 60.093915 2.770973
0.540702 36.604555 -53.861011
-38.085431 62.029757 -43.605206
-9.645931 54.744093 -26.704158
-27.727803 62.563803 -10.777572
-4.602224 49.266638 -16.218758
-24.441208 62.063304 -48.672473
-1.696953 44.507100 -25.184948
-16.602003 59.354781 -49.758752
-1.107785 43.309982 -1.574266
-0.931998 42.924141 -13.503963
-12.517043 56.942769 -5.392459
-42.166252 60.854837 -18.816957
-2.306819 45.719557 -43.109968
-39.332020 61.716416 -38.275968
-41.701665 61.022211 -46.941532
0.513229 36.815016 -11.468015
0.320092 38.294595 -43.382769
-9.697829 54.786428 -30.854236
0.198198 39.228398 -25.917787
-20.865749 61.089965 -53.528945
-38.890620 61.833815 -4.129126
-9.331048 54.487229 -1.619858
-39.584588 61.649240 -41.827226
-28.276212 62.609649 -19.026839
-43.161582 60.496256 -6.526089
-29.297665 62.695040 -32.010494
-10.220576 55.212855 -52.519471
-35.983593 62.399411 -48.669404
-23.551809 61.849755 -38.886655
0.291122 38.516528 -7.690220
-16.531573 59.322758 -16.914315
-10.936272 55.796679 -45.699320
-40.708809 61.350231 -7.879661
-0.470443 41.739506 -19.082105
-41.384695 61.136404 -29.122086
-17.942934 59.964477 -56.562938
