-46.834877 -45.767387 -0.316615
-37.111513 -5.646739 -43.372496
-48.317296 -21.484895 -37.726147
-49.188464 -38.955331 -4.998120
-48.577486 -41.252567 -39.974411
-44.621768 -13.783166 -0.040359
-26.152833 -0.456015 -40.499754
-45.052439 -14.423869 -54.763017
-49.209747 -38.875307 -22.798159
-25.387230 -0.410393 -42.087199
-40.938598 -9.117108 3.256731
-49.951379 -32.692661 -48.579380
-49.943173 -30.271335 -51.985488
-26.084017 -0.451914 -41.215842
-48.865219 -23.370123 -4.751509
-30.184709 -1.536223 -41.309173
-49.879416 -34.063585 -36.937828
-35.400394 -4.401666 -54.971527
-49.527153 -37.071246 -7.524071
-43.494599 -12.129997 -49.534466
-32.932147 -2.891649 -3.737380
-28.618620 -0.926029 -10.941678
-22.293935 -0.226065 -7.577970
-26.171222 -0.457110 -44.311575
-44.053511 -12.949729 -38.932643
-44.696882 -13.893333 -28.637451
-49.029911 -39.551478 -13.615442
-32.036547 -2.438087 -35.927793
-31.358076 -2.104178 -43.973506
-25.894269 -0.440607 -58.165724
-45.732054 -15.631505 -22.966284
-21.921608 -0.203878 -57.164468
-47.219119 -18.615010 -34.261048
-49.866448 -34.210107 -53.007931
-48.506400 -41.519844 -6.156463
-25.227215 -0.400858 -9.943696
-47.671082 -43.862231 -0.294645
-44.217547 -13.190313 -42.771818
-49.857128 -34.315425 -34.240342
-48.985687 -23.832127 -48.274343
-49.863699 -29.320553 1.351558
-42.013759 -10.298703 -2.871926
-41.398379 -9.591185 -50.263587
-49.950213 -33.171448 -28.014719
-33.451494 -3.205221 -54.874789
-47.659220 -19.629906 -45.577203
-37.255734 -5.751679 -21.087257
-47.102856 -45.185547 -59.035252
-41.113769 -9.297726 -45.153057
-37.196412 -5.708514 -3.273705
-29.686841 -1.342239 -48.222967
-30.269412 -1.569226 -45.584285
-25.370197 -0.409378 -4.608224
-48.237693 -42.289395 -29.661972
-39.979246 -8.127929 -47.751310
-49.191388 -24.621007 1.796828
-47.551962 -44.192892 -32.427545
-49.870707 -34.161992 -5.401852
-48.226945 -21.230212 -51.169926
-49.170690 -24.541627 -47.020313
-25.965240 -0.444836 -43.369255
-40.520698 -8.686215 -13.734743
-45.637540 -15.463559 -40.723044
-39.727432 -7.868286 -52.539600
-49.557175 -26.655059 -57.953352
-27.190616 -0.517856 -22.209737
-44.544138 -13.669310 -31.252493
-48.892634 -23.475261 -25.004002
-42.310482 -10.662456 -34.909246
-46.815216 -45.810042 -56.466959
-49.955979 -30.804435 -53.871647
-47.310178 -44.735430 -29.633518
-45.943862 -16.007875 -27.146173
-44.084193 -12.994728 -44.154964
-49.795691 -28.506937 -25.756633
-48.282976 -42.163694 -12.521167
-33.180153 -3.041390 -48.397312
-48.886952 -23.453469 -10.814578
-47.854009 -20.178979 -6.026824
-43.291595 -11.865205 -57.170326
-47.147804 -45.087960 -19.206183
-49.950761 -32.946243 -25.922248
-46.439050 -16.899370 -17.736753
-48.710908 -22.778327 0.604182
-48.638450 -41.023347 -52.309122
-21.638000 -0.186978 -39.210695
-29.593821 -1.305996 -27.024453
-38.245717 -6.572469 -4.464824
-37.696514 -6.095759 -38.397545
-41.969201 -10.244079 -6.347137
-38.084824 -6.432813 -11.789844
-49.950533 -33.039818 -52.194641
-49.817276 -28.765166 -26.336021
-46.932782 -17.985257 -11.884263
-40.665816 -8.835845 -23.176970
-42.453749 -10.838088 -50.096665
-42.228615 -10.562096 -45.730368
-26.114195 -0.453712 -36.609825
-44.075590 -12.982112 -15.700444
-41.563163 -9.761091 -56.530248
-41.895705 -10.153981 -20.806992
-48.973832 -39.762334 0.174504
-45.149043 -14.595528 -25.153947
-46.562937 -17.171840 -1.678254
-40.202083 -8.357694 -15.373280
-24.936353 -0.383525 -21.092521
-42.044507 -10.336397 3.756109
-37.895750 -6.268696 -35.189799
-49.872149 -29.421639 -16.379750
-48.256786 -42.236394 -48.416280
-43.286990 -11.859560 -48.527193
-33.538760 -3.257910 -19.935394
-48.309132 -21.461883 -57.093432
-44.726585 -13.936897 -2.583073
-49.956195 -30.716078 -38.216908
-49.954447 -31.433217 -5.431073
-49.797657 -28.530453 -54.692436
-43.281962 -11.853396 -24.757928
-49.906427 -33.758376 -6.988296
-49.944619 -33.326834 -45.422209
-40.639766 -8.808985 -51.699844
-48.133171 -42.579533 -46.792783
-49.661552 -27.265892 -11.820097
-49.213889 -24.707303 -11.457326
-37.172267 -5.690945 -35.059626
-48.915014 -39.983483 -15.774152
-39.049149 -7.269850 -30.846752
-29.458135 -1.253129 -51.334753
-36.658772 -5.317307 -20.862503
-42.207830 -10.536615 -39.794761
-47.215750 -44.940442 -12.662501
-47.686130 -43.820460 -57.523054
-48.187880 -42.427668 -25.820047
-49.411225 -37.730327 -37.496248
-49.776350 -28.275547 -11.950104
-37.484134 -5.917871 -47.334863
-25.836678 -0.437175 -32.970890
-24.774433 -0.373877 -61.043882
-49.952641 -32.174659 -31.178924
-49.813273 -28.717273 -60.501239
-49.703739 -36.048611 -35.568569
-30.747095 -1.803485 -5.631948
-46.975958 -45.461063 -16.163717
-49.601442 -26.914117 -39.319558
-49.603325 -26.925140 -59.702080
-23.238565 -0.282355 -24.758345
-25.731106 -0.430884 -27.865914
-49.269570 -24.971952 -36.789078
-49.055742 -24.100793 -35.919243
-23.009740 -0.268720 1.016098
-48.926326 -39.940951 -26.866894
-26.675319 -0.487149 -14.534039
-46.439840 -16.901108 -0.359069
-36.565563 -5.249485 -24.686413
-48.835861 -40.281096 -33.120795
-49.879639 -29.511249 -52.416695
-49.799184 -28.548724 -45.538127
-21.075015 -0.153430 -31.629456
-26.016467 -0.447889 -61.050380
-44.005989 -12.880031 -43.627361
-24.367526 -0.349629 -32.676896
-48.037679 -20.696710 -45.392288
-48.620009 -41.092683 -55.728828
-47.175607 -45.027597 -29.050314
-49.954694 -31.331989 -41.243585
-38.123762 -6.466611 -15.083350
-45.469804 -15.165503 -10.238010
-32.762282 -2.795256 -6.410988
-47.118589 -18.393910 -19.141467
-48.500724 -22.001942 2.241467
-49.291078 -38.413392 -23.709508
-25.569894 -0.421278 -54.228268
-30.724821 -1.792523 -48.319817
-48.862839 -23.360995 -0.946704
-48.866162 -40.167163 -12.857307
-29.170447 -1.141037 -55.166343
-48.959739 -23.732615 -35.451480
-40.679115 -8.849557 -47.057805
-43.986445 -12.851366 -32.073724
-28.611028 -0.923071 -34.162416
-33.262803 -3.091293 3.126055
-48.664384 -22.599902 -58.678029
-39.024486 -7.248443 2.675375
-48.832570 -40.293466 -49.179113
-49.876092 -29.468814 -34.577647
-49.711740 -35.958204 -35.003778
-26.648177 -0.485532 2.570198
-49.457541 -26.071988 -32.423051
-45.856324 -15.852326 -52.243287
-47.005478 -45.396977 -9.528768
-47.918461 -20.360658 -22.795125
-49.193937 -24.630782 1.170075
-26.601816 -0.482769 -40.900078
-49.951930 -32.466515 -39.870479
-25.995806 -0.446657 -17.286440
-25.020523 -0.388541 -12.117085
-49.951496 -32.644555 -34.545588
-23.763602 -0.313642 -12.620221
-32.710678 -2.769859 -38.026421
-25.775624 -0.433537 -43.844690
-46.587448 -46.304559 -36.368485
-48.813683 -40.364481 -41.693594
-47.381709 -44.580129 -42.436166
-46.949465 -45.518573 -52.760007
-49.780970 -28.330817 -40.040403
-29.465990 -1.256189 -10.925273
-45.978216 -16.068922 -39.374108
-46.590971 -46.296902 -45.469011
-49.519452 -37.115027 -8.121311
-49.547400 -36.956135 -36.059081
-27.712067 -0.572809 -42.255104
-46.367643 -46.781804 -20.207308
-24.958606 -0.384851 -56.773536
-49.129644 -24.384215 -1.509439
-49.930981 -33.480927 -21.848387
-27.885458 -0.640367 -26.714131
-49.824457 -28.851075 -52.669959
-48.597085 -22.341805 -39.630338
-30.433090 -1.648948 -16.566295
-42.914262 -11.402632 -48.234683
-43.661059 -12.374136 -34.086252
-49.451673 -26.037646 -45.472368
-43.366850 -11.957461 -49.012010
-48.525452 -22.071644 -46.008604
-40.022017 -8.172030 -9.098758
-32.796370 -2.812032 -22.160968
-39.707424 -7.847655 -17.611824
-28.939143 -1.050914 -14.261913
-28.687779 -0.952975 -44.658640
-32.311149 -2.573231 -40.302032
-48.153676 -21.023681 -31.576067
-48.679120 -22.656415 -30.475169
-47.330193 -44.691975 -52.162016
-48.369241 -41.924236 -17.407577
-35.736979 -4.646578 -6.433935
-27.235521 -0.520531 -19.527105
-49.452066 -26.039946 -57.812200
-47.908524 -20.332647 -33.632743
-49.650859 -36.367947 -38.745111
-46.778634 -17.646232 -20.733301
-48.163303 -42.495890 -23.351393
-29.635343 -1.322174 -32.236753
-26.046238 -0.449663 -39.908528
-44.922537 -14.224292 -32.054721
-49.275690 -38.500875 -1.545097
-49.951982 -32.445202 -26.155965
-47.589645 -44.088289 -56.054056
-45.135940 -14.572246 -59.604315
-27.411493 -0.531017 -39.758178
-49.849811 -29.154392 -29.716458
-49.214699 -38.847623 -49.010482
-30.062687 -1.488680 -28.177534
-44.509251 -13.618143 -25.861852
-49.273384 -38.513988 -47.518201
-49.329477 -25.322538 -31.732983
-43.812001 -12.595517 -43.992114
-37.419905 -5.871136 -0.638564
-41.408036 -9.601141 -41.693599
-49.912361 -29.902717 -1.915468
-21.737085 -0.192883 0.173895
-23.405196 -0.292285 -1.551688
-40.933106 -9.111445 -10.299789
-29.696803 -1.346121 -57.429335
-42.366919 -10.731642 -20.222855
-32.151891 -2.494853 -33.329396
-41.864293 -10.115472 -11.919743
-30.642692 -1.752103 -33.889160
-28.569461 -0.906875 -0.263430
-32.441687 -2.637476 -15.156363
-26.323849 -0.466205 -54.169428
-49.954521 -31.403207 -11.344678
-43.457204 -12.075151 -1.122304
-38.911737 -7.150576 -60.126084
-47.652276 -43.914433 -46.696429
-33.878934 -3.463300 -35.014102
-45.966820 -16.048672 -50.856137
-45.408370 -15.056338 -26.168104
-40.434149 -8.596975 -47.685819
-45.251934 -14.778359 -45.498856
-46.686166 -17.442864 -19.493216
-47.744349 -43.658852 -50.311004
-21.932688 -0.204539 -22.285274
-49.778231 -28.298051 -48.993327
-49.507289 -37.184178 -44.945574
-40.002930 -8.152349 -35.836351
-47.398615 -19.009782 -13.773849
-47.380523 -44.582710 3.182932
-49.762893 -35.380211 -9.692787
-49.762305 -28.107524 -60.893025
-49.171955 -39.017402 -43.228009
-21.656467 -0.188079 -24.296484
-38.728791 -6.991778 -6.556229
-49.536753 -26.535545 -20.512660
-49.795643 -35.010164 -42.908717
-49.952756 -32.127541 -43.967783
-48.462013 -41.666712 -19.694055
-38.628291 -6.904544 -38.085631
-45.664480 -15.511431 -52.732514
-34.306337 -3.721358 -18.939822
-41.556117 -9.753827 -53.762051
-49.950609 -33.008823 -42.062649
-47.136820 -18.434006 -61.046961
-48.165872 -21.058061 -56.726009
-42.689149 -11.126666 2.156255
-35.674925 -4.601425 -42.480865
-45.166303 -14.626198 0.475698
-49.953882 -31.665372 3.254502
-49.710125 -27.550149 -36.462657
-47.877530 -20.245279 -32.985463
-30.823812 -1.841241 -19.280613
-41.027398 -9.208669 -44.288381
-29.928527 -1.436407 -16.630504
-49.250470 -24.860175 -10.144105
-21.478076 -0.177449 -47.170649
-47.740119 -43.670594 -31.662289
-48.274060 -21.363022 -61.092602
-48.492623 -41.571646 -58.139666
-30.986192 -1.921156 -52.459676
-31.531148 -2.189355 -53.607890
-49.886114 -29.588708 -26.230963
-31.407629 -2.128566 -60.996487
-36.240427 -5.012905 -27.898571
-49.952455 -32.250979 -54.895103
-41.207873 -9.394756 -13.971148
-48.770325 -23.006195 -17.732038
-26.571066 -0.480937 -43.350451
-49.574425 -26.756010 -41.508221
-46.657564 -17.379958 -32.665313
-27.499731 -0.536275 -15.957300
-32.157313 -2.497521 -55.720026
-31.781404 -2.312518 -51.584327
-45.741427 -15.648160 -0.191818
-49.310130 -38.305077 -31.408969
-22.108718 -0.215028 -60.075324
-49.871414 -34.153999 -60.579175
-46.972631 -18.072898 -40.761409
-34.686869 -3.951116 -37.274453
-25.213687 -0.400051 -27.629133
-47.404526 -19.022783 -25.204950
-23.595276 -0.303611 -14.798940
-47.197191 -18.566783 -57.160472
-49.954758 -31.305689 -53.628626
-42.802713 -11.265883 -33.602177
-49.230420 -38.758248 -53.164812
-49.921950 -33.582971 -38.642639
-34.456683 -3.812134 -50.165316
-48.269861 -42.200099 -17.835772
-29.639391 -1.323751 -37.691452
-32.488695 -2.660610 -32.921310
-30.580144 -1.721320 -27.951065
-38.382523 -6.691217 -47.482379
-47.798743 -43.507861 -34.211344
-26.226741 -0.460419 -22.589001
-41.000452 -9.180886 -46.859110
-49.920084 -29.995115 -12.096707
-40.183391 -8.338421 -40.847450
-31.345937 -2.098204 -5.439459
-36.829655 -5.441648 -28.850255
-36.537837 -5.229311 -18.303724
-49.919677 -29.990238 -2.759208
-48.523568 -22.066336 -59.250901
-43.525134 -12.174781 -21.699349
-30.267159 -1.568348 -46.970093
-49.832570 -28.948135 -57.582561
-29.707561 -1.350312 -36.584372
-49.113632 -24.322808 -51.175130
-46.571652 -17.191008 -38.067846
-38.890692 -7.132309 -47.916896
-49.925234 -30.056716 -16.565448
-35.148087 -4.229590 -1.604997
-49.740167 -35.637008 -57.365067
-47.660108 -43.892692 -54.405248
-47.947805 -43.094085 -10.870035
-40.128112 -8.281423 -60.288944
-49.284591 -25.059853 -7.077547
-48.898027 -23.495943 -27.126023
-25.341923 -0.407693 -44.296431
-48.948306 -23.688766 -20.419161
-37.067689 -5.614851 -51.568624
-45.601133 -15.398866 -53.227660
-49.787057 -28.403644 -42.173580
-47.965872 -43.043933 -60.482883
-47.356502 -44.634856 -33.265346
-41.799509 -10.036053 -7.840045
-38.524360 -6.814332 -31.755073
-49.954843 -31.270718 -38.894172
-47.339742 -18.880302 -17.021773
-49.954285 -31.500080 0.939128
-49.426726 -25.891650 -44.350444
-46.926621 -17.971707 3.688404
-35.616065 -4.558596 -25.465557
-41.650286 -9.853121 -19.084087
-41.697940 -9.911540 -12.561541
-44.230051 -13.208652 -38.493139
-49.954620 -31.362256 -47.042304
-30.881956 -1.869856 -2.332166
-49.900199 -29.757219 -22.026563
-42.107007 -10.413016 -31.535436
-48.899904 -23.503142 -56.738617
-22.031779 -0.210443 -19.425262
-47.764017 -43.604254 -56.533282
-43.126977 -11.663399 -49.387876
-33.436894 -3.196405 -0.842275
-49.487082 -26.244863 1.435965
-37.249826 -5.747380 -41.687549
-48.906758 -40.014527 -10.949559
-48.924337 -23.596843 -7.632556
-43.481740 -12.111137 -12.746759
-24.543934 -0.360141 -25.292966
-49.786488 -35.113604 -33.263912
-49.189783 -24.614853 3.681761
-45.791001 -15.736250 -12.483281
-48.304809 -42.103091 -57.977565
-49.952783 -32.116608 -19.539330
-49.956713 -30.433327 -56.106008
-49.050104 -39.475556 -54.941884
-31.101628 -1.977968 -13.310921
-36.753602 -5.386309 -15.070662
-34.238729 -3.680537 -37.105462
-38.296456 -6.616510 -38.366875
-43.572618 -12.244425 -20.506633
-36.640204 -5.303797 -41.609098
-49.727771 -35.777067 -11.730726
-44.916398 -14.215287 -6.555477
-49.925949 -33.537794 -25.771564
-27.111653 -0.513150 -54.887876
-42.137918 -10.450909 -44.630364
-21.045829 -0.151691 -54.724702
-48.230873 -21.241286 -47.549356
-47.962433 -20.484606 -51.286667
-45.331317 -14.919418 -48.006398
-24.290593 -0.345045 -11.859553
-37.108111 -5.644263 -50.160109
-42.343427 -10.702843 -27.182528
-47.051799 -45.296403 -15.430109
-45.965422 -16.046187 -60.788809
-48.025758 -42.877698 -11.569077
-36.651269 -5.311848 -38.823735
-39.636870 -7.779994 -2.183791
-36.340163 -5.085476 -20.495919
-33.729090 -3.372827 -12.527826
-42.980153 -11.483407 -5.816582
-29.784582 -1.380322 -9.560091
-44.580967 -13.723325 -36.912889
-48.152526 -42.525806 -9.766346
-49.769476 -35.305828 -33.951278
-37.297571 -5.782121 -57.593285
-47.855733 -43.349666 -27.897258
-41.431937 -9.625785 -22.746730
-49.838459 -29.018583 -52.112487
-49.143113 -39.125848 -35.413150
-34.659737 -3.934734 -51.773978
-38.243947 -6.570932 -53.578238
-49.951132 -32.794111 -25.301621
-49.714376 -35.928423 -34.051288
-47.552087 -44.192546 -36.286290
-40.871321 -9.047740 -33.716418
-45.405672 -15.051543 -8.458289
-49.663183 -36.297883 -7.182771
-44.889985 -14.176550 0.736820
-43.999078 -12.869894 -51.801593
-31.939371 -2.390262 2.308562
-28.771242 -0.985495 -49.779185
-21.339003 -0.169161 -10.910673
-48.449570 -21.857749 -29.411682
-28.985314 -1.068904 -8.779888
-49.906218 -29.829226 -24.129495
-22.805590 -0.256554 -22.174220
-45.959485 -16.035637 -25.849850
-29.026008 -1.084759 -32.447404
-49.879029 -29.503952 -8.437541
-47.624087 -43.992682 -48.486003
-46.175268 -16.419072 -19.800619
-33.232803 -3.073179 -25.543217
-46.057606 -16.209992 -22.790628
-36.495509 -5.198511 -34.017841
-22.711575 -0.250952 -20.469269
-49.736249 -35.681273 -38.696407
-47.103488 -45.184176 -40.585099
-41.069411 -9.251989 -12.963744
-23.648298 -0.306771 -5.692012
-49.395832 -37.817842 -15.177501
-29.947739 -1.443893 -52.221494
-42.104823 -10.410338 -29.369525
-47.657489 -43.899962 -55.072567
-24.000233 -0.327742 -27.416602
-29.529616 -1.280980 -15.505131
-44.446315 -13.525837 -12.752570
-33.733200 -3.375309 -32.543434
-49.360206 -38.020385 -51.302266
-49.951686 -32.566649 -38.601711
-49.257147 -24.899249 -24.836252
-49.951136 -30.366606 -10.862339
-49.950773 -32.941361 -20.705113
-43.498041 -12.135046 -25.173495
-23.555104 -0.301217 -38.453862
-49.953794 -31.701501 -21.529270
-47.659657 -19.631139 -53.857000
-49.361661 -38.012109 -20.912144
-48.251791 -21.300248 -5.281359
-49.847140 -34.428279 -13.527055
-45.235760 -14.749620 -16.008805
-49.931826 -30.135585 -52.547806
-49.586663 -36.732917 -19.175184
-47.689366 -43.811477 -36.739797
-49.631338 -36.478926 -19.721300
-49.469366 -26.141190 -54.447133
-48.530218 -41.430290 -59.163606
-49.393978 -37.828377 -38.061166
-28.142615 -0.740563 -0.692487
-42.092874 -10.395690 -54.474046
-43.810125 -12.592765 -18.812294
-22.552578 -0.241477 1.945689
-44.087114 -12.999013 -36.393565
-49.660364 -27.258938 -39.853864
-30.559302 -1.711063 -53.387283
-23.165485 -0.278000 -34.993672
-47.741406 -19.861573 -18.709255
-49.565352 -36.854077 -52.126071
-46.975488 -45.462075 -39.821053
-45.504320 -15.226835 -15.014172
-40.794706 -8.968743 -33.095307
-49.446370 -26.006614 -58.499423
-45.179995 -14.650528 -23.646011
-41.778200 -10.009931 -29.948731
-47.032796 -18.205221 1.289053
-33.937152 -3.498451 -4.030390
-30.885555 -1.871628 -37.968275
-48.142292 -42.554215 -1.648609
-38.854461 -7.100860 -40.103191
-46.654103 -17.372344 -35.900789
-49.203331 -24.666810 -29.507712
-40.960710 -9.139908 -45.959820
-49.806929 -28.641378 -50.581813
-44.486177 -13.584302 -18.670085
-49.643850 -27.162295 0.855805
-33.377997 -3.160845 -51.601925
-36.923070 -5.509620 -9.393567
-21.351243 -0.169891 -2.041838
-22.333467 -0.228421 -23.057275
-47.470525 -44.387302 -4.161199
-47.325020 -44.703208 -13.980595
-45.947481 -16.014308 0.465099
-48.923855 -23.594997 -2.064640
-37.943551 -6.310188 -42.652617
-46.765061 -17.616381 -58.545408
-46.722213 -17.522142 -24.384344
-41.662971 -9.868672 -40.136308
-47.545970 -19.333868 -23.153932
-44.661383 -13.841269 -0.940315
-24.120452 -0.334906 -57.472853
-49.806840 -28.640312 -4.372154
-49.254872 -38.619234 -27.706834
-41.964402 -10.238196 -35.127213
-20.923394 -0.144395 2.320608
-48.712154 -40.746224 -26.730975
-45.170773 -14.634141 -35.067543
-46.591505 -17.234672 -28.123545
-48.004150 -42.937680 -45.242115
-49.648989 -27.192369 -13.875543
-49.952423 -32.264150 -57.145663
-48.635958 -22.490888 -43.205721
-49.273184 -38.515124 -43.551232
-28.493123 -0.877132 -45.127762
-31.925202 -2.383288 -12.949836
-30.210223 -1.546164 -23.660129
-31.501358 -2.174694 1.914096
-28.494535 -0.877682 -39.015311
-47.722756 -19.809003 -49.926207
-49.954771 -31.300546 -59.475763
-38.884093 -7.126582 -50.702291
-49.870608 -29.403206 -21.304314
-49.211967 -24.699929 -20.867499
-48.812138 -40.370292 -52.988736
-38.158533 -6.496792 -3.093396
-31.016000 -1.935826 -10.257844
-47.552099 -44.192513 -16.686982
-49.659855 -27.255959 -53.148612
-42.550789 -10.957049 -26.768061
-26.624926 -0.484146 -60.757311
-27.967549 -0.672353 -22.131392
-49.446639 -37.528989 -7.793256
-47.954388 -20.461927 -59.386484
-49.842993 -29.072836 -59.788406
-48.089041 -20.841489 -24.412361
-49.768930 -35.312000 -43.933672
-43.964423 -12.819067 -14.854969
-43.026874 -11.540683 -15.042832
-48.183436 -21.107569 -8.215961
-38.219992 -6.550139 -60.376440
-22.745100 -0.252950 -14.825829
-46.409770 -46.690353 -5.376363
-37.082783 -5.625833 -42.179797
-46.112077 -16.306784 -42.916793
-49.849647 -29.152435 -6.352203
-46.753214 -17.590324 -11.544006
-49.920309 -29.997801 -48.898052
-29.985274 -1.458517 -14.835458
-24.876216 -0.379942 -39.292412
-42.366045 -10.730571 2.611271
-28.495667 -0.878123 -22.688408
-38.387256 -6.695325 -42.140932
-42.329088 -10.685266 -27.847270
-45.582005 -15.364878 -42.192497
-30.933812 -1.895377 -31.583684
-49.753359 -28.000499 3.736666
-35.251513 -4.293335 -48.784274
-48.076512 -20.806173 -41.675676
-42.282296 -10.627903 -19.320911
-49.484312 -26.228656 -18.649886
-39.945361 -8.092990 -22.582260
-33.780987 -3.404162 2.837713
-49.014267 -39.610301 -16.189570
-46.919436 -17.955904 -20.069371
-47.724542 -43.713832 -49.310094
-49.955197 -31.125628 -37.946703
-49.545699 -26.587900 -18.299843
-49.752374 -27.988707 -38.987781
-33.743267 -3.381387 -43.831941
-43.088086 -11.615723 -16.512770
-26.007218 -0.447337 -38.741719
-46.674647 -17.417528 -43.798383
-43.313073 -11.891535 -43.379202
-47.613528 -44.021993 -52.575960
-49.768103 -35.321350 -58.296028
-49.908116 -33.739285 -24.024730
-47.252338 -44.861006 -27.611277
-44.172370 -13.124055 3.851657
-34.971889 -4.123205 -14.774106
-47.629400 -19.545850 -19.153523
-48.682622 -40.857260 -25.918179
-47.246973 -18.676270 -44.665600
-49.013845 -23.940114 -9.521807
-44.512552 -13.622984 -4.455288
-27.303260 -0.524568 -5.372868
-41.115212 -9.299214 -34.341361
-23.949976 -0.324748 -58.392350
-48.076595 -42.736581 3.846654
-49.735680 -35.687707 -3.098724
-49.435703 -25.944186 -53.528452
-44.478868 -13.573581 -19.776083
-49.835474 -28.982877 -1.806708
-43.147861 -11.689001 -28.336045
-24.285209 -0.344724 -15.033017
-39.735431 -7.876533 -50.903067
-49.830580 -34.615400 -43.855945
-44.430699 -13.502934 -26.849149
-49.008468 -39.632105 -43.036174
-35.285713 -4.318220 -27.337212
-33.467702 -3.215006 -8.925016
-47.406460 -44.526392 -37.821097
-21.656109 -0.188057 -9.532021
-49.674154 -36.235506 -12.068674
-28.002898 -0.686126 -2.199548
-47.181869 -45.014003 -43.542925
-45.927443 -15.978701 -34.107380
-49.222210 -24.739212 -57.294281
-48.599444 -22.350852 -3.117510
-38.946951 -7.181142 -30.338855
-47.681391 -19.692402 -32.556631
-49.438304 -37.576373 -27.884476
-43.312797 -11.891197 -45.952801
-28.724028 -0.967099 -54.992267
-48.007456 -20.611517 -5.247122
-26.735256 -0.490721 0.888845
-36.873805 -5.473774 -57.446695
-45.671567 -15.524024 -17.883468
-49.614650 -36.573806 -13.008606
-49.951587 -32.607521 -18.148438
-32.718969 -2.773939 -30.316800
-43.166257 -11.711553 -49.910300
-44.229275 -13.207514 -20.750962
-48.082654 -42.719761 -60.859975
-41.346063 -9.537241 -45.899210
-49.833437 -34.583113 1.702519
-28.678831 -0.949489 -16.806254
-48.469865 -41.644916 -45.900248
-40.605007 -8.773146 0.918566
-46.685109 -46.092557 1.575646
-38.272597 -6.595801 -39.525246
-41.821061 -10.062475 -37.332275
-29.561578 -1.293433 -53.041045
-48.532078 -22.092497 -22.468399
-22.555801 -0.241670 -45.984313
-49.261705 -38.580387 -46.046503
-49.952602 -32.190721 -51.466633
-27.330758 -0.526206 -33.053206
-49.044047 -39.498331 -36.802337
-26.413186 -0.471529 -6.944247
-48.397863 -41.844783 -18.325506
-49.859380 -34.289973 -54.324116
-28.293989 -0.799543 -15.249671
-29.145984 -1.131505 -37.888614
-23.184560 -0.279137 -4.597643
-49.857076 -34.316010 -1.973379
-49.452328 -26.041480 -59.207479
-46.026118 -16.154040 -0.576893
-48.346051 -41.988606 -44.230266
-39.486922 -7.649839 -60.413826
-47.645288 -43.933830 -2.772838
-47.003847 -45.400527 -2.406213
-35.119669 -4.212431 -10.296239
-48.198623 -42.397849 -2.342082
-49.767745 -28.172598 -21.098849
-49.562110 -36.872510 -40.964626
-39.343660 -7.525487 -52.855946
-26.888297 -0.499840 -55.934158
-32.050712 -2.445058 -16.978333
-48.717689 -40.725414 -11.511586
-49.955655 -30.937456 -28.115253
-41.472105 -9.667203 -54.964832
-44.539028 -13.661815 -57.688202
-49.762035 -28.104285 -18.433717
-32.187279 -2.512269 -29.562213
-49.722140 -27.627009 2.294417
-49.951692 -32.564331 -29.893588
-46.663439 -17.392878 -38.804745
-49.715281 -35.918200 -56.513300
-38.826285 -7.076404 -46.108402
-46.574735 -46.332165 -30.730149
-49.524083 -37.088701 -42.297293
-46.590236 -17.231879 -31.591418
-49.823119 -34.699699 -11.126053
-35.298946 -4.327849 -34.763040
-48.288882 -42.147301 -52.755817
-42.745433 -11.195664 0.188610
-47.876873 -20.243428 -6.720781
-33.986634 -3.528327 -44.476388
-49.948844 -33.279096 3.659879
-48.107011 -20.892142 -35.406238
-49.857491 -29.246273 -17.648618
-47.617643 -44.010569 -43.277796
-40.088481 -8.240560 -34.853602
-49.955435 -31.027833 -4.923656
-48.014603 -42.908661 -36.444160
-46.428997 -46.648562 -54.311393
-49.493903 -26.284783 -21.015629
-49.637921 -36.441504 -20.934089
-28.467064 -0.866978 -48.647349
-48.324342 -42.048867 -56.706637
-25.332888 -0.407155 -13.843537
-49.954679 -31.338177 -40.451867
-49.527980 -26.484207 -16.069530
-22.494333 -0.238007 -40.228400
-45.236708 -14.751304 -30.909305
-48.774553 -23.022409 -32.370775
-26.419956 -0.471932 -47.850141
-27.291298 -0.523855 -11.996875
-49.272816 -24.990947 -1.761234
-46.728926 -45.997403 -20.859638
-47.599772 -44.060179 -43.778513
-49.202118 -38.903993 -3.249712
-49.628057 -36.497581 -6.049404
-44.661897 -13.842022 -39.488645
-49.707217 -36.009318 -59.501937
-37.458140 -5.898957 -45.345241
-49.335883 -25.360027 -45.339023
-30.190899 -1.538635 -52.716446
-33.895648 -3.473392 -51.997029
-33.929277 -3.493696 -5.018966
-22.186264 -0.219649 -25.225482
-35.626113 -4.565908 -47.197253
-43.765793 -12.527746 -23.461995
-31.711383 -2.278058 0.474142
-49.276905 -38.493967 -9.014734
-49.724629 -35.812572 -36.591626
-26.664012 -0.486475 -40.022122
-33.149919 -3.023135 -58.281531
-48.877819 -23.418443 -3.994929
-32.894931 -2.869179 -36.737963
-46.932653 -45.555078 -23.189705
-22.741725 -0.252749 -44.514598
-46.961605 -45.492234 -7.863786
-31.488227 -2.168232 -32.485948
-38.962744 -7.194851 -43.592910
-41.646539 -9.848528 -23.247414
-27.738825 -0.583235 -28.962464
-39.790709 -7.933530 2.369718
-44.799631 -14.044031 -37.895861
-49.839770 -29.034267 -35.412428
-35.696617 -4.617209 -52.729936
-44.832811 -14.092694 -53.638616
-49.538241 -26.544254 -36.163738
-46.642910 -46.184158 -19.426304
-37.900853 -6.273125 -6.077907
-48.451666 -21.863657 -13.418507
-28.087446 -0.719068 -47.391050
-49.376770 -37.926211 -47.690830
-46.801635 -45.839559 -1.175838
-45.510520 -15.237853 -12.000545
-41.070182 -9.252783 -24.039972
-45.114218 -14.533646 -40.457976
-46.838423 -45.759666 -24.569654
-48.716179 -22.798541 -60.989421
-35.126882 -4.216786 2.947961
-31.172216 -2.012707 -6.572162
-34.474833 -3.823092 -23.709893
-25.859282 -0.438522 2.440864
-37.567224 -5.983534 -8.736146
-48.715803 -22.797099 -11.805781
-49.237262 -24.796937 -47.497360
-49.949548 -33.271135 -9.140233
-42.529178 -10.930557 -50.761639
-24.652919 -0.366636 -41.167994
-28.822357 -1.005411 -55.823575
-49.872686 -29.428060 -2.788898
-42.211006 -10.540509 -52.980448
-33.759530 -3.391207 -31.947274
-28.733790 -0.970902 -7.291424
-23.289055 -0.285364 -47.928696
-49.579064 -26.783158 -21.143351
-48.023816 -20.657632 -32.678404
-24.582763 -0.362455 -23.701693
-47.006629 -18.147670 -40.278356
-42.849718 -11.323507 -23.529309
-49.405088 -37.765216 -32.518605
-25.917289 -0.441979 -42.880963
-26.835681 -0.496705 -45.071376
-35.032675 -4.159906 -49.722394
-47.196475 -44.982293 -11.565105
-49.954219 -31.527164 -50.661956
-29.242939 -1.169282 2.942849
-21.819250 -0.197779 -55.647278
-47.960714 -43.058250 -7.208219
-46.584889 -46.310134 -17.295108
-37.421501 -5.872297 -30.341598
-36.398479 -5.127909 -36.479971
-21.046202 -0.151713 -23.981918
-35.210254 -4.267125 2.362905
-21.448667 -0.175696 -19.955862
-40.856331 -9.032283 -52.974127
-39.040317 -7.262184 -23.376482
-49.949566 -30.347818 -4.971605
-49.916866 -29.956609 -55.952511
-49.181883 -38.980075 -36.016446
-31.161985 -2.007672 -57.156613
-49.408657 -37.744927 -16.080533
-49.805976 -28.629977 -3.086594
-47.672420 -43.858517 -3.977486
-25.137876 -0.395534 -51.230436
-24.668511 -0.367565 -57.173398
-48.427443 -21.795377 -36.390568
-47.806196 -20.044203 -19.326627
-49.936384 -33.419884 -1.527475
-21.000191 -0.148972 -15.022333
-33.734609 -3.376160 -9.909321
-48.686007 -40.844535 -28.337235
-43.021309 -11.533861 -35.362524
-49.777464 -28.288870 -47.082456
-47.022463 -18.182496 -59.254227
-22.915286 -0.263091 -5.280763
-48.316710 -42.070053 -35.986614
-23.870052 -0.319985 -43.100079
-49.339093 -25.378809 -46.559251
-46.249156 -16.550366 -25.053044
-49.536952 -26.536714 -53.899627
-41.664695 -9.870785 -26.662512
-22.976552 -0.266742 -59.596047
-48.703252 -40.779696 -49.676183
-46.443052 -46.618062 -39.122731
-49.091903 -24.239476 -27.392452
-44.693964 -13.889053 -49.286726
-22.721900 -0.251567 -52.193824
-47.246151 -18.674463 -25.643312
-28.526056 -0.889963 -22.035002
-48.816012 -40.355726 -37.481316
-27.956350 -0.667989 -40.571162
-38.332646 -6.647924 -57.035409
-45.448112 -15.126958 -37.270191
-29.648706 -1.327380 -7.805324
-35.706757 -4.624587 -60.710491
-49.802992 -28.594284 -29.742318
-27.996196 -0.683514 -9.054613
-47.564347 -44.158513 -52.040765
-36.063946 -4.884491 -28.528521
-49.001420 -39.658604 -52.194411
-44.224524 -13.200547 -44.641528
-49.734196 -27.771234 -23.187408
-46.868338 -45.694731 -7.236856
-36.788088 -5.411403 3.824440
-47.628302 -19.542757 -46.489419
-49.955639 -30.944077 -45.264201
-49.823587 -34.694412 -21.440315
-37.958505 -6.323168 -11.132471
-42.457882 -10.843154 3.784733
-48.485863 -41.597060 -1.030116
-44.919655 -14.220065 -54.289363
-23.096454 -0.273887 3.797591
-26.105722 -0.453207 0.796099
-48.437201 -21.822883 -28.892738
-47.637285 -43.956046 -12.100631
-49.953048 -32.007640 -13.761043
-49.906865 -29.836963 -58.932286
-33.551963 -3.265882 -14.150371
-46.388600 -46.736287 -35.488730
-29.487510 -1.264574 -35.078586
-48.850003 -40.227921 3.791192
-49.587278 -36.729422 -40.140355
-47.582886 -19.415058 -29.293345
-47.587561 -44.094075 -13.164974
-31.142711 -1.998187 0.309163
-49.728456 -35.769326 -47.322834
-49.859260 -29.267440 -37.182479
-35.702214 -4.621281 -32.230595
-26.234645 -0.460890 -11.751755
-43.618935 -12.312356 -43.529602
-24.607407 -0.363924 1.986311
-26.310836 -0.465430 -43.801480
-49.776796 -35.223118 -6.363993
-49.390838 -25.681632 -15.222115
-31.026108 -1.940800 -25.209580
-26.086216 -0.452045 -32.421939
-49.907190 -29.840850 -45.897838
-43.465118 -12.086758 -5.906292
-32.051762 -2.445575 -53.056879
-48.070862 -42.752495 -27.396315
-45.900640 -15.931074 -11.620935
-44.682547 -13.872309 -38.814620
-49.058086 -39.445542 -6.603508
-49.249490 -24.854438 -51.602124
-41.890457 -10.147546 -33.601179
-47.793305 -43.522956 -25.617259
-49.747908 -27.935287 -19.265851
-46.099706 -16.284801 -52.491942
-48.460913 -21.889722 -50.652675
-48.556987 -41.329641 -48.382407
-48.714232 -22.791073 -54.530353
-44.850564 -14.118732 -0.409610
-49.952056 -32.414845 -56.608482
-45.395340 -15.033184 -38.299816
-35.753135 -4.658333 -37.789957
-34.657415 -3.933332 -4.556608
-44.732811 -13.946028 -49.916277
-49.071292 -39.395889 -54.210326
-49.607220 -26.947931 -10.603579
-49.801799 -34.940607 -25.496398
-49.808431 -28.659349 -59.488511
-49.795453 -35.012306 -55.746943
-40.308409 -8.467326 -56.131384
-42.912856 -11.400908 -32.344263
-49.276206 -38.497945 -51.714435
-49.440845 -37.561928 -50.918360
-42.384381 -10.753049 -16.510855
-49.841811 -29.058692 -54.523653
-23.438853 -0.294290 -30.772550
-40.684479 -8.855088 -57.255854
-32.657176 -2.743528 -7.172700
-49.204251 -24.670338 -12.767095
-41.351984 -9.543347 -48.738161
-42.252913 -10.591883 -30.997979
-48.434211 -21.814455 -50.106539
-49.825355 -34.674434 -57.690049
-49.597061 -26.888478 -58.560097
-48.290432 -42.142998 -45.995680
-35.527234 -4.493960 -30.161767
-41.028616 -9.209925 -12.183429
-48.935526 -39.906361 -24.960219
-41.182878 -9.368984 -3.595719
-25.188180 -0.398531 -46.630603
-41.505899 -9.702047 -17.496106
-49.638226 -27.129387 -17.831807
-49.344474 -25.410299 -53.846078
-47.060781 -18.266770 -21.228216
-21.408218 -0.173286 -45.510742
-24.867098 -0.379398 -43.163968
-47.097691 -45.196761 -28.371067
-46.119771 -16.320456 -2.153537
-46.184012 -16.434609 -11.183837
-45.271530 -14.813181 -10.638868
-49.947649 -33.292594 -4.258080
-24.311875 -0.346313 -43.465588
-46.695056 -46.070921 -47.051721
-35.125846 -4.216161 -0.279949
-49.893477 -33.904703 -35.317146
-41.555225 -9.752907 -46.811619
-45.210308 -14.704393 -49.040810
-49.950143 -33.199841 -7.988279
-49.589830 -26.846164 -60.883667
-49.555819 -26.647128 -56.544781
-49.374109 -37.941338 -3.955691
-28.185618 -0.757319 -3.224751
-32.734113 -2.781392 -58.121465
-21.905777 -0.202935 -13.700221
-48.842234 -23.281972 -22.036692
-22.314669 -0.227301 -15.103711
-47.910977 -43.196315 -13.444910
-49.300329 -38.360795 -15.263062
-35.770751 -4.671151 -53.388564
-21.931822 -0.204487 -23.782448
-28.599182 -0.918455 -60.758382
-49.454788 -26.055877 -5.441163
-30.820267 -1.839496 -57.524635
-22.206192 -0.220837 -39.183643
-48.543724 -22.137160 -54.583412
-49.951881 -32.486605 -46.681983
-48.396695 -41.848025 -41.030289
-49.951822 -32.510961 -53.413699
-47.847844 -20.161600 -39.149729
-46.842501 -45.750802 -33.796299
-49.530146 -37.054230 -9.302902
-49.952096 -32.398281 -60.974412
-33.396406 -3.171960 -20.430146
-37.620547 -6.029818 -20.783247
-48.139983 -42.560624 2.365923
-44.770241 -14.000925 -61.061262
-46.578886 -17.206918 -3.890452
-35.119711 -4.212457 -56.945018
-45.394448 -15.031600 -17.781791
-47.885522 -20.267809 -16.080888
-23.822735 -0.317165 -19.161915
-39.804267 -7.947509 1.134172
-36.791960 -5.414220 -23.223001
-29.493163 -1.266776 -10.203532
-40.054746 -8.205776 -14.854614
-49.657087 -36.332541 -30.633128
-31.319265 -2.085077 -18.969322
-49.954315 -31.487786 -22.007769
-49.955578 -30.419743 -30.209807
-40.171341 -8.325996 -30.993712
-44.067966 -12.970929 -22.010026
-49.922695 -30.026343 -57.221363
-47.634709 -19.560816 -28.704386
-49.279688 -25.031164 -43.013085
-48.971252 -39.772033 -21.948202
-37.122205 -5.654519 -38.731923
-48.477882 -21.937554 -6.323107
-46.857983 -45.717192 -31.821154
-24.784339 -0.374467 -7.313832
-49.801497 -34.944018 -42.310488
-49.151343 -24.467433 -0.255565
-22.600047 -0.244306 -4.036634
-38.953043 -7.186431 -20.949300
-49.142348 -39.128725 -49.627211
-23.278690 -0.284746 -12.733247
-49.420524 -25.855356 -0.292942
-48.907408 -40.012081 -14.979164
-48.871562 -40.146861 -48.050163
-42.195557 -10.521570 -57.384268
-27.260126 -0.521998 -4.183675
-47.042410 -18.226366 -45.170601
-49.775729 -35.235176 -1.590168
-48.834362 -23.251783 -14.975478
-37.057082 -5.607132 2.576290
-47.007485 -18.149554 -13.324956
-46.770887 -45.906294 -27.071852
-34.778897 -4.006680 -42.528881
-46.696017 -17.464528 -34.342851
-49.950347 -33.116494 -11.756555
-48.397004 -41.847170 -2.480791
-28.617298 -0.925514 -0.907003
-46.663864 -46.138684 2.891618
-48.218072 -21.205202 -36.710859
-47.249169 -18.681099 -7.330581
-45.044393 -14.409572 -0.805826
-32.559856 -2.695632 -1.954225
-48.783244 -40.478929 -40.906741
-28.224869 -0.772612 -23.549216
-29.264319 -1.177612 -4.984719
-31.543576 -2.195472 -49.150447
-47.286509 -18.763224 -57.999592
-47.959866 -20.477368 -13.718220
-37.581276 -5.995732 -23.881528
-47.838109 -43.398586 1.790140
-32.772728 -2.800397 -55.815438
-46.981932 -45.448105 -4.745056
-23.255377 -0.283357 -44.771693
-48.597709 -22.344199 -31.217176
-27.659878 -0.552475 -55.169815
-49.447160 -37.526028 -3.658648
-38.989491 -7.218067 1.288374
-49.317608 -25.253076 -59.944916
-46.351093 -46.817732 -23.839449
-46.754500 -17.593153 -10.225983
-35.325799 -4.347388 -45.012689
-49.443000 -37.549677 -39.472747
-49.892970 -29.670736 -15.245763
-32.437521 -2.635425 2.073163
-30.995772 -1.925871 -55.496745
-49.032472 -39.541852 -14.649001
-49.466517 -26.124514 -7.276471
-40.039115 -8.189659 -46.077325
-45.389322 -15.022490 -53.785263
-26.658913 -0.486172 -39.048298
-49.955507 -30.998425 1.843102
-48.898046 -40.047282 -4.523032
-33.385727 -3.165511 -61.000399
-46.236575 -16.528010 -57.867456
-49.914114 -29.923684 -37.580072
-44.239499 -13.222510 -34.613727
-49.424296 -37.656012 -12.531808
-48.711505 -22.780616 -39.884283
-46.456040 -46.589899 -0.554324
-40.817959 -8.992719 -2.099076
-49.879646 -29.511335 -57.496582
-35.416222 -4.413184 1.628003
-25.202325 -0.399374 -35.688515
-49.956480 -30.599090 -8.825413
-45.407904 -15.055509 -2.445804
-36.941963 -5.523367 -7.966985
-34.932677 -4.099530 1.199465
-25.272026 -0.403528 -33.294052
-47.584919 -44.101408 -47.171331
-49.138305 -39.143926 -61.063997
-47.935552 -43.128098 -47.154955
-41.917325 -10.180484 0.481921
-48.571489 -22.243644 -27.235543
-48.472204 -21.921550 -17.176107
-48.759797 -40.567089 -10.760879
-48.315127 -21.478780 -41.764498
-36.626067 -5.293511 -34.637193
-49.956460 -30.607147 -20.086593
-26.295984 -0.464545 -11.130326
-31.404908 -2.127227 -38.799996
-34.219291 -3.668801 -0.790025
-41.757415 -9.984451 -42.160333
-40.785315 -8.959059 -32.477197
-47.099435 -18.351783 0.784686
-37.032997 -5.589608 -32.336574
-49.870583 -34.163389 -8.151461
-40.826535 -9.001561 -41.567896
-35.457104 -4.442931 -19.373778
-23.610532 -0.304520 -21.565925
-48.271226 -21.355031 -32.067993
-47.722769 -43.718753 -36.208622
-49.430400 -25.913152 -27.325111
-46.387335 -46.739043 -27.687507
-49.817756 -28.770909 -58.595287
-47.678976 -19.685596 1.588027
-46.168268 -16.406633 -20.831765
-40.017913 -8.167798 -27.311004
-23.958324 -0.325245 -36.355122
-45.655751 -15.495920 -57.086689
-33.082760 -2.982586 -29.924673
-32.449515 -2.641328 -37.350582
-46.125928 -16.331397 -46.107961
-36.074343 -4.892056 -55.731455
-49.763695 -28.124149 -51.253005
-47.718679 -43.730108 -39.815899
-43.190726 -11.741549 -18.734059
-49.744395 -27.893253 -31.155345
-32.917518 -2.882816 -32.851597
-38.331701 -6.647103 -28.797870
-49.474430 -37.370989 -50.181592
-48.912445 -39.993143 -19.229802
-49.861667 -34.264131 -4.148109
-43.167408 -11.712964 -41.083450
-41.838633 -10.084016 -60.865423
-49.707815 -27.536631 -39.417513
-48.897184 -40.050525 -34.802297
-44.443763 -13.522094 -30.781382
-49.546259 -26.591180 -33.552360
-22.449573 -0.235339 -26.799816
-49.956860 -30.442896 -16.181174
-49.570128 -26.730866 -48.880508
-49.629828 -36.487513 -16.225460
-30.522666 -1.693032 -37.405951
-48.045648 -42.822486 -27.947847
-49.265301 -38.559942 -48.492428
-31.347660 -2.099052 -21.776953
-43.990676 -12.857572 -16.325855
-40.155030 -8.309178 -40.258675
-35.578460 -4.531234 -1.899730
-23.797900 -0.315686 -53.777172
-31.017590 -1.936608 -40.083426
-38.022707 -6.378895 -3.641612
-46.991335 -45.427686 -8.873576
-49.820535 -28.804158 -32.688531
-49.833026 -34.587752 -20.567828
-47.439350 -19.099374 -44.214603
-49.605519 -36.625718 -1.273418
-37.954155 -6.319391 1.637940
-33.501494 -3.235409 -3.170159
-44.055226 -12.952244 -30.025473
-48.001490 -20.594700 -52.388784
-41.233244 -9.420916 -25.649194
-49.145536 -39.116737 0.226403
-48.915188 -39.982831 -29.199099
-31.156548 -2.004996 -28.024749
-48.216884 -42.347158 -59.055640
-23.618348 -0.304986 -32.785217
-48.946033 -39.866853 -61.071727
-39.773460 -7.915745 -19.677913
-49.732719 -27.753567 -5.177116
-35.022357 -4.153676 -36.229509
-23.120763 -0.275335 -10.153988
-43.836017 -12.630740 -27.040340
-47.359779 -18.924370 -42.973399
-49.242550 -38.689288 -33.561631
-23.065675 -0.272053 -31.185791
-49.067936 -24.147560 -49.002916
-46.729435 -45.996315 -2.325304
-49.286834 -25.072985 -58.889423
-33.586552 -3.286766 -5.446697
-35.848626 -4.727816 -29.695197
-49.244549 -24.825523 -31.132515
-42.012037 -10.296592 -32.539766
-22.304890 -0.226718 -33.305382
-41.425894 -9.619555 -13.224031
-49.954103 -31.574596 -42.610335
-43.407813 -12.007677 -58.004615
-27.242394 -0.520941 -37.289260
-47.902770 -43.219095 -39.719331
-45.631400 -15.452648 -21.248655
-35.406941 -4.406430 0.505866
-48.030519 -20.676527 -32.079685
-37.070252 -5.616716 -23.926903
-20.923887 -0.144425 -32.975467
-48.667861 -22.613235 -47.666465
-40.980411 -9.160221 -16.375525
-48.503827 -41.529519 -24.773675
-38.665564 -6.936897 -29.043941
-38.534753 -6.823353 1.028923
-27.574454 -0.540728 -44.104174
-34.516187 -3.848061 -8.035168
-46.474044 -16.976334 -16.127806
-37.143827 -5.670251 3.531634
-47.617479 -19.512249 -10.570071
-32.511825 -2.671994 -9.370360
-26.480431 -0.475536 -60.015359
-40.817529 -8.992275 -21.471125
-27.157443 -0.515879 -53.046184
-44.739197 -13.955395 -29.461584
-47.069868 -45.257167 -38.661734
-47.176360 -18.520968 -22.479172
-49.877617 -34.083911 -56.772249
-47.724441 -19.813752 -23.373392
-37.050880 -5.602620 -28.307928
-49.103197 -39.275929 -10.098220
-49.952471 -32.244583 -23.564776
-48.681948 -40.859795 -32.159284
-36.825739 -5.438799 -35.407625
-47.082912 -45.228847 -23.932762
-43.556545 -12.220850 -24.571810
-41.202427 -9.389140 -4.817769
-29.967615 -1.451637 -29.576397
-39.196118 -7.397420 -0.492074
-48.661521 -22.588921 -53.009904
-32.824647 -2.826742 -40.015177
-34.560855 -3.875031 -57.780157
-49.334141 -25.349833 -14.852811
-27.970196 -0.673384 1.168613
-49.005405 -23.907749 -46.965634
-49.712170 -27.562118 -4.710181
-46.953241 -45.510400 -1.616821
-48.009031 -20.615957 -54.385216
-47.953613 -43.077962 -43.358477
-49.956715 -30.502534 -13.614597
-49.454191 -26.052382 -39.833733
-49.845241 -29.099731 -4.028815
-49.296368 -38.383316 -53.591469
-49.955687 -30.924324 -60.019401
-40.622257 -8.790932 -23.713671
-38.220417 -6.550508 -29.741667
-27.309740 -0.524954 -46.651764
-35.421745 -4.417202 -13.586586
-47.937991 -43.121328 -59.947723
-49.556643 -26.651949 -8.788991
-38.479627 -6.775504 -19.741869
-49.171319 -39.019796 -51.545290
-41.511249 -9.707564 -32.503086
-43.933094 -12.773119 -42.999512
-49.290331 -25.093446 -52.125545
-45.961032 -16.038386 -4.355604
-49.332952 -38.175328 -29.915960
-23.086113 -0.273271 -30.258034
-43.912498 -12.742911 -33.627223
-46.401059 -46.709224 -49.777889
-40.924607 -9.102682 -36.270298
-44.288036 -13.293697 -46.971691
-46.838788 -17.778530 -30.673735
-49.038674 -24.035335 -12.254364
-31.218420 -2.035447 -26.789704
-22.577507 -0.242963 -42.851975
-42.029592 -10.318112 0.010682
-49.950181 -33.184596 -18.514618
-30.431187 -1.648011 -3.009639
-48.414302 -21.758335 -12.366617
-46.986071 -18.102457 -2.514473
-49.714072 -27.573249 -48.812541
-49.950323 -33.126128 -33.852006
-49.234594 -24.786708 -10.918937
-22.781695 -0.255130 -27.389501
-46.369617 -46.777489 -51.362338
-33.440442 -3.198547 -34.635491
-48.017859 -20.640841 -17.208911
-49.065516 -39.417606 -27.794357
-30.658031 -1.759652 3.864242
-31.216863 -2.034681 -60.231008
-46.649878 -17.363054 -52.244395
-30.224430 -1.551699 -54.385549
-26.985412 -0.505627 -53.568098
-35.702131 -4.621221 -3.982250
-46.292565 -16.627501 -47.259036
-49.749485 -27.954146 -54.863857
-41.825495 -10.067910 -50.353734
-31.039591 -1.947436 -23.050435
-49.880401 -29.520362 -1.419246
-27.120429 -0.513673 -30.572138
-49.475018 -26.174263 -46.566682
-49.762090 -28.104949 -46.362013
-37.184482 -5.699833 -58.103497
-49.045093 -24.059953 -20.860858
-26.438413 -0.473032 -25.812579
-42.236555 -10.571829 -7.892119
-39.578511 -7.729339 -7.645387
-49.956185 -30.720215 -28.916476
-48.615031 -22.410630 -57.144291
-29.445097 -1.248049 -29.076125
-28.863386 -1.021397 -44.164039
-26.733064 -0.490590 -35.122760
-49.459369 -37.456615 -14.768188
-48.498097 -41.551063 -52.695778
-47.908172 -20.331654 -55.166917
-49.670160 -36.258213 -32.402759
-49.442222 -25.982337 -4.564937
-24.104400 -0.333950 -20.531846
-36.529655 -5.223357 -17.717234
-47.013297 -45.379994 -18.613655
-49.952915 -32.062266 -38.414084
-33.855214 -3.448978 -55.343339
-48.883229 -40.102993 -51.625227
-41.760349 -9.988047 -57.017733
-49.955549 -30.419400 -9.871900
-21.003873 -0.149191 -59.389796
-49.571523 -36.818993 -17.089514
-46.655035 -46.157810 -52.351645
-49.552919 -36.924762 -26.277555
-48.287795 -42.150318 -20.698881
-48.472669 -41.637132 -56.929759
-49.738559 -27.823432 -45.739322
-31.846737 -2.344672 -26.907686
-48.372997 -41.913808 -4.996904
-38.677394 -6.947166 -22.379072
-49.556538 -26.651334 -47.739989
-48.488994 -21.968878 3.420213
-25.728843 -0.430749 -13.489441
-28.016162 -0.691294 -48.536436
-48.805790 -23.142205 -40.396313
-41.165996 -9.351576 -15.409287
-32.790742 -2.809262 -10.448632
-47.853739 -43.355198 -49.823451
-21.623605 -0.186121 -26.258669
-49.117391 -24.337222 -23.750675
-46.776740 -17.642065 -59.262299
-47.651561 -19.608320 -3.151253
-48.704770 -40.773986 -33.605889
-49.952435 -32.259079 -3.579658
-49.659321 -27.252836 -34.587641
-49.954699 -31.330142 -25.141258
-25.253256 -0.402409 -28.190643
-48.519306 -22.054320 -14.676077
-49.361266 -25.508568 0.071802
-47.063157 -45.271754 -3.040610
-30.020855 -1.472381 -31.026766
-48.796905 -23.108131 -5.635256
-35.281860 -4.315416 -24.204256
-37.509039 -5.935993 -4.612268
-47.595736 -19.450959 -33.852035
-46.896694 -45.633145 -44.060373
-42.607929 -11.027097 -60.328784
-41.641032 -9.841776 -49.892516
-24.321474 -0.346885 -9.455561
-43.271708 -11.840826 -50.549250
-41.893829 -10.151681 1.533699
-39.603186 -7.750757 -38.572223
-49.954016 -31.610429 -51.719094
-48.581459 -22.281879 -36.783058
-28.126007 -0.734093 -20.638169
-47.258437 -44.847766 -48.659480
-48.344563 -21.561755 -47.946648
-41.781539 -10.014024 -34.242654
-48.471502 -21.919572 -23.428322
-42.849521 -11.323266 -11.680208
-49.751141 -35.513007 -20.279974
-46.321271 -16.678511 -53.290365
-49.346483 -25.422056 -8.486917
-49.953006 -32.024728 -33.219757
-46.099027 -16.283596 1.319728
-41.636238 -9.836439 -51.597299
-48.998749 -39.668648 -13.045940
-41.809850 -10.048730 -23.762275
-49.474684 -26.172310 -61.002685
-49.578182 -26.777998 -29.776047
-43.394607 -11.991487 -16.629124
-49.880585 -29.522568 -14.715719
-43.260347 -11.826898 -60.781451
-47.786402 -19.988410 -0.836081
-47.760895 -43.612923 -5.550013
-22.468658 -0.236477 -51.093316
-49.068336 -24.149092 -12.901684
-49.956206 -30.711479 -22.687511
-46.157706 -16.387865 -30.628320
-33.332912 -3.133623 -39.974102
-27.739480 -0.583490 -14.637289
-42.153713 -10.470273 -30.473570
-49.918058 -33.626948 -60.604281
-49.911202 -33.704423 -18.741884
-47.553253 -44.189307 -5.830372
-46.234134 -16.523673 -11.773352
-27.165587 -0.516364 -7.701894
-49.718414 -35.882799 -16.785714
-49.638524 -27.131127 -51.337273
-26.404349 -0.471002 -1.648798
-32.453391 -2.643236 -18.524261
-49.826608 -28.876810 -8.767875
-48.793427 -40.440642 -52.369951
-46.768712 -45.911033 -9.197648
-45.245524 -14.766970 -14.233999
-46.368622 -46.779682 -16.802688
-49.809046 -28.666710 -25.241710
-28.477842 -0.871178 1.551069
-47.234518 -44.899702 -5.137869
-30.917118 -1.887162 1.941176
-46.869447 -45.692301 -43.358660
-42.459229 -10.844806 -47.292236
-49.956490 -30.594692 -25.295024
-35.041291 -4.165109 -7.047169
-49.903579 -29.797656 -28.202659
-49.840926 -29.048099 -34.298765
-47.560488 -44.169224 -57.028871
-41.885742 -10.141767 -17.522707
-27.680464 -0.560496 -18.456339
-32.686224 -2.757824 -27.670418
-49.950644 -32.994356 -43.366649
-49.884211 -29.565948 -4.887369
-26.115233 -0.453774 -14.638884
-23.328958 -0.287742 -37.889444
-44.791945 -14.032759 -40.198311
-49.420096 -37.679894 -10.511529
-47.906883 -20.328020 -9.941763
-46.622610 -17.303080 -41.792591
-29.071640 -1.102539 -12.267950
-22.684464 -0.249337 -14.260277
-40.020463 -8.170427 -56.901803
-22.229979 -0.222254 -16.778429
-49.803476 -28.600065 -0.838781
-49.429119 -37.628596 -30.981503
-46.147896 -16.370433 -56.714411
-49.903647 -29.798470 -7.606253
-41.262552 -9.451135 -33.287492
-42.181506 -10.504344 -57.914280
-30.601926 -1.732040 -17.709265
-47.639134 -19.573288 -30.615529
-38.703345 -6.969691 -58.250835
-45.057578 -14.433001 -50.136081
-39.757818 -7.899616 -39.579358
-48.352291 -41.971286 -56.203292
-49.951879 -32.487496 -13.550723
-34.569129 -3.880027 -29.156074
-48.472661 -41.637155 -37.165176
-46.399386 -46.712854 -52.473842
-49.666792 -27.296556 -54.773290
-49.126341 -24.371546 -39.449193
-42.594283 -11.010369 -19.748916
-49.377493 -25.603534 -39.421217
-49.010268 -23.926399 -15.480378
-49.078518 -24.188142 -49.923025
-36.227348 -5.003388 -16.330220
-45.765490 -15.690920 -28.864542
-40.560277 -8.727025 -40.529155
-31.392410 -2.121076 -18.165098
-23.262332 -0.283771 -29.112109
-41.863271 -10.114220 -24.399806
-49.745076 -35.581538 -10.600842
-45.476139 -15.176759 -26.637240
-45.191852 -14.671598 -18.918317
-48.865166 -40.170909 -60.632771
-32.008870 -2.424465 -51.016993
-27.900892 -0.646381 -25.154255
-45.977084 -16.066910 -14.126484
-46.874065 -45.682274 -55.960584
-21.950689 -0.205611 -56.225566
-35.194732 -4.257753 -6.053029
-42.667904 -11.100621 -35.206504
-30.397729 -1.631545 -55.595901
-40.933392 -9.111740 -6.617420
-49.876170 -29.469749 -42.258974
-40.015010 -8.164804 -46.740098
-40.536397 -8.702402 3.247803
-48.282875 -21.387870 -57.998141
-38.055965 -6.407763 -57.882739
-48.702500 -40.782522 -50.731673
