51.665883 -53.794552 -13.574173
51.310751 -54.063238 -13.805673
49.063825 -55.665726 -0.086106
50.638073 -54.572174 -24.072287
50.960896 -54.327932 1.893694
54.512768 -51.550869 -33.029183
49.514301 -55.362194 -1.262964
58.959800 -47.558023 -46.906890
49.065401 -55.664664 -32.311636
52.057664 -53.498138 -36.388776
51.258662 -54.102647 -9.494001
49.327202 -55.488261 -7.882527
50.239314 -54.873677 -57.243863
57.004885 -49.405900 -49.917688
50.338244 -54.799018 -12.341621
54.457112 -51.597982 -48.416521
50.045576 -55.004218 -30.187641
48.215968 -56.237016 -30.461731
57.644232 -48.801560 -21.188066
47.886683 -56.458889 -49.884570
56.259293 -50.072414 -11.576645
49.245703 -55.543176 -54.619208
51.583299 -53.857033 -34.855478
50.393466 -54.757238 -52.446240
57.907002 -48.553176 -55.444921
49.187084 -55.582674 -56.556633
58.028479 -48.438351 -23.738915
47.771978 -56.536178 -7.449340
56.401247 -49.952249 -15.762840
59.428837 -47.114668 -2.026923
58.427016 -48.061635 -2.075719
59.407240 -47.135081 -60.366618
59.215819 -47.316022 0.607614
47.894819 -56.453407 -10.594856
49.027500 -55.690202 -2.015489
59.312981 -47.224180 -30.281691
47.040850 -57.028815 -25.525158
53.094743 -52.713504 -52.059056
57.760418 -48.691734 -29.353158
53.971305 -52.009224 -59.495012
55.703412 -50.542975 -14.328379
56.791198 -49.607886 -34.782384
58.192883 -48.282948 -7.881150
47.009171 -57.050160 -19.882762
59.536841 -47.012577 -39.279287
59.392940 -47.148599 -52.023791
57.416576 -49.016750 -16.744576
55.261200 -50.917312 -20.563232
51.920908 -53.601605 -54.143357
51.338691 -54.042099 -26.321664
54.113174 -51.889131 -28.188203
46.880889 -57.136597 -6.313366
54.459618 -51.595861 -51.088487
53.906668 -52.063940 -49.473260
50.511915 -54.667622 -50.484099
49.893814 -55.106476 -59.368866
50.710165 -54.517630 -1.705555
56.334520 -50.008734 -57.515314
52.610452 -53.079909 -57.055482
51.136188 -54.195309 -21.202430
58.789404 -47.719089 -57.131321
57.975997 -48.487959 -18.910083
56.627834 -49.760441 -52.904914
48.614920 -55.968200 -26.801936
59.179002 -47.350823 -59.302776
54.498204 -51.563197 -38.842161
49.298687 -55.507475 -33.995365
48.441512 -56.085043 -3.564001
58.619239 -47.879937 -55.014106
58.576901 -47.919957 -60.652094
47.822002 -56.502471 -39.322456
55.745068 -50.507712 -57.005333
55.368719 -50.826296 -29.249015
56.213141 -50.111483 -1.811297
59.351556 -47.187717 -20.933109
51.751243 -53.729970 -29.852338
54.289126 -51.740185 -8.231278
51.444149 -53.962312 -55.937643
48.858325 -55.804193 -20.593811
49.332899 -55.484423 0.215601
56.024917 -50.270817 -33.910617
56.211887 -50.112544 -22.373824
49.724334 -55.220672 -52.454892
56.995424 -49.414843 -43.931452
48.342725 -56.151606 -56.591058
57.808622 -48.646170 -34.381201
48.960068 -55.735638 3.818034
48.621752 -55.963597 -38.906670
47.335437 -56.830321 -55.692587
47.099679 -56.989176 -37.078356
52.467852 -53.187797 -51.765186
50.499981 -54.676651 -53.245893
59.015192 -47.505663 -5.913385
48.059091 -56.342720 -32.928429
54.314037 -51.719097 -59.857328
59.114786 -47.411523 -10.022428
56.364302 -49.983523 -33.389154
56.102071 -50.205505 -20.780888
58.098361 -48.372295 -59.791126
50.061246 -54.993660 -35.044391
55.747594 -50.505574 -20.374462
56.373935 -49.975369 -40.305685
47.381816 -56.799070 -31.455698
56.784890 -49.613849 1.492248
58.872566 -47.640481 -18.389973
53.991917 -51.991776 -26.017528
54.312485 -51.720411 2.802124
50.330788 -54.804659 -53.065542
50.031707 -55.013563 -56.825842
51.216606 -54.134466 -31.236984
50.014500 -55.025158 -16.054557
58.774521 -47.733157 -60.697835
50.422260 -54.735454 -12.952931
51.102828 -54.220549 -33.857265
48.835553 -55.819536 -3.095863
56.842038 -49.559830 -52.056458
46.858303 -57.151816 -32.889314
59.112057 -47.414102 -20.516202
50.235483 -54.876259 -49.518461
52.856195 -52.893984 -20.123899
53.001207 -52.784271 -23.747075
56.478894 -49.886520 -7.215585
56.636310 -49.753266 1.684225
51.791312 -53.699655 -18.072734
56.920456 -49.485705 -29.163460
51.453914 -53.954924 0.380253
59.122557 -47.404177 -15.188487
57.282428 -49.143553 -18.555040
54.900316 -51.222805 -48.434682
53.386542 -52.492735 -34.929957
54.249045 -51.774113 0.157954
50.292382 -54.833717 -30.073241
55.275965 -50.904814 -45.570749
59.525657 -47.023149 -2.263012
57.258351 -49.166311 -5.979741
54.623061 -51.457505 -19.055474
48.433471 -56.090461 -55.802777
58.963382 -47.554638 2.509819
58.828681 -47.681963 -49.673096
53.814328 -52.142107 -42.337473
53.445522 -52.448111 -13.805028
52.199428 -53.390882 -9.488393
56.494927 -49.872947 -3.814781
58.667718 -47.834112 -6.978019
58.115680 -48.355924 -21.836178
53.594268 -52.328390 -43.023091
52.715178 -53.000675 -16.973812
59.333439 -47.204842 -19.468666
46.853180 -57.155267 -16.220385
46.925959 -57.106229 -18.305853
48.704935 -55.907548 -24.033263
56.923598 -49.482736 -8.821146
50.616196 -54.588725 -2.304040
49.427433 -55.420726 -13.970615
56.987021 -49.422786 -44.708228
55.474936 -50.736382 -20.515409
55.613795 -50.618836 -32.866558
48.615900 -55.967540 -13.893230
55.579668 -50.647725 -60.388389
59.055460 -47.467601 -39.046360
55.698559 -50.547083 -54.763047
52.508911 -53.156733 -4.754107
52.853764 -52.895824 -18.735833
49.006401 -55.704419 -11.434264
58.311104 -48.171201 0.230737
54.508200 -51.554736 1.156408
52.796138 -52.939423 -24.455160
55.433096 -50.771800 -36.933579
59.244474 -47.288936 -52.374444
49.392879 -55.444008 -11.503327
54.340880 -51.696375 -14.190705
54.833304 -51.279532 -6.849924
56.122254 -50.188420 -1.470640
53.987404 -51.995596 -3.982681
54.635438 -51.447027 -22.480164
52.736697 -52.984394 -24.754249
58.128041 -48.344241 -22.905119
54.709793 -51.384085 -42.301706
53.752558 -52.194396 -24.779621
58.608272 -47.890304 -38.646357
53.338517 -52.529069 -42.725242
51.839304 -53.663345 -42.411218
59.609622 -46.943781 -57.234243
49.009969 -55.702015 -13.056196
48.182342 -56.259673 -36.202750
51.359161 -54.026612 -46.978664
56.381515 -49.968953 -0.285828
46.926623 -57.105782 3.045811
51.411092 -53.987322 0.655052
55.099282 -51.054378 -47.708762
48.691986 -55.916273 -48.270149
46.842173 -57.162685 -33.337354
48.458464 -56.073621 -48.338812
48.808563 -55.837722 -53.247648
56.916644 -49.489309 -0.365626
56.838000 -49.563647 1.899605
48.654284 -55.941677 -4.533787
58.125821 -48.346338 -32.967498
58.853337 -47.658656 -19.282509
59.413903 -47.128783 -57.504983
57.768107 -48.684466 -18.931248
48.228408 -56.228634 -9.096811
58.754225 -47.752342 -17.923500
51.654920 -53.802846 -32.746507
51.549860 -53.882333 -23.315193
55.263989 -50.914952 -58.468669
59.273372 -47.261620 -1.869897
58.883918 -47.629750 1.776457
59.365825 -47.174230 -10.107669
50.065673 -54.990677 -0.629819
58.396206 -48.090758 -9.032430
52.156623 -53.423268 -52.553843
58.332500 -48.150976 -40.076280
58.371721 -48.113903 -17.207113
50.768063 -54.473825 -18.053297
50.161611 -54.926034 -14.213353
54.679663 -51.409591 -36.282366
55.298808 -50.885477 0.758997
53.490039 -52.414431 -37.949136
53.294555 -52.562330 -45.725759
49.837612 -55.144345 3.698478
55.490282 -50.723392 -42.741995
53.665688 -52.267932 -20.963679
49.177074 -55.589419 -29.560494
48.896876 -55.778217 -37.973715
55.602449 -50.628441 -57.379305
58.860818 -47.651586 -6.417791
51.195030 -54.150790 -60.383421
46.869207 -57.144468 -6.905471
51.536595 -53.892368 -42.230451
53.938984 -52.036584 -28.730686
48.678402 -55.925425 -60.972428
50.159250 -54.927624 -28.142248
53.186230 -52.644287 -1.485276
58.134130 -48.338485 -49.614359
57.487648 -48.949570 -0.198101
48.544921 -56.015366 -30.108195
52.960212 -52.815287 1.606657
53.552334 -52.363888 -57.092861
59.074633 -47.449477 -26.759186
54.352623 -51.686434 -50.758133
50.856618 -54.406826 -34.549851
56.371791 -49.977184 -49.386894
47.311113 -56.846710 -19.480474
53.108845 -52.702834 -42.204169
48.124276 -56.298798 -4.829766
56.332351 -50.010570 -23.259154
50.078423 -54.982086 -17.717345
47.252651 -56.886103 -47.297845
52.574568 -53.107059 -28.210930
50.909126 -54.367099 0.858282
55.799597 -50.461553 -31.063430
57.377797 -49.053406 -29.198024
56.812512 -49.587739 -24.988440
59.405512 -47.136715 -12.552969
56.614894 -49.771394 -23.585000
50.446739 -54.716933 -45.501063
48.979557 -55.722506 -54.850973
47.562649 -56.677225 -6.956920
50.254641 -54.862271 -45.638851
56.530413 -49.842908 -59.840814
59.388953 -47.152368 -56.167990
48.113465 -56.306083 -22.831164
56.747745 -49.648960 -42.084964
57.739294 -48.711702 -52.873099
59.075787 -47.448387 -46.026900
52.116010 -53.453994 -19.772298
55.787475 -50.471815 -19.190467
54.849327 -51.265968 -0.465527
52.011545 -53.533031 -52.183688
54.635952 -51.446592 -11.699895
51.869588 -53.640433 -10.192712
49.508852 -55.365865 -14.595373
49.196221 -55.576517 -19.656311
51.084155 -54.234676 -10.893635
55.798412 -50.462556 0.487985
57.292762 -49.133785 -50.473116
54.650636 -51.434162 -43.941251
57.906576 -48.553579 -42.462978
47.299438 -56.854577 -14.939482
50.717632 -54.511981 -23.765334
47.900160 -56.449809 -45.155576
49.632178 -55.282767 -17.682785
53.475035 -52.425782 0.796871
59.243199 -47.290141 -5.014185
54.206211 -51.810373 -9.832050
59.587377 -46.964808 -38.518519
59.241091 -47.292133 -10.411646
53.161243 -52.663191 -19.973401
48.132400 -56.293324 -1.035811
56.165086 -50.152162 -10.184319
55.100240 -51.053567 -59.285748
53.307415 -52.552600 -41.549198
56.524466 -49.847943 -29.242577
59.622136 -46.931952 -10.184357
52.955495 -52.818856 -2.033241
50.118243 -54.955255 -1.298010
48.933313 -55.753666 -40.479426
51.481757 -53.933858 -16.185237
54.858003 -51.258624 -60.337386
56.119237 -50.190973 -23.163675
50.072241 -54.986251 -54.442203
56.803970 -49.595814 -55.380952
55.919092 -50.360399 -58.503116
53.904253 -52.065985 -25.631542
49.330550 -55.486006 -44.664797
56.859544 -49.543282 -9.483340
47.715435 -56.574277 -38.257142
51.913426 -53.607265 -15.653591
57.382218 -49.049227 -2.933875
58.363471 -48.121701 -18.954006
53.737051 -52.207523 -5.979755
48.901826 -55.774882 -26.977405
49.978449 -55.049449 -39.884107
56.182806 -50.137162 -41.923308
58.870701 -47.642243 -10.596434
51.809135 -53.686170 -13.375729
49.663465 -55.261686 -19.007100
51.413683 -53.985362 -50.412533
52.778516 -52.952755 2.634495
53.236194 -52.606484 -15.747913
48.778362 -55.858072 -11.438478
48.058934 -56.342826 -22.229545
53.732488 -52.211385 -12.311008
49.280071 -55.520019 -57.535882
50.941264 -54.342785 -48.687617
47.187260 -56.930163 -38.749786
52.370398 -53.261530 -30.677635
59.193100 -47.337497 -14.948032
54.002291 -51.982994 -50.306293
52.410808 -53.230956 -5.756035
48.833375 -55.821004 -22.682250
56.284617 -50.050977 -3.752514
51.431538 -53.971853 -24.274162
49.911301 -55.094694 -21.554476
47.577714 -56.667074 -11.580287
46.839402 -57.164551 2.809678
55.535618 -50.685015 -8.478272
53.098378 -52.710754 -55.575498
59.076751 -47.447475 -8.535352
55.739675 -50.512278 -38.654747
47.973353 -56.400491 -26.724695
49.290486 -55.513001 -34.556988
56.898662 -49.506306 2.688041
52.920528 -52.845312 -47.204697
58.135673 -48.337026 -23.464572
57.273467 -49.152023 1.231280
58.524386 -47.969596 -7.145302
54.675961 -51.412724 -4.751144
52.066697 -53.491304 -7.348362
57.345376 -49.084052 -8.737623
47.073228 -57.006999 -33.381849
51.716563 -53.756208 -60.228335
58.652605 -47.848398 -43.912736
59.366753 -47.173352 -35.994519
50.068815 -54.988560 -19.875328
49.962668 -55.060082 -47.301270
48.977396 -55.723963 -35.102512
54.672558 -51.415605 -27.932704
54.608689 -51.469671 -53.259508
48.820444 -55.829717 -38.719119
50.917497 -54.360766 -52.001516
52.360555 -53.268976 -7.258530
46.909351 -57.117419 -37.326386
57.229052 -49.194006 -43.920011
58.954188 -47.563328 -39.537451
55.868213 -50.403469 -4.897581
59.617438 -46.936393 -41.063226
47.414359 -56.777143 1.666367
53.255239 -52.592075 -29.479886
51.888569 -53.626072 -43.039282
55.907588 -50.370137 -44.969396
53.666659 -52.267110 -27.217706
58.301691 -48.180098 -16.937305
53.210541 -52.625893 -48.398112
54.780020 -51.324637 -48.203093
57.396812 -49.035432 -18.155045
48.739499 -55.884258 -49.131062
47.219303 -56.908573 -57.852177
55.081742 -51.069226 -43.069802
48.165693 -56.270891 -31.060933
46.983939 -57.067162 -20.571310
52.727493 -52.991358 -42.491031
54.409549 -51.638245 -41.892493
46.855404 -57.153769 -15.656204
52.211513 -53.381739 -45.905295
54.238922 -51.782683 -4.181713
55.440905 -50.765190 -4.984630
58.324914 -48.158147 1.068831
49.007799 -55.703477 0.433245
49.087709 -55.649633 -21.711124
53.467191 -52.431716 -36.102976
55.180276 -50.985816 -34.193705
56.541420 -49.833591 -50.288316
55.264456 -50.914557 -35.521476
53.113837 -52.699057 -29.788953
50.254890 -54.862082 -56.560051
58.454295 -48.035850 -5.136024
52.243350 -53.357652 -31.032561
56.746088 -49.650526 -22.366928
55.942709 -50.340407 -13.089190
51.921598 -53.601082 -0.600772
49.124384 -55.624921 -55.893966
48.791309 -55.849349 -34.236249
53.233243 -52.608718 -37.709034
56.184637 -50.135612 -43.459065
58.259527 -48.219953 -44.930653
47.747532 -56.552650 -58.710009
54.868091 -51.250084 -43.069963
59.612050 -46.941486 -6.996419
51.255255 -54.105225 -0.417976
55.554320 -50.669183 -15.522498
55.104836 -51.049676 -15.076129
56.944210 -49.463253 -39.358719
58.593640 -47.904135 -37.216257
51.493308 -53.925119 -30.573357
58.983446 -47.535671 -47.342261
55.150742 -51.010817 -44.092108
55.008263 -51.131426 -40.100072
54.734781 -51.362932 -15.718385
53.474375 -52.426281 -49.067927
55.037052 -51.107057 -41.241440
53.191888 -52.640006 -2.087043
47.748478 -56.552012 -19.361196
59.057446 -47.465723 -41.483335
49.524034 -55.355636 -38.374833
50.338309 -54.798969 -23.011079
54.228770 -51.791277 -21.686614
54.618927 -51.461004 -17.863575
54.804501 -51.303914 -53.550387
53.213007 -52.624028 1.484930
58.650083 -47.850782 2.523811
49.100337 -55.641124 -32.895784
53.581248 -52.339412 -59.112389
47.220238 -56.907943 -28.779600
52.816890 -52.923722 -4.058650
48.456148 -56.075181 2.152314
50.898618 -54.375050 1.199433
58.098491 -48.372172 -60.424060
58.670330 -47.831643 -1.855351
55.701748 -50.544384 -43.691514
51.685298 -53.779863 -59.449776
54.936653 -51.192045 -8.055311
53.052454 -52.745499 -21.418725
55.689963 -50.554360 -19.434526
50.609066 -54.594119 1.050227
51.113934 -54.212146 -23.810448
55.599322 -50.631088 -5.520090
54.841291 -51.272771 -35.851839
53.867417 -52.097166 -48.274763
56.889337 -49.515121 -32.713074
49.575728 -55.320804 -54.576655
59.567010 -46.984060 -44.522637
55.697886 -50.547653 -29.427372
49.764897 -55.193341 -50.989537
54.347839 -51.690484 -36.871462
46.889737 -57.130635 -4.438302
48.427667 -56.094372 -20.235946
59.354703 -47.184743 0.188542
53.483180 -52.419619 -1.072766
59.571847 -46.979487 -22.563106
48.581726 -55.990566 -56.317355
49.162229 -55.599421 -26.638753
52.736913 -52.984231 -49.030689
47.463213 -56.744225 -41.471398
59.572003 -46.979340 -59.278809
49.029238 -55.689031 -49.222626
53.535917 -52.377785 -5.353470
57.296985 -49.129793 0.241043
49.520522 -55.358002 -7.477704
57.284744 -49.141364 -30.347111
54.042458 -51.948993 -36.619486
51.738222 -53.739822 -50.029392
50.289830 -54.835647 -23.657678
48.542544 -56.016967 -28.930275
50.462872 -54.704727 -37.351084
47.858189 -56.478088 -49.475915
59.163372 -47.365597 -52.104910
53.518833 -52.392247 -30.311743
51.490162 -53.927499 2.903960
48.628649 -55.958949 -40.706587
50.750687 -54.486972 -26.372982
51.145530 -54.188241 -32.766547
48.518519 -56.033155 -26.522254
47.084204 -56.999603 -50.855823
56.708947 -49.685634 -10.191778
58.275644 -48.204719 -26.599762
58.598815 -47.899243 -21.217708
50.489375 -54.684675 -57.935587
59.085878 -47.438849 -7.354908
58.932526 -47.583804 -59.595776
48.495691 -56.048537 -39.424279
52.222154 -53.373688 -37.131863
46.921005 -57.109567 -2.076660
53.066596 -52.734800 -36.438509
58.414364 -48.073594 -58.348503
58.734176 -47.771293 -30.280474
48.637292 -55.953126 -58.282435
55.884621 -50.389579 1.654656
49.700080 -55.237015 -39.733961
57.761622 -48.690596 -21.611391
58.021548 -48.444902 -35.012482
51.593016 -53.849682 -22.731300
55.521237 -50.697188 -52.229614
54.813330 -51.296439 -7.835207
52.618242 -53.074016 -15.525120
51.281608 -54.085287 -40.714066
56.407511 -49.946947 -22.446830
54.085377 -51.912661 -59.747265
50.799951 -54.449700 -24.546866
59.109492 -47.416527 -14.626330
55.743879 -50.508719 -9.319321
52.774373 -52.955890 -23.853572
55.652441 -50.586122 -41.849665
54.701591 -51.391029 -58.075212
57.511437 -48.927083 1.345017
57.297786 -49.129036 -20.205593
49.297851 -55.508038 -46.314536
56.076562 -50.227099 -6.927636
47.477528 -56.734579 0.748134
47.555762 -56.681865 -53.474184
47.165965 -56.944512 -4.952722
49.614556 -55.294641 -55.373390
50.586319 -54.611330 -8.745626
48.681314 -55.923464 -56.916093
57.855856 -48.601522 -10.329270
53.310209 -52.550486 -2.345377
58.354262 -48.130406 -37.579044
56.709725 -49.684899 -25.936941
58.297468 -48.184090 -11.212957
49.016949 -55.697311 -31.026687
56.001289 -50.290819 0.221604
52.025011 -53.522843 -9.915985
55.847048 -50.421385 -34.684896
55.117600 -51.038872 -52.747185
57.152686 -49.266191 -57.049515
55.647245 -50.590520 -58.358009
57.973602 -48.490223 -58.682406
56.010502 -50.283019 -24.544037
47.398193 -56.788035 -17.447945
56.352274 -49.993705 -19.316080
46.915099 -57.113547 -22.426451
57.883349 -48.575534 -20.286015
50.533924 -54.650970 -42.660604
59.406749 -47.135546 -36.772338
55.757202 -50.497441 -25.683025
53.760613 -52.187577 -30.450145
53.930240 -52.043986 1.919372
56.495320 -49.872615 -27.951209
50.425386 -54.733088 -2.503329
50.448532 -54.715577 -25.198976
52.482034 -53.177068 -17.447012
55.294899 -50.888786 -33.024774
47.838205 -56.491554 -19.673950
53.907119 -52.063558 -18.183616
54.079846 -51.917343 -3.074151
59.551028 -46.999167 -37.576552
57.810358 -48.644529 -43.756726
56.797276 -49.602141 -35.064197
55.035282 -51.108555 -15.669989
48.293322 -56.184894 -21.296434
52.883302 -52.873476 -42.250237
51.859034 -53.648418 -39.679636
50.228043 -54.881272 -29.022487
58.268098 -48.211852 -24.676790
59.253304 -47.280590 -48.179281
54.682763 -51.406966 -48.482800
51.663528 -53.796333 -59.959143
49.214560 -55.564160 -12.958082
58.784769 -47.723470 -22.016981
51.087076 -54.232466 -39.808296
51.663180 -53.796597 -15.601444
46.883069 -57.135128 -21.841866
57.870914 -48.587288 -28.075961
50.861745 -54.402947 -34.820181
52.968875 -52.808733 -12.396632
55.427975 -50.776135 -54.453234
58.591339 -47.906309 -10.314144
58.506892 -47.986133 -33.139696
56.776329 -49.621941 -8.609064
53.968233 -52.011824 -43.359117
59.564630 -46.986309 -48.842601
58.316218 -48.166367 -21.938503
56.205294 -50.118125 -34.080677
52.483535 -53.175932 -31.765557
58.826746 -47.683792 -0.924897
55.373153 -50.822543 -13.425401
47.378890 -56.801042 -29.370585
49.853140 -55.133882 -9.358670
57.702533 -48.746450 -18.437853
56.782180 -49.616411 -43.041314
59.615441 -46.938281 -20.464810
47.824161 -56.501017 -26.136895
49.695913 -55.239823 -53.085132
52.847696 -52.900415 -50.697108
50.378416 -54.768625 -4.405085
58.529455 -47.964805 -41.922997
55.942447 -50.340629 -7.399346
57.963345 -48.499919 -58.089195
50.386300 -54.762660 -35.481009
51.543332 -53.887271 -19.824312
53.083158 -52.722269 -33.048760
54.656274 -51.429389 -32.668063
48.503720 -56.043127 -42.113560
49.137961 -55.615773 -53.646493
58.517539 -47.976069 -17.753422
52.904130 -52.857718 -45.142141
57.185074 -49.235577 -26.857478
59.370066 -47.170221 -21.951751
59.158361 -47.370334 -45.736167
49.083165 -55.652695 -38.873432
56.285131 -50.050542 -49.932839
50.636964 -54.573012 -32.415030
57.651905 -48.794306 -41.820235
47.504915 -56.716126 -55.413510
56.910389 -49.495222 -25.895456
52.386592 -53.249278 -60.533731
47.466631 -56.741922 -19.159473
59.605064 -46.948090 -48.195699
50.512274 -54.667351 -16.948359
50.669227 -54.548602 -27.328367
58.741707 -47.764175 -61.058382
52.888330 -52.869672 -59.184006
51.197077 -54.149241 -7.141885
55.394727 -50.804280 -27.023248
54.354290 -51.685022 -29.050057
47.604413 -56.649084 -27.525954
57.509231 -48.929168 -53.084294
48.373176 -56.131089 -18.572963
58.961229 -47.556672 -21.851097
51.512323 -53.910733 -24.038375
54.167081 -51.843497 -17.388858
58.761894 -47.745093 -22.752602
56.180037 -50.139506 -48.431007
58.011800 -48.454117 -60.866566
48.359211 -56.140498 -12.127263
55.404983 -50.795599 -56.857897
49.835238 -55.145945 -45.938593
55.925325 -50.355123 -55.177079
57.190640 -49.230315 -4.144732
56.545641 -49.830018 -41.955444
51.388195 -54.004645 -6.858969
53.487922 -52.416032 -15.866329
58.711722 -47.792518 -34.990261
55.181501 -50.984778 -17.027272
52.837063 -52.908459 -43.089964
50.222269 -54.885162 -32.790489
54.856925 -51.259536 -54.539623
58.176969 -48.297991 -9.798469
48.058343 -56.343224 -15.874996
55.850525 -50.418442 -21.527761
49.580195 -55.317794 -2.176006
48.044964 -56.352239 -41.292983
48.540548 -56.018312 -47.280306
58.480718 -48.010874 -32.667565
50.768959 -54.473147 -42.896953
50.450390 -54.714171 -56.873428
47.519598 -56.706232 -50.214334
53.307855 -52.552268 -52.832736
53.958716 -52.019881 -6.432782
51.551445 -53.881133 -55.371292
55.250732 -50.926173 -6.666825
58.849057 -47.662702 -18.972590
54.064812 -51.930069 -20.134032
58.852986 -47.658989 -40.564163
53.083329 -52.722139 -4.113762
57.103597 -49.312592 -60.199462
54.703789 -51.389167 -39.736879
55.301685 -50.883041 -8.575326
47.565279 -56.675452 -2.882222
49.175142 -55.590720 -23.128502
48.179362 -56.261681 -28.316188
56.263669 -50.068710 -40.017545
55.773156 -50.483935 -8.031854
58.564131 -47.932028 -47.903787
57.949930 -48.512599 0.203512
47.594286 -56.655907 -29.208694
51.770293 -53.715557 -26.965003
52.162180 -53.419063 -40.999278
50.866640 -54.399244 -46.709041
57.620286 -48.824194 -23.129710
59.282032 -47.253434 -54.803975
48.080467 -56.328317 -1.622640
58.067694 -48.401284 -13.496143
59.618392 -46.935491 -47.523255
49.398328 -55.440337 -58.841872
50.336125 -54.800621 -57.681089
51.665255 -53.795027 -12.474200
59.213084 -47.318607 -59.816076
53.763984 -52.184724 -11.573988
50.190796 -54.906368 -4.690297
50.342182 -54.796038 -35.882433
59.162014 -47.366881 -13.478790
56.265620 -50.067059 -36.710076
47.242230 -56.893124 -52.594482
50.808526 -54.443211 -59.305999
54.221712 -51.797252 -11.498980
47.936037 -56.425634 -43.092878
49.024636 -55.692132 2.358493
48.731002 -55.889984 -14.189592
53.698037 -52.240549 -17.019827
53.705415 -52.234303 -30.799608
56.962855 -49.445628 -17.704093
54.310483 -51.722106 -27.298185
59.155213 -47.373310 -57.717274
56.816462 -49.584006 -57.327303
54.874598 -51.244576 -4.166511
53.801028 -52.153366 -60.200386
55.176141 -50.989316 -9.471876
48.260746 -56.206844 -20.806847
54.180399 -51.832224 -3.858201
50.801208 -54.448749 -15.698679
50.913195 -54.364021 -41.480928
58.227249 -48.250464 -3.534986
56.669308 -49.723103 -34.058638
49.267515 -55.528479 -39.951181
53.447135 -52.446891 -48.406608
54.632395 -51.449604 -35.311516
58.341942 -48.142051 -60.315457
53.116970 -52.696687 -56.052815
47.408346 -56.781195 -13.917903
58.407757 -48.079840 -18.686680
48.472701 -56.064028 -31.948546
58.955742 -47.561858 -50.256814
53.366425 -52.507954 -22.338070
55.005027 -51.134166 -45.517138
51.912827 -53.607719 -3.595014
58.390096 -48.096534 -6.385964
54.758312 -51.343013 -5.801867
56.262553 -50.069655 -42.335564
57.083203 -49.331870 -14.551774
50.320320 -54.812579 -54.463876
53.192802 -52.639314 -55.149860
56.425706 -49.931544 -23.723544
57.269276 -49.155985 -52.023145
48.247683 -56.215646 -18.266666
55.777098 -50.480598 -60.493138
51.583272 -53.857054 1.199634
57.618983 -48.825426 -26.915457
47.445934 -56.755868 -60.996498
58.252313 -48.226773 -36.992014
56.721450 -49.673816 -39.892782
57.147295 -49.271287 -42.946737
55.659025 -50.580549 -1.910461
46.889444 -57.130833 -55.211781
53.798995 -52.155087 -0.833757
51.644989 -53.810360 -11.033190
56.531772 -49.841758 -24.020567
54.078444 -51.918529 -42.969877
56.488264 -49.878588 -36.226714
57.076951 -49.337779 -14.859792
58.259363 -48.220109 -16.458570
51.120384 -54.207266 -23.476336
57.706039 -48.743136 -3.991347
50.449419 -54.714905 -18.102960
57.203813 -49.217864 -50.733679
54.635961 -51.446585 -45.155531
57.991711 -48.473106 -46.257243
56.279108 -50.055641 -16.034559
49.495251 -55.375030 -12.892100
53.792595 -52.160505 -4.921106
54.494611 -51.566239 -40.255463
52.400989 -53.238385 -26.202849
51.139263 -54.192982 -48.125554
51.944092 -53.584064 -53.115812
58.509006 -47.984134 -51.643702
58.259757 -48.219736 -21.609951
52.028340 -53.520324 -27.164375
50.119315 -54.954532 -47.690708
55.101072 -51.052863 -14.729286
51.533764 -53.894511 -38.373535
56.331644 -50.011169 -28.795260
52.008000 -53.535713 -29.012514
55.616954 -50.616163 -59.818455
49.830376 -55.149221 -22.155355
50.332662 -54.803242 -0.459174
48.030499 -56.361985 -19.210640
46.995459 -57.059400 -45.908657
57.487456 -48.949751 -58.141411
52.939071 -52.831283 -51.577723
54.749153 -51.350767 -19.785667
54.891720 -51.230082 -14.167222
52.938352 -52.831826 -39.351415
47.075613 -57.005392 0.649783
57.576471 -48.865610 -30.803663
50.088509 -54.975290 -43.696229
54.709510 -51.384325 -17.277739
49.326188 -55.488945 -6.902476
57.304716 -49.122485 -59.698737
50.855822 -54.407429 -3.176755
56.369731 -49.978927 -47.550001
56.275960 -50.058306 -31.127620
48.021115 -56.368308 -32.011991
54.083200 -51.914504 -10.838072
53.720338 -52.221671 -6.270901
57.756043 -48.695870 -17.768319
56.571661 -49.807992 -47.769367
56.709391 -49.685215 -25.368100
56.006491 -50.286415 -31.180804
55.707104 -50.539849 0.189081
56.590162 -49.792330 -45.378486
50.193944 -54.904247 -31.369894
57.309652 -49.117819 -10.911182
47.942152 -56.421514 -13.252085
54.017448 -51.970164 -11.332841
57.585200 -48.857359 -40.293510
58.810669 -47.698989 0.491936
55.025993 -51.116418 -38.991142
55.759384 -50.495594 -30.223692
54.779825 -51.324802 -40.064031
54.139295 -51.867019 -33.837196
53.884062 -52.083076 -27.655237
53.597831 -52.325374 2.546108
53.915949 -52.056084 -39.920889
52.877502 -52.877864 3.260555
49.379716 -55.452877 -56.012755
50.344489 -54.794294 -44.575860
52.398797 -53.240043 0.178388
50.752211 -54.485819 -52.990009
56.908914 -49.496616 -48.085469
53.039929 -52.754975 -24.424936
49.180199 -55.587313 -57.244477
54.679342 -51.409862 -29.227125
57.751568 -48.700100 -19.840838
54.215398 -51.802597 -31.960137
49.905051 -55.098905 -33.897476
58.044328 -48.423370 -30.410431
55.180455 -50.985664 -45.275268
54.445939 -51.607441 -44.110791
52.125639 -53.446710 -13.108120
48.276873 -56.195978 -60.895612
52.122600 -53.449009 -3.942507
54.315509 -51.717851 -57.125227
50.857019 -54.406523 3.675230
54.193382 -51.821233 -46.746825
54.233046 -51.787657 -37.582664
59.009286 -47.511246 -56.731751
52.858017 -52.892606 -34.291171
58.399174 -48.087953 -49.594203
56.845368 -49.556683 -33.507085
54.942991 -51.186680 -51.455256
50.443273 -54.719555 -16.706936
50.994811 -54.302272 -54.224836
56.787500 -49.611382 -22.933556
54.362429 -51.678133 -42.323775
53.584146 -52.336959 -10.819746
53.755143 -52.192208 -46.261560
51.619727 -53.829473 -47.497443
56.584074 -49.797484 -36.499968
59.145443 -47.382544 3.838756
50.017097 -55.023408 -17.997872
48.786456 -55.852618 -23.720960
56.906750 -49.498661 -11.551693
53.606536 -52.318006 -26.840676
57.180485 -49.239914 -27.285799
52.020249 -53.526445 -18.098847
50.700078 -54.525261 -19.278700
53.374634 -52.501744 -50.388023
54.082612 -51.915002 -56.504661
48.314602 -56.170556 1.432930
49.115531 -55.630886 -50.207215
48.207815 -56.242509 -47.030828
49.581934 -55.316622 -36.094386
48.624176 -55.961963 -48.798472
51.066370 -54.248132 -59.442859
49.965406 -55.058237 3.475357
56.679569 -49.713403 -33.060489
59.417000 -47.125856 -58.927735
54.981882 -51.153759 -41.863461
59.288207 -47.247597 -46.056037
53.938104 -52.037329 -50.053207
49.766275 -55.192413 -33.713464
58.843029 -47.668400 -47.126071
58.417631 -48.070507 3.314605
53.579791 -52.340645 0.118097
53.076653 -52.727190 -1.217315
48.800533 -55.843133 -15.220378
53.102887 -52.707343 -44.630888
59.284224 -47.251362 -18.399902
55.188732 -50.978657 -59.639745
51.289536 -54.079289 -8.493829
52.237360 -53.362184 -18.699576
56.157015 -50.158994 -43.044830
46.902584 -57.121979 -2.908125
48.562700 -56.003386 -56.704022
52.810388 -52.928641 -39.070873
50.886723 -54.384050 -51.438020
59.241468 -47.291778 1.326165
56.064259 -50.237513 -57.012135
54.201075 -51.814721 -14.733292
57.324970 -49.103341 -48.719509
51.636325 -53.816915 0.238772
56.744178 -49.652332 -41.065813
57.307452 -49.119899 -25.533559
50.903843 -54.371097 -33.410372
51.008168 -54.292167 -44.308299
48.343832 -56.150861 -38.466890
54.448974 -51.604872 -27.491883
55.949070 -50.335022 -32.478990
52.407630 -53.233361 -36.931056
51.571641 -53.865854 -21.490052
58.946803 -47.570309 -31.681174
58.921891 -47.593856 -24.992817
57.042905 -49.369962 -41.865876
52.096599 -53.468680 -46.330296
46.940914 -57.096152 -53.955318
56.206221 -50.117340 -44.176455
47.152500 -56.953585 -21.135134
53.130852 -52.686185 -13.726434
47.259266 -56.881645 -43.513921
47.854725 -56.480422 -45.459408
55.147686 -51.013404 -36.962315
48.794591 -55.847137 -46.946875
52.744581 -52.978430 -25.211182
54.091739 -51.907275 -10.511162
48.444094 -56.083303 -10.714755
55.951784 -50.332724 -39.759990
48.842957 -55.814548 -22.431778
50.603503 -54.598328 -21.530240
52.273650 -53.334727 -17.452504
57.256389 -49.168166 -21.130727
57.419510 -49.013977 -9.722026
58.904897 -47.609920 -17.666027
50.910127 -54.366342 -57.433794
58.732559 -47.772821 -31.765411
59.344425 -47.194457 -23.571779
58.940707 -47.576070 -51.770690
50.288598 -54.836579 -20.268003
57.405059 -49.027637 -2.455118
51.123359 -54.205015 -59.162525
48.480393 -56.058845 -46.482449
51.644454 -53.810765 -35.572849
58.385144 -48.101215 -24.032597
55.960101 -50.325685 -29.355865
51.241075 -54.115954 -36.584814
56.162667 -50.154210 -21.497556
54.058956 -51.935026 3.697912
58.788079 -47.720342 -44.958601
48.365620 -56.136180 -41.771906
53.073842 -52.729317 -60.733748
53.991404 -51.992210 -23.502421
51.610536 -53.836427 -57.231464
53.418643 -52.468447 -10.575562
56.541709 -49.833346 -29.522753
47.298707 -56.855070 -25.493339
49.067861 -55.663006 1.276204
53.471498 -52.428459 -28.864756
53.833549 -52.125836 -22.345077
59.587458 -46.964731 -25.609578
57.396146 -49.036061 -30.020032
54.015150 -51.972109 -8.229326
55.099701 -51.054023 -12.879668
51.619360 -53.829750 -35.871785
49.012071 -55.700598 -29.854717
56.154520 -50.161106 -52.219518
58.257342 -48.222019 -19.788487
58.991515 -47.528045 -57.178443
52.063111 -53.494017 -6.894732
56.445951 -49.914407 -60.348134
54.087884 -51.910538 -35.052256
56.221238 -50.104628 -57.292812
59.370860 -47.169470 -8.640871
55.695025 -50.550075 -49.159586
54.667485 -51.419899 -30.965067
53.349672 -52.520630 -38.711029
53.712554 -52.228260 -27.841671
51.502624 -53.918071 -36.613332
55.011867 -51.128376 -49.732924
53.653875 -52.277932 -51.324484
48.765235 -55.866918 -15.889192
50.930543 -54.350896 -7.186146
57.721340 -48.728673 -48.840646
55.915293 -50.363615 -53.207690
47.933157 -56.427575 -8.536150
49.029625 -55.688770 -24.266722
55.997154 -50.294318 -25.570113
58.425197 -48.063355 -50.586552
56.742167 -49.654233 -56.503519
48.830381 -55.823022 -59.899282
58.891279 -47.622793 -22.979199
53.316460 -52.545757 -52.284470
54.755243 -51.345611 3.401301
53.811221 -52.144737 -8.089906
55.141819 -51.018370 -18.220421
53.434087 -52.456763 -9.988272
58.655299 -47.845851 -57.946073
53.520013 -52.391248 -53.174746
50.806992 -54.444372 -6.993678
58.602137 -47.896102 -30.016485
52.628988 -53.065885 -1.486046
59.089687 -47.435247 -41.202456
48.281769 -56.192678 -15.765176
47.743947 -56.555065 -11.991109
55.616420 -50.616615 -29.735443
54.420642 -51.628855 -20.747428
58.809953 -47.699665 -17.346725
58.336926 -48.146792 -34.154618
49.191987 -55.579370 -59.065173
55.076394 -51.073753 0.701647
56.163258 -50.153710 -17.171921
50.572838 -54.621528 -40.947659
51.520243 -53.904741 -28.979614
49.107764 -55.636120 -54.256017
47.160622 -56.948112 -16.201412
49.307570 -55.501490 -9.743169
52.111556 -53.457364 -5.731514
51.639453 -53.814548 -52.462614
53.530725 -52.382181 -6.423884
49.935027 -55.078706 -48.892458
52.150733 -53.427723 -29.803572
54.213213 -51.804446 -43.914287
56.660080 -49.731826 -0.633629
58.089283 -48.380877 -20.651620
50.606375 -54.596156 -54.669384
59.162480 -47.366440 1.785080
47.506637 -56.714966 -27.811965
50.836736 -54.421869 -33.153950
52.697593 -53.013980 -51.877443
53.587415 -52.334191 -36.999028
53.119570 -52.694720 -40.640140
59.542327 -47.007391 -46.921230
56.757131 -49.640089 0.650921
56.674997 -49.717725 -35.805661
54.109336 -51.892379 -12.066747
57.228978 -49.194076 -1.031708
52.221474 -53.374202 -15.892149
47.491924 -56.724879 -45.836455
54.286539 -51.742375 -42.911499
54.908740 -51.215674 -33.946272
49.981446 -55.047429 -49.432846
49.278694 -55.520947 0.972086
54.094424 -51.905003 -26.605705
58.945363 -47.571670 -58.813923
47.205557 -56.917835 -36.596131
53.847705 -52.113853 -33.321209
48.566885 -56.000566 -54.314034
49.117459 -55.629587 -17.150532
47.136787 -56.964172 -1.958374
58.280534 -48.200097 -19.297518
52.079672 -53.481487 -55.112226
47.814090 -56.507802 -2.694370
53.359397 -52.513272 -0.656520
53.909360 -52.061661 -12.115583
58.270890 -48.209213 -31.419206
54.507893 -51.554996 -53.755309
50.454303 -54.711210 -45.768921
52.689770 -53.019898 -50.218027
47.083629 -56.999990 -53.643849
49.811462 -55.161965 -15.231305
56.415050 -49.940565 -39.441831
57.063596 -49.350403 -21.049198
56.455723 -49.906134 -48.056293
53.107163 -52.704107 -31.685212
52.288982 -53.323127 -8.726579
51.521396 -53.903868 -35.304312
50.728994 -54.503384 -26.784771
49.635938 -55.280234 -11.559100
57.185446 -49.235225 -19.633115
56.117122 -50.192764 -43.809238
48.030115 -56.362244 3.859920
59.109437 -47.416579 -8.244602
57.467311 -48.968793 -6.046868
54.983252 -51.152599 1.123095
52.781080 -52.950815 -15.971881
58.344574 -48.139563 -53.061201
47.116721 -56.977693 -7.954054
54.763144 -51.338923 -56.417719
56.043556 -50.255039 -18.201093
50.696465 -54.527995 -51.621389
49.340843 -55.479071 -25.061072
52.037992 -53.513022 -41.774341
52.351426 -53.275883 -18.424256
59.067112 -47.456587 1.151703
55.573864 -50.652639 -5.260573
53.236767 -52.606051 -18.545327
47.053089 -57.020569 -41.694510
46.952985 -57.088019 -30.553507
58.194897 -48.281045 -35.452549
54.264216 -51.761271 -45.516786
52.473142 -53.183795 -53.828557
50.732421 -54.500791 -6.725021
51.314292 -54.060559 -20.391384
50.159743 -54.927292 -48.392020
53.113136 -52.699588 -45.210946
53.140932 -52.678558 -13.446805
54.306335 -51.725617 -12.673101
47.086030 -56.998372 2.848279
56.621572 -49.765741 -2.719048
56.907822 -49.497648 -24.507355
55.180549 -50.985584 -21.650503
49.016248 -55.697784 -41.947378
55.173995 -50.991132 -42.507690
47.716845 -56.573327 -59.174120
51.932866 -53.592557 -32.706320
50.988658 -54.306927 -26.759980
55.500306 -50.714907 -15.103846
58.239660 -48.238733 -57.571500
59.605878 -46.947320 -5.934520
47.524362 -56.703023 -39.642418
48.156052 -56.277387 -26.450022
53.014596 -52.774141 -37.553784
52.897506 -52.862730 -40.809703
51.618594 -53.830330 3.611968
51.443710 -53.962644 -38.073720
47.091088 -56.994964 -50.510701
51.463663 -53.947548 -12.769816
59.034788 -47.487141 -49.276475
54.794358 -51.312500 -17.019661
53.058399 -52.741001 -20.317635
50.515011 -54.665279 -20.296262
58.851787 -47.660122 -58.317321
51.001738 -54.297032 -42.651652
56.166091 -50.151311 -8.500157
47.764198 -56.541420 -25.184764
49.014740 -55.698800 -22.215231
53.367228 -52.507347 -13.072751
55.305281 -50.879998 -32.422373
56.399764 -49.953504 -52.093930
52.500036 -53.163448 -31.057866
52.393419 -53.244112 -2.231292
51.564840 -53.870999 -20.353555
48.308615 -56.174590 -47.761822
49.050208 -55.674901 -14.023710
50.450651 -54.713973 -0.162762
56.598098 -49.785612 -50.670584
57.661881 -48.784876 -38.404945
57.181696 -49.238770 -29.308098
52.886364 -52.871159 -31.917300
49.945022 -55.071972 -57.808737
52.309237 -53.307802 1.806492
51.492074 -53.926052 -56.345055
54.860558 -51.256460 -36.420426
55.643976 -50.593288 -13.849687
49.538846 -55.345655 -16.930805
56.206316 -50.117261 -38.905179
55.028194 -51.114555 -9.710803
58.217033 -48.260121 -10.739325
55.319623 -50.867857 -44.882864
52.894728 -52.864831 -22.954338
51.139995 -54.192429 -17.274697
51.904958 -53.613672 -59.129500
54.819758 -51.290999 -29.614296
53.905945 -52.064552 -8.659899
59.249061 -47.284600 -36.546132
48.849404 -55.810204 -12.863873
56.944111 -49.463346 -28.322380
53.195063 -52.637604 -7.189444
46.858445 -57.151720 -37.021029
50.689840 -54.533007 -14.819603
57.075862 -49.338809 -20.386532
56.558114 -49.819459 -45.042259
56.350859 -49.994903 -5.095555
47.543560 -56.690087 -16.985924
49.569484 -55.325011 -18.485100
52.622564 -53.070746 -47.247483
53.909788 -52.061299 -51.843098
47.702532 -56.582971 -6.301443
56.238518 -50.090001 -14.155431
53.082936 -52.722437 -0.921278
51.414972 -53.984387 -36.044301
56.449499 -49.911403 -48.848043
56.950560 -49.457250 -34.115861
57.574662 -48.867320 -57.129049
52.003716 -53.538954 -38.898067
59.199177 -47.331753 -43.535118
58.689644 -47.813387 -41.710656
56.591455 -49.791236 -7.646429
56.824455 -49.576451 -34.437971
48.427629 -56.094398 -26.192256
56.157029 -50.158983 -45.230831
56.656177 -49.735515 -9.572432
49.940112 -55.075281 -32.142394
56.928104 -49.478477 -28.680946
55.221356 -50.951041 -5.644986
51.873769 -53.637269 -52.381102
49.348821 -55.473694 -9.385107
53.938458 -52.037030 -29.059849
50.703351 -54.522785 -49.956453
57.671872 -48.775432 -33.795063
47.411958 -56.778761 -54.945114
52.009972 -53.534220 -55.408605
56.849840 -49.552455 -31.853776
51.264188 -54.098467 -39.525321
48.013345 -56.373544 -12.160628
59.086208 -47.438536 -18.532585
52.198364 -53.391687 -50.611265
52.125551 -53.446776 -28.644829
59.346602 -47.192399 -20.005822
52.606810 -53.082665 -59.289268
58.191424 -48.284328 -12.429981
51.025724 -54.278884 -9.321330
57.385475 -49.046148 -36.782111
53.303227 -52.555769 -49.736831
48.259582 -56.207628 -39.283293
58.556154 -47.939568 -23.699277
52.179428 -53.406014 -26.242070
59.079920 -47.444480 -47.850531
57.901445 -48.558430 -53.084354
53.900259 -52.069365 1.049744
56.338972 -50.004965 3.509225
53.431807 -52.458488 -40.387767
50.984368 -54.310173 -4.940477
50.401120 -54.751447 -26.777093
59.303905 -47.232759 -41.134874
49.949133 -55.069202 -8.260531
54.774281 -51.329496 -59.670337
47.350903 -56.819900 -48.791152
57.936061 -48.525709 1.128253
48.005954 -56.378524 -41.629481
53.364514 -52.509400 -54.460575
47.576885 -56.667632 -52.632627
57.366016 -49.064541 -54.865525
58.939160 -47.577533 -3.678331
52.358428 -53.270585 -26.481435
49.005904 -55.704754 -39.578934
48.522996 -56.030139 -32.872624
49.042449 -55.680129 -40.702884
59.535535 -47.013811 -4.252523
54.146417 -51.860990 -29.581613
47.605045 -56.648658 -59.830899
48.794367 -55.847288 -22.073440
48.538897 -56.019425 -4.250722
57.403331 -49.029269 -38.495360
54.667585 -51.419815 0.571438
57.223739 -49.199029 -10.588572
48.844008 -55.813839 -25.979284
47.188020 -56.929651 -38.488007
56.229262 -50.097836 -47.311664
52.347667 -53.278727 -36.130297
50.492033 -54.682664 -15.696009
51.405069 -53.991878 -37.078957
56.796245 -49.603115 -49.808644
48.262663 -56.205552 0.012381
57.108362 -49.308089 -7.829568
49.968572 -55.056104 -30.588093
54.264172 -51.761309 -13.781760
57.397974 -49.034334 -7.790559
55.830833 -50.435111 -1.111311
47.937193 -56.424855 -44.552608
46.849578 -57.157695 -2.598116
57.401950 -49.030575 -26.885743
50.869482 -54.397094 -3.546153
58.436217 -48.052938 0.796363
53.730356 -52.213191 -58.711197
50.125813 -54.950154 -2.508235
51.783983 -53.705200 -34.487862
59.307163 -47.229680 -2.257677
53.774182 -52.176091 -40.408652
54.992891 -51.144439 -43.383403
54.955706 -51.175916 -11.518345
47.052823 -57.020747 -58.519615
55.194388 -50.973870 -23.986243
50.366854 -54.777372 -1.159780
50.009094 -55.028800 -6.685407
53.505719 -52.402567 -55.179189
51.929891 -53.594809 -35.548487
58.597561 -47.900428 -34.306841
56.397429 -49.955481 -1.918002
54.184042 -51.829140 -19.054719
49.711973 -55.229001 -43.287785
51.930024 -53.594708 -61.085900
49.191456 -55.579728 -24.725715
53.305622 -52.553956 -30.377105
48.024867 -56.365780 -39.285954
47.187603 -56.929932 -46.587564
51.052342 -54.258745 -43.675837
58.363445 -48.121725 -28.381642
53.573975 -52.345569 -12.515755
46.862145 -57.149227 -52.657389
48.496465 -56.048015 -0.901324
48.201634 -56.246674 -2.420469
59.153236 -47.375179 -1.208117
56.817174 -49.583333 -27.299130
50.020366 -55.021205 -14.871497
52.718723 -52.997993 -25.494439
50.635953 -54.573777 -35.616604
58.452927 -48.037143 -5.588385
52.943351 -52.828044 -10.950554
53.491527 -52.413304 -36.380751
51.438020 -53.966948 -59.713645
54.550613 -51.518833 -8.989010
52.397433 -53.241075 -7.686955
50.006171 -55.030769 -37.534145
48.527702 -56.026968 -47.018479
51.948607 -53.580649 -49.202173
52.966817 -52.810290 -46.814380
54.267416 -51.758563 -30.441021
52.596150 -53.090729 -1.206488
57.578348 -48.863836 -19.079466
50.667529 -54.549888 -32.695052
51.669148 -53.792082 -6.014336
48.866802 -55.798481 -25.254927
57.144054 -49.274350 -23.168976
46.898997 -57.124396 -3.805193
49.208643 -55.568147 -3.397269
59.150183 -47.378064 -36.947677
50.562057 -54.629686 -49.176610
51.107122 -54.217299 -13.992259
53.717661 -52.223937 -28.806204
56.834431 -49.567021 3.015664
51.958615 -53.573077 -17.625862
57.043094 -49.369783 -59.737511
51.744890 -53.734777 -53.535779
54.494031 -51.566730 -48.942479
58.245550 -48.233166 -5.625624
58.264474 -48.215277 -42.878412
54.396938 -51.648920 -39.086324
47.945278 -56.419407 -42.123286
49.178499 -55.588459 -60.347412
53.387886 -52.491717 -55.685792
47.982963 -56.394015 -10.838571
54.251964 -51.771643 0.656620
56.249285 -50.080886 -18.510280
48.559089 -56.005820 -23.245391
56.928984 -49.477645 -39.788448
55.388034 -50.809946 -4.611473
47.449594 -56.753402 -14.261463
56.602719 -49.781701 -56.143287
47.030173 -57.036009 -14.088682
56.286145 -50.049684 -54.053194
49.986290 -55.044166 -5.340224
47.215409 -56.911196 -26.439024
48.800573 -55.843106 -54.173236
48.594589 -55.981899 -25.342820
59.489681 -47.057155 -32.561681
56.527785 -49.845133 -53.981210
52.617179 -53.074820 -17.193034
52.895750 -52.864058 -49.715172
51.991890 -53.547901 -51.822499
55.939558 -50.343074 -43.562161
50.981728 -54.312170 -58.418069
54.702920 -51.389903 -17.592394
48.120588 -56.301283 -0.626377
50.814768 -54.438489 -12.720514
53.819482 -52.137744 -21.335877
55.810805 -50.452065 -5.410876
47.823221 -56.501650 -9.870597
50.279434 -54.843512 -22.446270
58.491487 -48.000695 -57.742468
56.608261 -49.777009 -43.530042
59.034074 -47.487815 1.526189
53.288012 -52.567280 -58.570490
56.328591 -50.013753 -0.585697
52.938896 -52.831414 -7.329458
49.793909 -55.173792 -32.955216
47.105022 -56.985575 -26.006204
54.238220 -51.783278 -44.202426
53.415333 -52.470951 -8.437638
52.114513 -53.455127 -0.501631
50.648822 -54.564041 -46.419592
58.133474 -48.339105 -3.780536
54.822357 -51.288798 -31.244363
58.265687 -48.214130 -29.436701
54.994927 -51.142716 -46.031711
47.732773 -56.562594 -10.828318
58.008807 -48.456946 3.010161
52.545886 -53.128759 -33.661958
51.060539 -54.252543 -34.408653
51.801398 -53.692024 -21.345374
47.521065 -56.705244 -9.808930
48.696803 -55.913027 2.133950
49.332024 -55.485012 -54.356368
51.356008 -54.028998 1.185397
49.862694 -55.127445 -22.925943
49.371769 -55.458232 -22.307846
58.116115 -48.355514 -11.284358
49.508833 -55.365878 -16.659312
47.410433 -56.779788 -30.081337
55.364335 -50.830008 -31.522873
54.636763 -51.445906 -29.808438
48.249063 -56.214716 -19.115092
48.906351 -55.771833 -8.927899
54.116494 -51.886320 -24.264562
58.646908 -47.853783 -2.161400
50.655141 -54.559260 -17.808230
59.137187 -47.390348 -8.982571
47.465805 -56.742479 -35.113337
51.844227 -53.659620 -41.313122
52.341974 -53.283034 -0.382560
49.876208 -55.118339 -41.500209
58.969886 -47.548489 -24.571391
58.303844 -48.178063 -38.220563
49.368189 -55.460644 -13.380808
51.608960 -53.837619 -17.863294
53.294620 -52.562281 -14.533555
49.538961 -55.345578 -11.858496
50.552530 -54.636893 -40.528363
58.506056 -47.986923 -44.579268
49.731323 -55.215963 -28.251332
49.721064 -55.222876 -27.674536
48.829649 -55.823515 -50.589698
57.328144 -49.100340 -39.908203
55.112061 -51.043560 -55.875486
54.217555 -51.800770 -36.458178
49.366193 -55.461989 -46.735818
57.409204 -49.023719 -26.566074
51.401448 -53.994619 -20.097829
49.686819 -55.245951 -7.681911
50.489751 -54.684391 -27.477413
50.553164 -54.636414 -16.118903
59.259811 -47.274439 -37.302327
50.659945 -54.555626 -37.637395
59.040750 -47.481506 -44.973644
52.542925 -53.130999 -60.745209
50.478872 -54.692622 -0.650276
51.524061 -53.901851 -49.935166
47.729595 -56.564735 -5.837828
58.712075 -47.792184 -2.770515
57.119857 -49.297223 -25.851027
52.925099 -52.841853 -28.173762
55.436602 -50.768833 -1.999870
58.183651 -48.291675 -2.393667
50.887735 -54.383283 -17.708287
46.844148 -57.161354 -29.053277
52.804834 -52.932843 -12.674839
58.175432 -48.299444 -17.159482
54.929955 -51.197716 -17.710524
56.005462 -50.287286 -45.635684
56.527408 -49.845452 -30.379056
48.028179 -56.363549 -47.777932
55.398525 -50.801065 -32.107382
55.167078 -50.996987 -60.646936
59.572188 -46.979165 -17.277572
55.757488 -50.497198 -33.513236
55.398897 -50.800750 -45.813101
57.413192 -49.019949 -9.284825
56.253230 -50.077547 -35.009554
49.119783 -55.628021 -16.410894
56.078251 -50.225669 2.031749
51.103169 -54.220291 -6.851993
49.638984 -55.278182 -10.456535
48.195532 -56.250785 -26.115335
55.568228 -50.657410 -19.048482
50.273770 -54.847798 -45.017834
50.497634 -54.678426 -5.060268
52.216851 -53.377700 -14.510527
56.044590 -50.254163 -16.141732
59.296826 -47.239451 -28.509764
57.131608 -49.286115 -52.820165
57.573706 -48.868224 -57.904988
51.963035 -53.569732 -50.816650
48.598207 -55.979461 -44.930183
50.619932 -54.585899 -30.260625
56.947319 -49.460314 -35.219016
52.747216 -52.976436 -56.498199
54.531266 -51.535210 -36.103730
48.782080 -55.855567 -21.395487
49.026515 -55.690866 -0.433875
50.720996 -54.509435 -9.385900
49.343467 -55.477302 -52.810065
50.012551 -55.026471 -23.270201
57.345633 -49.083808 -0.763892
54.726531 -51.369916 -42.850531
53.039111 -52.755594 -39.050198
47.626646 -56.634103 -35.540551
50.705405 -54.521231 -53.501222
55.134622 -51.024462 -38.180735
50.261598 -54.857007 -52.201497
57.777119 -48.675948 -59.049248
57.179088 -49.241234 -36.332008
53.544354 -52.370643 -44.443891
52.053733 -53.501112 -54.731771
49.429709 -55.419192 -20.057445
49.037632 -55.683375 -18.696305
55.207960 -50.962381 -58.212285
54.467355 -51.589312 -45.586128
54.110508 -51.891387 -59.176794
57.730889 -48.719647 -37.597578
58.428889 -48.059865 -33.528944
59.569637 -46.981577 -51.149978
58.280627 -48.200009 -21.235886
56.956927 -49.451231 -18.536722
51.675030 -53.787632 -2.982646
50.372884 -54.772810 -43.166251
54.834513 -51.278508 -49.571396
53.902069 -52.067833 -39.118648
49.055966 -55.671021 -38.558114
54.423950 -51.626055 -40.646640
49.916445 -55.091227 -46.672272
50.001915 -55.033637 -52.695035
59.625461 -46.928809 0.846961
51.234361 -54.121033 -44.096262
52.120048 -53.450939 -5.010870
59.274150 -47.260885 -35.033919
52.335106 -53.288230 -20.011485
52.077336 -53.483254 -34.987004
55.040494 -51.104143 -12.032200
50.113302 -54.958584 -29.376578
49.843956 -55.140070 -10.531763
58.360016 -48.124967 -2.705249
56.004610 -50.288007 -5.277628
47.528414 -56.700293 -31.226556
48.204283 -56.244889 1.999515
53.722478 -52.219859 -11.867907
58.839834 -47.671420 -38.212397
51.835306 -53.666370 -45.505230
58.607334 -47.891190 -16.190691
58.698284 -47.805220 -4.070520
56.701733 -49.692453 -4.754788
50.920906 -54.358187 -40.047861
58.613484 -47.885377 -48.603332
56.929624 -49.477040 -18.209647
47.352857 -56.818584 -11.526156
49.770017 -55.189891 -30.356694
52.573478 -53.107883 -30.415134
48.248624 -56.215012 -14.214407
58.366264 -48.119061 -4.516921
47.637312 -56.626917 -18.251575
52.969995 -52.807886 -49.317123
48.786872 -55.852338 -50.949202
55.659193 -50.580407 -53.125271
57.677316 -48.770286 -59.401524
