-8.169309 8.131875 -34.819832
-8.045163 3.308310 -36.284781
-5.221788 -3.019782 -30.976634
-5.814600 -2.185093 -35.216745
-7.187352 0.410098 -55.775441
-5.619279 14.669977 -0.675009
-6.293349 -1.414355 -33.494306
-2.450182 17.993523 -45.258327
21.678024 6.027965 -32.229790
14.571967 18.850780 -48.005190
10.881016 20.500001 -34.342598
6.837840 21.091199 -35.435806
16.024914 -5.632723 -22.846168
-7.608424 10.623974 -32.432043
-8.168762 4.059197 -14.301830
5.487324 -8.847991 -39.593435
-4.728010 -3.625625 -44.790514
-5.981260 -1.922044 -12.693836
-4.171474 -4.241442 -20.104007
0.343239 -7.486478 -9.741360
16.415883 -5.309760 -53.689774
2.205155 20.406990 -46.803707
7.593401 -8.866395 -40.177914
1.518100 -7.980671 -54.660372
8.111946 -8.832530 6.072909
3.968770 -8.646099 -7.362930
16.456864 17.472759 -32.065841
21.312934 9.413494 -16.770769
-1.822853 18.448553 -36.747674
15.029958 -6.362924 -24.777496
-8.293317 5.411224 -50.193085
10.581366 -8.380066 -4.092793
-8.250593 4.723631 -42.274544
2.754331 -8.370717 -35.406240
-2.863100 17.657360 -48.112620
-7.832763 2.357106 -33.466499
8.780783 20.945593 -25.509825
20.586590 11.715661 2.692755
-5.923821 -2.012704 -8.312147
16.047918 17.811584 -5.886311
21.618788 4.690853 -22.433764
-6.684373 12.897694 3.473874
-4.748685 -3.600596 -33.328302
11.245856 -8.183662 -26.339576
-5.392663 14.981388 -18.035143
5.474357 21.044966 -13.603481
-8.173285 8.100592 -2.508231
3.680437 20.788555 -15.391378
20.052970 -0.705278 -1.806450
20.457111 12.043416 -11.470047
19.205677 14.350737 -14.183209
-4.092033 16.523052 -42.707635
-2.178266 18.190756 -34.554617
-4.196805 16.411654 -30.043145
16.921244 -4.856084 -38.015075
-7.041578 0.058694 -20.867751
-7.684968 1.810150 -12.961036
18.547879 15.279038 -43.784377
-1.968430 -6.145958 -19.772009
-5.226979 15.209066 -4.266266
-7.893059 2.592699 -42.065160
-5.544039 14.773370 -22.201751
-6.450222 -1.128488 -4.826946
5.335999 21.036364 -54.978410
6.497021 21.091464 -1.598846
-2.481038 17.971142 5.222111
11.852974 -7.980003 5.961225
21.618125 4.680437 -27.986768
-2.092909 -6.055368 -14.131388
21.678221 6.281492 1.507202
19.508873 -1.675611 6.352726
10.072136 20.708348 -57.753523
20.365252 12.239343 -55.555178
-4.684870 15.874582 -60.642950
15.613402 18.143917 5.194451
10.176120 -8.483783 -54.878117
4.640104 20.952185 -29.522616
14.198917 19.076702 -8.064192
-0.679631 19.158699 -10.601792
4.727977 20.963222 -59.899520
21.472074 3.600268 3.800117
18.552282 15.272969 -23.521285
-2.891654 17.633772 -58.047049
18.203986 -3.498376 -58.602029
3.128327 20.664144 -51.051195
21.678061 6.076242 6.234459
1.489590 -7.969357 -58.378412
-1.879695 -6.210536 -52.563023
-1.492808 18.665604 -32.084759
-7.426681 1.015921 -51.483680
-8.306828 6.493916 3.089864
16.768290 -4.999498 4.922326
10.934842 -8.284460 -22.741920
5.936499 -8.876590 -50.035119
10.531879 -8.392732 -37.156986
12.385138 -7.769754 -55.793349
-6.834823 -0.381563 -2.654776
-1.448804 -6.495896 -33.877366
19.643574 13.649494 -25.914815
14.455978 18.924506 -52.020500
15.456573 -6.060572 6.607662
18.549838 -3.077753 -39.226826
17.042570 -4.742326 -25.182138
3.983199 -8.648862 -28.194060
21.169159 9.975260 -21.205460
12.526995 -7.713709 2.367313
21.506512 8.402512 -3.047883
21.597194 4.513423 -19.709144
-2.052529 -6.084754 -29.458114
-0.751926 -6.921198 -41.732925
14.219825 -6.868437 -61.109741
1.359991 20.114969 -42.014566
15.353068 -6.135652 -2.609523
-1.112443 -6.709699 -4.052186
-3.575504 -4.832489 -10.398417
-7.969736 2.911272 -56.698989
5.490860 -8.848216 -26.948945
4.716912 20.961832 -47.683240
10.586817 20.575779 -2.917599
13.739879 19.329515 0.784763
-3.777826 -4.642212 -60.036852
-2.900734 -5.428807 -48.956416
-7.837137 9.823199 -51.852598
17.650388 16.323686 -52.542146
4.742256 20.965015 -17.312280
12.702622 -7.639076 -45.627954
-4.082105 16.533608 3.698581
15.598482 18.154775 -40.276856
16.362297 -5.354025 -4.855120
-7.836979 2.373579 -28.709589
19.923058 -0.943464 -51.748627
5.473615 -8.847118 -60.956799
20.043597 -0.724605 -3.927747
9.370496 -8.651954 -47.827500
21.499196 8.451688 3.477893
12.351068 -7.783215 -24.469046
-3.412521 17.182660 -36.586602
11.246113 20.381087 -60.310380
20.059765 -0.690866 -60.076937
2.262011 20.425417 -8.320731
20.850359 1.177411 -3.758243
7.424415 21.074617 -17.370975
20.659982 11.529881 -43.601032
-7.561334 10.768523 -5.518439
-5.293701 -2.920648 0.254006
7.357548 21.078874 -12.805107
-2.171830 -5.997931 -60.033914
8.820399 20.940557 4.692389
12.974803 19.708814 -18.271812
20.675818 11.489794 -16.468775
21.670635 6.683964 -25.979902
-4.775196 -3.568500 -26.732076
-4.541922 -3.846333 -8.658064
14.511386 -6.691475 -52.746795
-8.307214 5.975068 -2.738607
-1.721510 -6.322554 -10.177148
-1.628781 -6.381496 -31.529721
20.460245 12.035482 -0.290523
-0.347040 -7.144187 -57.699029
18.978164 14.685880 -5.714752
21.678202 6.257581 -48.673025
14.153860 19.101517 -25.925216
21.658197 6.884029 -34.519716
18.252875 -3.439367 2.756971
18.278545 -3.408382 -5.803314
18.585415 -3.028867 -30.517927
11.581140 20.271952 -31.398049
-4.147980 16.463567 -5.985463
0.142767 -7.391962 -25.934024
-6.650722 12.961815 -25.833457
10.823845 -8.318008 -59.679493
9.664755 20.793198 -29.223712
-7.587055 10.689569 -58.019719
7.707616 -8.859301 -20.723828
14.129035 19.115189 -5.941556
12.373277 19.971536 -4.775394
16.846742 17.123644 -23.998418
-8.178869 4.139681 -12.107485
18.410056 -3.249647 -28.132719
0.343061 19.683709 -31.544128
18.583077 15.230517 -59.856752
20.436642 0.108510 4.137020
13.475794 19.472607 -56.390947
-8.155221 8.242693 -25.402210
3.062284 20.647242 -55.998555
-8.133748 8.411614 -42.805774
21.553617 8.027391 -50.180156
2.228144 20.414441 -18.115065
-7.036287 12.151268 -3.007441
-5.447769 14.905662 -12.397598
0.085519 -7.364972 -35.654762
21.627835 4.832941 -34.000789
18.391315 15.469102 -50.509913
21.668852 5.477134 -60.497867
20.635256 11.592472 -57.452577
21.618811 4.691210 -15.172924
17.825764 -3.939955 -46.507884
21.394440 9.003115 -52.705477
-0.337794 19.346273 -40.282516
5.935788 -8.876545 -6.598345
21.520933 8.287669 -24.472991
14.181993 19.086022 6.340926
21.513344 8.348104 6.844253
1.202713 -7.855510 -37.916917
17.548363 -4.234888 -17.052243
18.124187 15.792498 -33.173599
11.627949 -8.059827 0.277003
16.657727 -5.103165 -33.446160
-6.803001 12.646078 -42.304459
21.670854 6.680431 -4.269914
21.512824 8.352250 -0.707218
-8.038588 8.923497 -53.980421
20.442098 0.120083 -22.399250
-6.228193 13.728929 -14.364575
3.240711 20.692907 -27.872347
-6.372167 13.467540 -7.331092
2.174496 -8.199875 5.133675
-8.144411 3.865271 -19.734242
-7.693926 1.837791 -8.938537
19.707580 -1.334696 -6.880426
-1.628863 -6.381444 3.102557
15.556919 18.185023 -15.494469
5.068636 21.006008 -21.524446
19.115017 14.493840 -29.088089
-8.274871 5.114361 6.233210
0.954987 19.954964 6.056768
14.009416 -6.983894 -32.438697
-7.384631 11.289366 -12.441780
17.875750 16.083333 -18.397842
-1.918846 18.378925 -25.250653
2.674017 -8.350031 -42.233216
12.636488 19.867081 -27.135489
15.287344 18.381209 -42.408090
19.676544 -1.391047 -27.889487
15.341703 -6.143896 -29.478957
20.654822 0.654115 -31.702961
-3.324355 17.265327 -38.560629
-8.244233 4.660219 -27.936440
17.279505 16.716644 -9.605339
7.783753 -8.854573 -2.778213
13.671293 19.367288 -41.133743
-8.196867 7.915086 -57.544765
-3.569031 -4.838577 -39.016646
-7.667913 10.441367 -22.053549
7.405719 21.075807 2.621641
-5.544867 -2.574410 -14.849609
-6.563716 -0.921670 -57.934985
-7.283484 0.653441 -46.916962
17.644118 16.330374 -35.965513
12.585490 -7.690598 -51.459251
-6.583457 13.083936 -17.155054
-4.391099 16.205070 -9.803885
13.255846 -7.379259 -20.777736
-7.482108 11.011721 -54.048968
18.545907 15.281757 -40.272977
21.505764 8.408469 -36.975066
-8.285348 6.917568 -41.121770
17.867802 16.091809 -13.112378
19.711925 13.524939 6.747512
2.606775 20.530662 -30.430412
15.365461 18.324359 -55.217194
-3.844143 16.777960 -34.385424
14.887252 18.650374 -10.002246
-1.161555 -6.678481 -23.386277
2.758163 20.569407 -49.038408
12.448904 -7.744561 -43.204683
-2.656482 -5.631178 -1.849322
10.675624 20.552905 -41.303423
19.183229 -2.187913 -43.712013
-8.273483 7.103911 -11.730672
-7.182674 0.398257 -49.209571
16.289320 17.611575 -13.362059
2.420511 -8.280017 -13.982374
16.563131 -5.188124 1.440509
18.924980 14.759195 -10.611688
-8.293814 5.419218 -32.448695
-0.159533 19.444090 -61.015667
12.639057 19.866061 -51.879201
-5.776010 -2.246003 -39.213274
-0.256991 -7.193781 -45.286540
20.525766 0.328875 6.848798
12.105445 -7.880256 -53.848657
21.417972 3.317806 -54.551172
4.618275 -8.751779 -41.435267
14.480233 -6.711213 -15.603910
20.376322 -0.019433 -48.020623
4.562534 -8.744693 -19.533901
9.833613 20.760860 2.265305
-3.447294 -4.953067 -12.566251
-4.365750 -4.034233 -6.162808
0.783871 -7.689293 0.869771
19.726950 13.497559 -58.529686
-0.165533 -7.244151 4.749429
-7.363612 11.342337 -17.865068
-4.487426 16.102650 -19.970324
-7.975392 2.941042 -50.449862
16.408054 -5.316227 -55.726337
21.201063 9.850600 -14.687214
-6.780016 12.694831 -32.821954
20.905917 10.850037 -27.461021
-6.777451 -0.503727 -35.607377
-8.279112 5.182613 -39.627465
7.180121 -8.892061 -22.715760
21.240319 9.697218 -44.714282
1.592491 -8.010194 -17.846509
-3.032550 -5.319593 -16.296763
-7.968766 9.288029 -15.371273
10.270633 -8.459593 -16.326008
19.654175 13.630174 -60.991835
17.602230 16.375048 -54.941433
6.391455 -8.893689 -4.601397
20.456782 12.044247 -50.012782
14.100731 -6.933787 -55.201657
16.981640 -4.799456 -12.066435
-2.410051 -5.824564 -21.716230
0.918641 19.940605 -52.442316
21.622454 7.458976 -39.049676
20.099168 12.805931 -27.651927
13.164307 19.619467 -29.802603
1.054107 19.994123 -34.102961
-6.484304 13.263952 -11.812773
-0.882298 19.047490 3.841513
-6.612386 -0.832980 -60.673032
19.170489 14.406280 -16.807317
-7.580358 1.487377 -58.321058
19.819379 -1.131709 -55.435805
2.027908 -8.152123 -24.183273
10.029579 20.719310 -46.543908
20.730235 0.844167 2.010168
-2.964215 17.573832 -53.750401
11.775041 -8.010793 -5.875373
-7.954310 2.832020 -5.057064
3.051508 -8.447263 -46.844382
-7.885135 2.561738 -3.002308
10.844683 -8.312675 -12.147475
4.211045 -8.692498 -53.682721
21.585921 7.770137 -11.419863
-8.275405 5.122955 -59.903175
-5.785548 -2.230948 -6.308328
20.997748 10.566693 -32.530374
7.168692 21.090898 -46.251299
12.194197 20.042604 -21.487541
-8.078720 8.713975 6.758055
18.339518 15.531810 -31.013735
3.685925 20.789597 -40.030469
18.928417 -2.557548 -10.007381
17.107193 -4.681734 -9.852435
-8.053045 8.848021 -13.209510
13.496162 -7.265530 4.952808
5.945832 -8.877184 4.792703
10.256663 20.660818 -23.964864
20.566488 11.766547 -24.871196
20.039235 -0.732525 -10.190020
21.512303 8.356402 -32.397090
4.913082 -8.789255 -36.931650
-2.802451 -5.510238 -55.680629
-6.255473 13.679402 6.848147
7.035272 -8.894148 -13.950474
-7.022823 12.179825 -55.983115
20.421524 12.119519 -46.734531
21.618644 4.688586 -3.653223
16.193982 17.690566 -52.057923
19.964503 -0.868214 -16.808725
-3.212810 -5.170242 2.767302
0.777938 -7.686938 6.586866
16.287894 17.612757 0.539137
20.673411 11.495887 -29.515209
10.783075 20.525228 -8.476637
1.952266 -8.127481 -7.744936
-8.086392 3.525338 -31.702580
20.625763 11.616501 -59.826344
7.880477 -8.848566 -44.328158
21.639861 5.021809 -8.877049
-6.752685 -0.556465 -39.870899
7.070382 21.091018 -48.459005
-4.501833 -3.889090 -22.467448
-7.389282 11.277644 -15.910530
10.395613 -8.427607 1.860433
15.462060 -6.056592 -39.350023
20.750206 0.894497 -33.852011
-7.514849 10.911215 -44.162190
9.621379 -8.604301 -24.453615
20.743100 11.319481 -6.265453
20.407021 12.150401 -8.319358
-6.296814 -1.408041 -22.668676
17.397265 16.593648 -38.650195
11.717845 20.227421 -14.724185
21.003128 1.646356 -12.219286
-7.045800 12.131089 5.556732
-1.015658 -6.771218 -37.822954
20.337098 12.299293 -19.214958
12.181619 20.047596 6.492428
-1.120434 18.901537 -52.645787
-6.743420 -0.576193 5.897007
16.060465 -5.603356 -51.204062
21.406588 3.258376 -1.714092
16.035169 -5.624252 -20.433373
8.218365 21.017091 -6.909606
-8.307339 5.807588 -0.414446
21.678124 6.156464 4.115455
-3.831262 16.790038 -55.447357
21.077034 10.322056 -10.198494
6.718857 -8.893922 -29.411448
21.290458 9.501310 -34.401068
21.436507 3.414579 -47.572718
-6.589637 -0.874434 -16.746697
-7.101656 0.193172 -44.775094
-7.547423 1.385757 -35.084620
3.258992 -8.500705 -56.142372
-8.110731 3.653455 -0.914286
-5.359181 15.027398 -37.182468
-6.380462 13.452480 -46.225664
-8.307337 5.809870 -44.108091
-7.677722 10.411257 -48.636786
-6.568444 13.111194 -48.816388
8.648525 20.962407 -14.990430
-7.309246 0.718654 -26.214464
-3.979994 16.642178 -27.796959
21.663133 5.387312 -42.614506
9.405587 -8.645289 -13.824727
-6.489175 -1.057504 -37.782319
16.648243 -5.112057 -44.555640
19.451292 -1.766197 -45.653403
-1.299799 18.787893 -16.117183
-8.199337 7.895658 -39.240434
-3.599378 17.007458 -25.335601
4.972493 -8.796808 -21.644480
-4.695954 -3.664434 -37.506958
-8.041641 8.907560 -0.532349
16.225443 17.664500 -20.282324
21.395100 3.198396 -5.304941
13.792674 19.300438 3.690137
-3.660439 -4.752610 -30.844414
-8.295088 5.439730 -52.903391
20.322573 12.330223 -52.223107
-2.631908 17.848338 -3.862402
21.206625 2.368484 -56.741056
2.139010 20.385553 -2.904952
-4.345400 -4.055937 -14.126201
0.688424 19.845905 -28.420635
21.150370 2.150082 -21.429229
1.848256 20.291320 2.224984
-8.139765 8.364278 -27.517672
21.359242 3.011185 -29.506376
9.243940 -8.675992 -10.352147
8.933174 20.926220 -42.806171
0.502930 -7.561766 -2.565276
20.891981 1.305176 -59.124865
1.019273 19.980362 -4.409186
-5.187386 15.263474 -7.968176
-6.325130 -1.356441 -43.506891
16.595338 -5.161519 -42.403859
-7.845309 9.791470 -56.223325
-7.045965 12.130740 -20.553382
11.950187 20.139440 -49.897521
0.213609 19.622913 -8.625423
-0.606668 19.198735 -58.863140
2.838973 -8.392519 -61.007545
10.481959 20.602788 -55.620570
-7.306896 11.485269 -7.961037
12.204569 -7.841094 -18.865205
-0.307138 -7.166163 -48.837489
-8.093751 3.564077 -44.177256
-8.233928 4.578152 1.708775
-3.830025 16.791198 -46.243083
-1.911831 -6.187149 -46.874037
14.168461 -6.896622 -9.913943
18.014302 -3.727325 -32.196336
0.396850 -7.511753 -61.069378
-7.746020 10.176998 2.951820
-7.446396 11.121342 -37.292832
3.603928 -8.576227 -17.749439
10.258026 -8.462820 -42.621739
12.134204 -7.868894 -32.903196
14.901362 18.641405 -32.233855
-6.452680 -1.124009 -51.399951
13.439253 -7.293123 -7.877782
1.653757 20.228284 -11.109044
18.904944 -2.589803 -60.848808
21.642585 7.135157 -22.779386
-7.839784 2.384540 3.635314
-5.699294 14.560023 -10.093426
-4.632461 -3.741300 -17.772563
8.960618 -8.725937 -58.088992
-6.479900 -1.074405 -0.518451
-1.591921 -6.404926 0.920335
-4.451293 16.141069 -16.486008
9.827988 20.761937 -38.812718
21.636147 7.238722 -41.648400
15.900302 17.933889 -25.766354
4.799370 -8.774800 -30.797575
-5.366658 -2.820075 -24.753099
-8.263546 4.932091 -25.907146
7.844735 -8.850786 -60.207510
-4.981599 15.516446 -53.940652
6.862959 21.091179 -60.583721
-8.005711 3.100640 -39.664674
10.616974 20.568011 -43.995323
-2.023598 -6.105809 6.705060
6.656757 -8.893878 -11.590521
1.236078 -7.868751 -20.525973
21.677814 5.757704 -36.826158
20.951888 10.708193 -54.073100
14.980567 18.591059 -3.273615
-7.175277 11.816970 -10.250782
21.677790 5.726911 -6.002114
14.737330 -6.548324 -48.508940
16.027127 17.828811 -44.472602
-5.610580 -2.483823 -21.126810
8.192843 -8.822369 2.731321
18.782727 -2.757741 -12.333859
21.677742 5.664639 -54.918636
1.996706 20.339432 -35.951453
-7.987580 9.189803 -37.505257
21.301654 2.737424 -41.165257
19.358021 14.110268 -51.828217
-8.304048 6.623869 -7.076869
-0.803128 19.090933 -3.567863
5.809721 -8.868518 -9.270133
16.907770 -4.868718 -48.763728
20.555698 0.404309 -24.655837
4.151219 -8.681040 -23.744307
20.475016 11.998092 -34.595313
1.948194 20.323710 -20.613659
-1.238834 18.826520 6.785038
17.891406 16.066635 -16.293411
-2.910827 -5.420445 -42.215424
3.996222 -8.651356 -51.033303
7.213406 -8.889994 -42.112718
18.302324 15.576839 -2.534826
20.220816 -0.349268 -14.603978
-7.602512 10.642123 6.802170
21.265493 2.597033 -18.618543
-0.748399 19.120964 -45.005783
21.678287 6.366819 -1.000347
-6.678283 -0.712897 -31.064181
17.349442 -4.446381 -60.677587
6.806995 21.091223 -42.909207
15.360407 18.328037 -57.694011
16.095981 -5.574018 -16.211066
0.848650 -7.715000 -40.859983
-5.821923 -2.173536 -46.043574
-7.678903 1.791437 -18.918222
2.736846 20.563951 -43.382678
0.945923 19.951383 -57.073165
-4.741285 15.806492 -57.642693
-3.651070 -4.761421 -28.638743
3.863867 -8.626009 6.438714
21.324192 9.369504 -30.396422
-3.605107 17.002087 0.009650
-7.441498 1.058923 -30.277483
14.074920 19.144993 -23.711590
6.219334 21.091280 -57.534008
6.718904 -8.893922 -47.230531
19.867857 13.240786 -32.883657
13.613660 -7.201056 -5.003057
-4.148342 16.463182 -52.298936
6.735485 -8.893934 -32.835450
2.495722 20.501161 -6.172914
0.371487 19.697059 -1.996156
2.175921 -8.200339 -49.118663
19.966584 -0.864435 -12.419477
19.244891 -2.090907 -14.130740
-3.092423 -5.269987 -36.045718
13.100928 -7.452015 -13.774696
-3.325145 17.264586 -14.746043
7.863222 -8.849638 -27.063044
-3.632152 -4.779213 0.261177
20.760082 0.919387 -27.338742
20.412512 0.057328 -57.112882
13.696551 19.353377 -15.144747
21.424057 3.349575 1.334824
0.724332 19.862770 -38.145637
20.955780 1.501016 -46.269555
12.475060 19.931143 -12.283257
-0.318047 -7.160155 -21.748971
5.256930 -8.832966 1.899095
-7.289166 11.529954 -40.302280
-6.193278 13.785881 -2.447405
12.163759 -7.857217 -36.052818
4.402970 20.922401 -35.861951
18.607829 15.196396 -56.673068
-0.169008 19.438890 -54.790218
12.931764 -7.531461 -11.327683
7.955424 21.040808 -33.675251
-7.631589 1.645449 -0.694443
15.374032 18.318121 -18.104819
3.279909 20.702939 -37.890556
1.347233 -7.912863 -33.115437
11.387269 -8.137830 -40.325456
21.508754 3.817532 5.894814
-7.849411 2.422153 -45.885641
9.759565 20.775041 -0.174022
-7.449835 1.084646 -6.842349
3.481409 -8.552763 0.583965
13.509409 19.456445 -1.830684
-6.443030 13.338887 -30.163046
-6.778128 12.698835 -60.495246
20.492171 0.244211 -19.935208
-5.236949 -2.998882 3.038267
20.345202 -0.085440 -44.843904
17.818048 16.144873 -0.488699
17.786325 -3.981887 -50.677969
-6.616538 -0.825414 -10.573791
21.585163 4.418752 -25.639500
12.779583 19.800857 -47.815356
17.867868 16.091740 -4.718461
0.928956 19.944680 -44.273961
19.700857 -1.346903 -38.157975
21.580780 4.384267 -11.134582
9.611623 -8.606154 3.970523
14.062143 19.152029 -38.951200
19.590129 13.743896 -30.897495
20.922395 1.398535 -7.288352
4.045139 20.857828 -52.958123
16.036842 17.820762 -8.185719
4.098408 20.867947 -1.180515
16.777506 17.188759 3.217816
-6.757235 12.743151 -4.986913
17.768004 -4.001366 -22.719371
21.299555 2.729272 -14.431213
3.549270 20.763640 6.725995
21.420508 8.865895 -56.949256
3.394136 -8.535515 -58.391658
15.842721 -5.780471 -59.823326
21.297973 9.471949 -12.503661
19.747502 13.460108 -53.780325
-4.294676 16.307592 -23.353443
15.858264 17.965716 -22.307955
17.313356 -4.484748 -40.065812
-8.307456 5.650035 -20.752255
20.640096 11.580219 -13.642151
20.572936 0.447752 -39.212451
-5.726577 -2.323919 -3.009313
4.399336 -8.723947 -34.294004
20.824294 1.097402 -42.342816
-3.425496 -4.973567 -23.900026
-2.565605 17.903109 -6.108695
20.822357 1.091454 -0.532630
6.745011 -8.893941 -18.745115
-6.174094 13.816060 -27.771560
7.751803 -8.856557 -0.730431
20.213526 12.562422 -4.387634
5.621733 21.054128 -19.336113
20.479815 11.985943 -41.547719
-3.686761 16.925525 6.302049
14.683359 -6.582519 -46.146022
15.560861 -5.984925 -6.797722
17.534113 16.447696 -25.818014
5.341710 -8.838720 -1.484711
-2.829282 -5.488007 -44.628793
-3.832938 -4.590380 -50.408978
21.664356 6.784964 -44.490697
11.384577 -8.138703 -20.586762
0.742303 -7.672796 -31.116715
-4.949872 -3.357031 -54.417796
21.654975 6.935857 -20.188748
-5.803596 14.398927 -33.995743
2.038659 -8.155625 -27.374085
10.984108 -8.268493 -57.218860
0.742859 19.871159 -50.184418
-4.932887 -3.377594 -42.716833
-4.272959 -4.133201 -56.872944
13.858671 19.264090 -54.257432
6.734149 21.091280 4.898918
8.061388 21.034062 6.591775
-6.630148 12.999167 -36.505394
17.056148 -4.729596 -18.912073
6.059950 21.081372 -30.934840
1.890043 20.304863 -60.799438
-2.350662 18.065710 -27.463048
17.291469 -4.508018 -0.654425
-6.107086 -1.723445 -41.302933
-1.090006 18.920816 -21.039474
15.574523 -5.975014 -11.135859
8.047242 21.034963 -40.897235
20.691131 11.451033 -37.622461
19.269236 -2.052606 -33.093069
0.704652 19.853527 -13.566255
19.594111 13.737611 1.548377
-3.668410 -4.745114 -46.466275
-5.603826 -2.493134 -19.167865
0.542647 -7.580491 -47.026202
19.129251 14.471373 4.476989
3.029598 20.638876 -34.118800
19.451347 -1.766110 -35.740639
21.620391 7.492164 -14.961948
4.944378 20.990401 -43.882526
-7.795963 2.213317 6.696906
14.961961 18.602886 -12.258362
9.242712 -8.676225 -18.655940
3.526007 -8.561304 3.480390
-7.713866 10.300307 -25.845607
-8.238450 7.587981 -50.578306
15.670373 18.102456 -46.364912
14.640567 -6.609630 -41.423394
9.116060 20.898280 -53.360192
-7.665537 10.448659 -27.855052
11.785514 20.204790 -53.724294
8.201781 21.019199 -30.905974
18.500424 -3.140573 -24.604987
12.110358 20.075876 -23.995982
-4.992582 -3.305324 -58.715556
19.862809 -1.052855 0.688639
21.632300 4.903057 -39.054708
-7.375463 0.886271 -38.408208
-8.114722 3.674467 -23.790111
15.115261 -6.308151 -43.487439
-5.455351 -2.697810 -56.355120
7.625603 21.061808 -55.295302
0.281787 -7.457505 -14.758857
-6.301876 13.595156 -53.325826
4.956946 -8.794831 -13.158358
10.811377 20.517938 -20.106104
9.071238 -8.708794 -29.814743
10.451802 -8.413226 -34.986782
11.917664 20.152346 2.654476
-0.280341 -7.180921 -7.267141
18.643601 -2.948913 -56.156695
16.013610 17.840010 -36.634716
18.236460 -3.459180 -37.301677
-8.143097 8.338072 2.040107
-5.345683 15.045946 -29.234600
15.619805 18.139258 -29.778754
-7.751710 10.154903 -60.446037
-6.231346 13.723206 -39.536004
21.398404 8.982247 -42.675918
21.298601 2.725568 -10.122380
-4.997159 15.497667 -14.389034
-8.307392 5.736816 -57.374690
19.516493 -1.663624 3.106767
-5.209313 -3.036979 -51.814944
-6.835409 12.577340 -23.202097
19.491049 -1.703652 -40.504483
18.860390 14.848235 -46.466389
5.782434 -8.866781 -55.727272
-1.139468 -6.692520 -17.786596
17.966195 -3.785391 -14.121648
1.984144 20.335361 -25.986904
14.007588 -6.984897 -37.513028
19.586715 13.749286 -41.132414
-4.264303 -4.142433 -40.890200
19.460350 -1.751947 -49.434695
-6.258530 -1.477804 -48.291200
10.877444 -8.303063 -31.144538
-5.962783 14.148494 1.694987
18.363206 -3.306196 5.120026
18.160347 -3.551048 -54.132883
19.632825 13.669081 -48.650512
-5.817551 14.376972 -55.850214
6.059001 -8.884390 6.859965
11.590050 -8.072110 -47.315362
5.542915 -8.851531 -44.066118
4.157533 20.879177 -57.745983
-3.009339 17.536558 1.818576
-8.205867 7.844291 -17.011973
-1.619550 18.585301 -42.927468
12.803494 -7.591702 -58.670460
-2.326143 18.083494 -18.674918
6.296501 21.091620 -4.250462
6.003236 21.077846 -25.115931
2.121534 -8.182622 -3.888831
-0.210995 19.415851 -46.943277
10.936865 20.481824 4.501512
18.634830 -2.960966 -19.060874
21.294512 9.485472 -59.914010
3.559563 -8.567730 -11.321777
8.193550 -8.822280 -50.965422
-8.284659 5.271875 -35.147200
-0.233068 -7.206957 -28.673660
-7.936132 2.760996 -53.220915
-7.373822 11.316605 -34.424847
6.736338 -8.893935 -52.755460
10.402886 -8.425745 -44.937127
5.431928 21.042328 1.481170
4.088183 20.866005 -23.171242
21.536060 4.032389 -45.004905
19.064623 -2.370388 -3.107274
-1.094444 18.918004 0.606453
-3.368218 17.224200 -32.159576
18.193260 -3.511322 -34.683775
18.728035 -2.832893 -0.788440
19.722716 -1.307215 -23.637467
7.343286 21.079782 0.452975
8.562995 20.973280 -22.156295
18.802220 14.928424 -37.742235
-7.188313 0.412531 -41.853087
-1.743217 -6.308757 -50.501462
18.227678 15.667208 -21.081000
-5.276478 15.141046 -41.831253
18.226296 15.668882 2.698462
19.747425 13.460246 -44.737466
13.916896 19.232023 -58.932038
-1.256809 18.815130 -29.820715
-0.079850 19.485092 -6.525995
15.471632 18.247092 -60.151542
10.486044 20.601736 -10.540583
15.131221 18.494830 -34.210311
-7.220157 0.493139 -14.662290
21.325360 2.834293 -27.245886
-2.005393 -6.119058 -27.482315
21.388215 3.162452 -50.932901
4.316601 20.909392 -5.514698
2.623188 -8.336938 -39.945853
19.477848 -1.724420 -20.333338
-7.245538 0.557387 -32.517187
-7.921205 9.496774 -18.555285
12.511263 19.916776 -42.883413
10.472078 -8.408037 -49.826833
14.064758 19.150589 -50.130498
-8.198820 7.899726 -19.892921
-1.800904 18.464474 -22.969792
14.030043 19.169708 -20.302765
-5.145119 -3.120657 -10.748287
16.909405 -4.867185 -7.573342
12.818187 -7.584802 -48.818424
19.723389 -1.305994 -30.934993
-4.877747 15.641790 -31.977153
14.497436 -6.700314 -27.033191
17.788938 16.175919 6.008414
-4.536604 16.050362 -48.004959
7.578029 -8.867349 -55.101968
9.606593 20.804337 -50.889134
6.825269 21.091209 -38.009655
-0.174046 19.436126 -36.022344
12.352584 19.979748 -45.797094
0.736120 19.868305 0.086733
14.173558 -6.893825 -22.959879
9.466317 -8.633753 -39.571815
-3.267218 -5.122423 -18.535115
14.230914 -6.862353 -18.931549
-2.744145 17.755624 -41.070187
20.016174 12.970511 -21.849674
16.488303 17.446712 -1.648438
9.899519 -8.551471 -52.688695
9.124541 20.896656 -19.105952
-4.496430 16.093077 -40.037573
-5.502083 14.831025 -50.702834
-3.980470 -4.445161 6.410242
21.390084 9.026042 -19.249007
7.363970 -8.880643 -16.314658
4.272560 -8.704278 -15.422045
-2.888351 -5.439067 -4.832422
-3.392333 -5.004756 -52.458212
16.986807 16.991918 -58.362769
5.527578 21.048274 6.774444
17.047056 16.935255 -61.115823
21.666022 6.758155 -52.819457
21.308765 9.429783 -5.269265
21.389681 3.170106 -43.068656
21.617677 7.517240 -61.096184
-7.786098 2.174774 -60.570896
-7.139048 0.287824 -24.119790
-4.369956 -4.029746 -2.414158
-8.171033 4.077277 -10.056804
-3.076975 17.480686 -12.042492
3.009989 -8.436569 -21.923763
12.065987 20.093484 -39.452614
-1.348687 -6.559533 -12.088679
14.913694 -6.436586 -57.746667
-6.955475 12.322674 1.314382
-8.227101 7.677253 -60.407354
12.991200 -7.503548 -30.717276
12.709070 -7.636048 -28.006351
-8.020999 9.015331 -10.709095
16.976491 17.001620 -41.007520
-1.985116 -6.133815 -57.494634
3.843878 20.819600 2.857844
21.368852 3.061359 -37.215275
-6.053140 14.006345 -58.785340
-1.972831 -6.142756 -6.859567
21.097956 10.253467 -47.035907
6.955476 -8.894091 -24.735393
-8.288638 6.865900 -54.890104
-8.190295 7.966784 -4.765918
7.530934 21.067835 -20.419866
6.554042 21.091420 -8.223566
16.779739 -4.988763 -30.856646
-5.640565 -2.442487 5.956624
19.670375 13.600654 -36.127089
-8.293590 6.788126 -9.720205
20.810069 1.053736 -52.425911
-8.257595 7.353441 -31.641518
-8.287652 6.881373 -29.298410
-6.579712 -0.892521 3.160789
8.622686 -8.768381 -37.800337
8.474638 -8.786976 -35.511252
15.013763 -6.373185 3.538553
-0.364834 19.331436 -25.983524
21.603893 7.627007 -46.281905
13.432737 -7.296183 -40.020172
-7.867936 9.703613 -3.569738
-1.122847 18.900008 -50.056280
0.563792 19.787373 -16.113625
6.044108 21.080387 -11.065581
3.013061 -8.437360 -2.114643
19.324985 14.162414 -1.160120
20.486153 0.229044 -50.268887
-7.675795 10.417169 -41.919277
6.406521 21.091534 -27.462051
4.125297 -8.676076 -4.930490
-2.377750 18.046061 -9.419113
9.607741 20.804117 -5.122490
13.748427 19.324807 -35.827498
15.638203 -5.928823 -35.784561
21.678317 6.405420 -13.316821
-2.938468 -5.397543 -32.976233
17.302104 16.695139 -48.893190
-8.193027 7.945296 -45.204937
-6.350105 -1.310930 -27.830927
2.793395 20.578424 -12.788142
20.448133 12.062858 5.428273
-6.745982 -0.570737 -18.990894
-7.129431 11.932509 -51.890062
21.272558 2.624459 -24.222609
-8.292915 5.404758 -17.252823
0.991499 -7.771690 3.123595
9.634093 -8.601886 -1.881165
6.056291 21.081144 -40.353874
3.711252 -8.596781 -25.820329
20.800797 1.025274 -55.026875
13.347018 -7.336441 -2.612064
4.356780 20.916599 -9.290783
6.636178 -8.893863 -34.809245
21.438150 8.773028 1.507865
-7.070001 12.079758 -0.850343
21.527637 3.966114 -58.304726
20.816281 1.072803 -37.200231
-7.712655 1.895581 -22.683617
-7.881068 9.652621 -30.230992
-1.805303 18.461283 -60.424655
21.219047 9.780333 -8.085522
-8.301765 6.659725 -36.711123
17.456291 16.530695 -45.734906
6.869228 -8.894029 -57.671265
-5.790428 14.419642 -24.415641
-8.286829 6.894303 -13.972214
-8.006784 3.106286 -16.508232
21.559141 7.983396 -28.196118
-7.188931 0.414095 0.975412
-3.627129 16.981438 -50.199960
-5.141557 -3.124969 -48.452986
16.703504 -5.060243 -27.792213
-8.197761 7.908052 -48.139082
-3.968806 16.654074 -2.754461
13.635295 -7.189184 -0.252544
-8.219262 4.461359 4.057504
21.677755 5.681944 -46.564431
-7.270644 0.620938 4.282463
-8.301920 5.549683 -47.659208
18.387369 -3.277031 -41.677505
21.678142 6.179228 -29.815498
-8.263499 7.260718 -23.105358
21.588599 4.445787 -52.699436
17.696470 16.274538 -7.059686
-3.011484 17.534786 -21.115974
-5.127756 15.340043 -26.742571
21.272467 2.624106 -16.537831
17.793276 -3.974496 -2.919522
21.614177 7.545117 -9.485559
-6.366750 -1.280597 -53.662118
15.744334 -5.851838 -13.590177
-1.263178 -6.613886 -54.589364
9.885422 20.750938 -12.906082
-5.778166 14.438934 -43.725767
-7.226663 11.687470 -46.294012
17.930706 16.024721 -28.271607
10.953731 20.476330 -26.036032
18.260761 -3.429848 -48.681896
12.816939 19.783244 -33.693841
-7.936907 2.764023 -25.857971
9.084063 -8.706358 -6.000806
19.459320 -1.753568 -57.688531
9.654114 20.795236 -32.499010
0.418371 -7.521900 -43.334654
21.642474 5.062847 -17.691094
15.999341 17.851832 -27.795210
1.587947 -8.008390 -51.706350
10.855173 20.506657 -17.205591
4.881094 -8.785189 -46.004649
-0.164411 19.441413 -18.929825
2.728332 -8.364021 -30.757045
-1.240691 18.825343 -56.693527
20.908111 10.843269 -1.827979
21.349631 2.961009 -34.663019
8.228874 21.015755 -10.619835
-8.007973 9.083334 -7.532869
12.578282 -7.693446 -16.478015
11.218997 -8.192367 -8.600945
0.061222 19.551345 -23.829540
-8.194489 4.264072 -7.727403
21.445923 3.463734 -61.036931
6.580878 21.091399 -50.470147
-1.780480 -6.282741 -39.809347
-7.289830 11.528278 -30.358666
14.215880 19.067359 -44.417535
12.000466 20.119486 -36.464747
-5.558478 14.753529 4.697129
8.418202 20.991687 -2.349662
21.202999 9.843038 -25.751565
