36.463079 11.868229 -41.365731
62.831376 49.648115 -55.637541
43.636439 13.765077 -29.423178
58.868134 27.411559 -57.922350
62.668166 37.331019 -19.329168
57.080869 24.643161 -8.874959
44.910526 14.390880 -30.915737
48.816724 16.632058 -57.137818
61.320167 32.644712 -16.994786
41.110074 12.780742 -18.706165
50.957113 18.197342 -6.036674
61.800192 53.955044 -49.936362
63.317022 42.503162 -41.216484
54.747262 21.765824 -40.988171
60.030924 29.582650 -5.860979
63.188634 40.967388 -11.227153
60.242401 57.885353 -24.204003
62.013142 34.712197 -13.975637
61.649453 33.572935 -24.562283
49.387291 17.047224 -59.163728
35.185151 11.622687 -40.319358
43.096561 13.554727 0.103113
39.245088 12.402767 -7.945680
41.409218 12.897296 -51.306648
63.198700 41.087800 -23.189404
60.359132 57.631912 -29.713785
61.620141 54.454840 -61.031989
62.407260 36.223607 -53.585823
45.303551 14.584307 -6.109044
60.587442 57.136215 -33.974035
52.889193 19.874395 -57.063112
61.829788 53.872890 -40.491021
59.616079 28.740614 -60.530118
63.322423 44.860505 2.490512
56.345132 23.673459 -13.108974
62.998552 48.697681 -14.049097
61.780741 33.943022 -26.282716
62.725405 37.666016 -36.534922
36.956477 11.963031 -22.885857
62.190867 35.393760 -9.444630
56.902747 24.381913 -49.264497
62.986081 48.768580 -49.302194
63.212428 41.252019 -36.687652
49.624791 17.220037 -29.171394
53.071586 20.038023 -1.838239
62.650881 37.229861 -34.865853
52.123377 19.209664 -8.370822
54.244308 21.247224 -4.632569
55.767335 22.965147 -33.347273
63.326324 43.259235 -49.265394
39.840141 12.517101 -52.605899
34.735176 11.536228 -27.519499
54.134523 21.134024 -55.520708
34.674843 11.524636 -45.004597
37.802951 12.125674 -10.353832
47.211267 15.637359 -19.435191
61.155724 55.744000 -31.205246
63.326705 43.102737 -42.103686
59.770634 29.015248 -48.329810
40.907867 12.722255 -3.280279
35.800038 11.740832 -42.997489
62.666227 50.587030 -43.595346
60.542940 30.708720 -23.185132
62.913142 49.183256 -4.363795
62.540122 51.225329 -46.859368
42.773549 13.428873 -59.454198
50.888323 18.139429 -42.939240
58.899435 27.467178 -59.171007
40.309298 12.607246 -9.223034
62.803016 49.809349 -14.732167
61.647912 33.568591 -50.582618
60.635925 57.030952 -18.424929
60.622330 57.060469 3.791057
59.215091 28.028081 -33.740819
61.025228 31.813310 -55.747635
39.142863 12.383126 -45.434648
52.411376 19.459648 -39.435978
55.665456 22.840256 -18.719796
63.324218 44.123526 -29.263409
62.638972 50.741983 -56.731018
63.324498 44.008735 -18.610821
55.471277 22.602215 -37.254483
34.937854 11.575171 -30.846485
47.275274 15.676005 -39.557520
49.388597 17.048174 3.437987
36.053378 11.789509 -51.785606
63.232233 46.466149 3.799241
62.326049 52.030197 -48.847604
57.175633 24.782151 -55.798311
56.393225 23.732415 2.465901
59.757191 28.991362 -11.667337
43.122591 13.564869 -15.535872
60.832997 56.603079 -42.766607
57.902451 25.848163 -57.543086
42.602499 13.362228 -7.176594
52.239517 19.310474 -6.841570
61.810135 53.927443 -9.891657
60.477119 57.375744 -53.527728
59.342062 28.253702 0.026645
41.628547 12.982752 -5.005284
58.258884 26.370937 -40.114973
38.721378 12.302141 -11.893584
62.059161 53.033633 -52.660947
60.315502 30.208519 -9.444860
63.125354 47.673780 -7.844427
60.395862 57.552166 -6.970476
46.589190 15.261761 -51.503094
61.467892 33.061133 -13.251663
63.218523 46.621054 -4.325830
62.978795 48.810002 -41.353825
46.668181 15.309454 -9.776605
45.692331 14.775644 -43.158312
48.398822 16.354381 -4.965879
59.012871 27.668748 -11.761162
60.503966 57.317454 -1.043008
60.715669 31.088601 -46.504278
63.054920 39.594508 -47.858777
63.137539 47.536101 -55.825597
59.782435 58.884008 -16.735165
62.088429 35.000916 -41.530552
54.946211 21.970962 0.336211
58.781260 27.257187 -5.660280
59.757724 58.937658 -55.251135
61.444423 54.942611 -43.719775
38.864875 12.329713 -28.297870
53.814170 20.803706 -49.846340
58.876146 27.425796 -45.174531
44.286542 14.083787 -1.028131
46.379789 15.135329 -50.423130
54.857808 21.879809 -46.652435
53.422645 20.400001 -3.027589
47.694328 15.929021 -36.728041
62.836521 49.618868 -16.560935
62.460397 51.525079 -10.692934
63.237737 46.403956 -51.851235
36.274204 11.831939 -15.514035
58.841485 27.364205 -24.093643
61.872776 53.734400 -15.013365
50.385421 17.773499 -24.556844
57.949196 25.916722 -2.537507
43.300741 13.634280 -12.538779
55.912350 23.142919 -6.714323
47.213420 15.638658 1.040517
61.477789 54.849991 -4.784537
59.804364 29.084380 -44.374881
61.818946 34.050718 -57.728276
56.747107 24.166231 -60.711312
62.220396 52.427426 -58.930469
51.523359 18.688846 -31.554026
60.684730 31.020556 -28.952167
62.285617 35.757119 -22.741355
62.564174 51.134902 0.122675
37.101587 11.990913 -2.621971
55.527184 22.670751 -61.013442
62.140286 35.199785 -3.451938
59.102300 27.827657 -50.699547
63.322702 44.745836 -50.247219
56.092874 23.364220 -50.788680
53.582648 20.564981 -10.713339
60.638589 57.025168 -36.475560
42.316601 13.250835 0.013506
63.127208 40.232618 2.518886
55.196859 22.265812 -37.669241
49.137528 16.865487 -17.405577
62.233388 35.556823 -58.178979
43.234539 13.608487 -5.767771
43.718774 13.804361 -60.380362
49.881354 17.406722 -38.176757
62.449270 51.566912 -8.706114
59.729464 58.999015 -59.252984
62.061704 53.024073 -49.562212
54.240968 21.243780 -6.938753
62.945761 38.955652 -52.303265
47.249047 15.660169 -55.422296
59.515171 28.561306 -27.824342
41.739910 13.026142 -54.609188
63.194400 41.036364 -52.082408
61.560525 33.322256 -25.860259
56.571779 23.951300 -46.983307
63.325167 43.734057 -52.181903
57.871873 25.803315 -37.608292
49.037477 16.792686 -56.074797
56.078427 23.346509 -24.605491
39.200018 12.394108 -0.812855
54.184560 21.185618 -31.336807
50.497611 17.855132 -51.821708
62.203149 52.492271 -50.665193
58.777766 27.250980 -46.981903
63.326562 43.161393 -39.276791
57.938808 25.901487 -10.877964
62.428978 51.643206 -54.771932
63.325626 43.545538 -38.034200
59.844769 58.748671 -45.933333
58.191806 26.272555 -38.185241
61.407265 32.890232 1.021638
60.304794 57.749887 -40.522056
35.305272 11.645767 -47.179552
36.388990 11.853994 -29.197525
47.124057 15.584703 -45.122692
62.563150 51.138749 -35.626733
34.831002 11.554640 -11.432184
35.812039 11.743138 0.351994
56.277485 23.590531 -36.754772
61.880548 53.705177 -12.237682
54.021697 21.017689 0.785067
61.301853 32.593085 -8.298619
63.024929 39.418987 -0.161400
55.725470 22.913826 -32.867498
59.560337 28.641564 -58.113239
61.482477 33.102247 -19.422133
59.439301 28.426489 -26.901287
53.356962 20.332275 3.859929
61.530880 33.238689 -31.434709
52.043147 19.140024 -39.493571
57.697428 25.547459 -0.520385
37.410644 12.050295 3.737043
62.882120 49.359627 -4.862758
62.249307 52.318729 -45.809733
57.466812 25.209218 -20.305270
58.423292 26.621099 -10.748910
57.570753 25.361667 -35.635693
57.527499 25.298226 -52.486275
34.648658 11.519605 -32.026814
59.169058 27.946283 -25.675461
62.597397 50.978346 -55.631878
62.219653 52.430220 -2.349267
61.907037 53.605584 -50.273022
45.065977 14.467385 -52.722118
47.599483 15.871756 -24.883830
51.782892 18.914121 -19.315480
59.139438 27.893649 -23.811297
55.207320 22.278635 -54.118750
61.756228 54.077083 -37.783761
62.676258 37.378378 -35.906277
63.321407 45.277357 -36.732523
47.156175 15.604095 -59.624107
51.288098 18.484639 -26.188462
62.864745 49.458403 -39.598250
40.420858 12.628681 -39.948405
57.003177 24.529212 -1.450136
54.888634 21.911594 -51.199731
62.154614 52.674751 -58.319094
48.221478 16.247304 -20.889604
61.136317 55.797872 -16.715787
63.284155 45.879475 -13.706711
34.747773 11.538649 -43.383116
38.012117 12.165863 -19.853030
63.050634 48.401578 -15.718574
39.743253 12.498485 -36.654738
60.378618 30.347329 -46.397725
63.321241 45.345608 -7.930550
57.623139 25.438500 -25.604151
60.244194 57.881458 3.811641
51.809279 18.937025 -41.698957
58.611044 26.954724 -42.291331
63.114319 40.078433 -27.118980
37.272655 12.023782 -25.521224
63.168214 40.723132 -8.126925
35.125451 11.611216 -23.292555
51.879611 18.998074 -31.284042
62.788388 49.892513 -51.867239
63.321853 45.094295 -0.290976
55.703627 22.887049 -14.674335
36.859595 11.944416 -23.848606
61.145975 32.153682 -30.060676
62.328625 35.922048 1.945254
46.848876 15.418554 -43.369764
61.620635 33.491699 -17.850116
51.433395 18.610757 -49.402290
59.466292 28.474450 3.107252
38.208162 12.203531 -50.119059
60.036923 58.331476 -22.071243
57.261165 24.907599 -33.201997
40.413169 12.627204 -44.038937
42.734900 13.413815 -20.556916
60.175668 58.030239 -9.765350
63.323197 44.542883 -38.186295
62.385083 36.138561 -37.056321
62.629585 37.105223 -47.734918
35.542274 11.691305 -8.403123
63.045825 39.541280 -3.970320
63.032420 48.505134 -20.437520
62.700230 50.393714 -0.544102
61.808049 53.933233 -45.961983
63.178474 40.845862 -46.902254
42.971791 13.506113 -47.010902
47.245069 15.657768 -16.703007
62.774747 37.954786 2.014338
46.735929 15.350359 -8.522408
63.236751 46.415098 -7.534167
38.821193 12.321320 -51.455332
34.619541 11.514010 -47.709921
63.147343 40.473465 -23.949740
52.340901 19.398475 -12.472586
49.445343 17.089464 -12.730681
47.231147 15.649362 -9.712055
51.287895 18.484462 -58.946143
63.108980 47.858791 -27.142629
58.274274 26.393510 0.289223
50.452125 17.822036 -6.727429
62.671371 50.557788 -60.740500
63.148017 47.417704 -15.612655
63.179586 47.061012 -45.947000
42.172946 13.194864 -12.390237
60.903969 56.442839 -46.414186
63.322094 44.995485 -53.096951
40.198985 12.586050 -35.684849
55.701252 22.884137 -28.753321
62.863249 49.466914 -27.719708
51.301322 18.496117 -20.352897
57.108762 24.684072 -57.687725
62.172397 35.322926 -5.520496
52.683050 19.695462 2.288079
46.151506 15.001626 -15.294928
63.190929 46.932847 -5.723594
62.052376 53.059144 -41.220851
62.199691 52.505275 -34.949699
61.163192 32.202217 -14.936568
59.933096 29.367499 -56.700721
60.640150 57.021779 -44.881004
62.709845 50.339050 -2.799531
63.225718 46.539754 -26.061998
63.244400 41.634456 -15.780898
52.702796 19.712601 -17.637055
46.496445 15.205763 -13.439348
49.792472 17.342048 -24.667793
61.511367 33.183684 -47.794233
59.672320 28.840551 -42.138180
54.739442 21.757761 -30.857227
56.128372 23.407736 -15.335732
52.057130 19.152161 -2.735476
63.317760 45.499770 -21.934875
62.799274 38.098334 -17.729932
37.197247 12.009293 -61.055167
49.826806 17.367030 -32.864330
62.358085 51.909748 -58.743768
63.184648 40.919709 -16.923419
43.850672 13.869275 -37.100475
62.204875 35.447478 2.104924
61.077682 31.961172 -9.507421
38.313410 12.223754 -31.553388
60.348523 57.654946 -8.574852
46.837692 15.411801 -46.980191
62.671408 50.557578 -42.304048
63.324269 44.102678 -15.264822
60.799862 31.273765 -48.053005
61.054004 56.026362 -19.249757
57.591365 25.391898 -40.335712
61.051142 56.034306 -58.285872
38.647375 12.287922 -8.096054
55.905756 23.134836 -29.544230
62.652870 37.241498 -2.864911
63.165928 40.695788 -45.086588
43.010651 13.521254 -39.130288
47.895403 16.050426 -23.228379
52.553687 19.583175 -0.153412
56.438124 23.787456 -27.340962
45.950853 14.902875 -10.645126
61.801068 34.000320 -0.875423
62.332108 35.935406 -54.090076
62.513605 36.631433 -20.611667
35.351044 11.654562 -51.290229
40.380976 12.621018 -20.382109
62.216011 35.490182 -1.231552
53.629041 20.612819 -18.290325
53.503406 20.483275 -31.506796
63.321775 45.126512 -48.611480
54.842651 21.864180 -42.839229
38.059703 12.175006 -32.898127
48.363764 16.333214 -14.615264
47.689601 15.926167 3.274600
43.443452 13.689884 -36.008014
63.325458 43.614607 -48.266642
43.666494 13.778632 -11.019860
46.947113 15.477868 -21.718068
60.655098 56.989326 -3.252085
62.804724 49.799642 -26.461284
62.808688 38.153430 -28.529072
38.718775 12.301641 -45.197581
62.552190 51.179959 -15.053008
58.207890 26.296146 -52.565524
41.052517 12.758316 -46.662174
62.273333 52.228395 -26.066047
60.349947 30.284273 -28.146175
63.316003 42.490978 -35.728093
62.162354 52.645650 -36.365238
60.828219 56.613453 -45.946124
61.180018 55.676562 -0.032856
48.389486 16.348744 -31.343698
62.045352 53.085555 -3.374433
57.098603 24.669172 1.977529
46.551842 15.239211 -36.557646
59.771902 29.017502 -56.323400
63.321414 45.274468 -21.478210
57.729512 25.594516 -59.427137
63.321613 45.192908 -26.151816
62.983645 39.177370 -1.002549
55.158219 22.218444 -5.177461
56.339741 23.666849 -44.138331
43.761561 13.825419 -34.899600
51.690688 18.834088 -50.275468
44.665931 14.270503 -51.229515
57.382218 25.085145 -38.693761
49.704269 17.277868 -6.470403
49.798368 17.346338 -14.977957
62.993281 39.233766 -1.953001
54.712948 21.730443 -53.582975
55.613668 22.776770 -30.777924
43.748963 13.819219 -57.584139
63.323044 44.605699 0.360457
43.481834 13.704839 -22.191215
49.558370 17.171706 -33.245945
46.948332 15.478604 -14.374248
61.002309 56.169859 -30.231579
63.322920 44.656262 -13.300311
35.402744 11.664495 -34.958022
57.430327 25.155706 -60.941447
39.066751 12.368501 -38.623887
49.350741 17.020628 -8.822454
60.733893 56.818248 -38.234608
63.321017 45.437379 -55.414747
34.611594 11.512483 -56.164480
60.347558 30.279019 2.098656
63.324039 44.197188 -39.663732
61.482171 54.837826 -16.643076
44.446254 14.162389 -22.563277
62.442155 36.357430 -45.710828
61.112195 32.058461 -54.785799
60.532783 57.254889 -4.094301
38.033592 12.169989 -40.608786
60.913870 56.415355 -51.178166
63.185863 46.990088 -34.281936
36.116250 11.801589 -55.056527
59.727296 28.938239 -22.483837
39.448240 12.441801 -38.971342
60.574116 30.777286 -20.317917
60.853457 56.558658 -6.254626
63.327539 42.760540 -17.506610
42.216239 13.211732 -37.960689
57.265715 24.914272 -19.381507
45.337073 14.600805 -10.235066
43.198234 13.594341 -18.257689
59.038407 27.714123 -34.157155
57.183983 24.794397 -30.944823
47.671037 15.914959 -54.734635
62.384455 51.810603 -15.504970
62.968854 39.090807 0.296680
34.580813 11.506569 -58.323932
59.991996 29.497037 -21.297772
61.990364 53.292294 -1.760704
61.933173 53.507320 -56.557077
63.325271 43.691530 2.104293
41.801859 13.050279 -7.554169
62.180865 35.355400 -46.633577
59.199939 28.001156 -43.097648
63.125896 47.667652 -29.852562
36.282357 11.833505 -49.356763
62.981177 48.796462 -6.309005
40.517905 12.647328 -60.238665
62.385907 36.141722 -20.814323
62.083292 52.942908 -15.166073
63.194155 46.896390 -20.323320
42.191363 13.202039 -22.595705
61.277383 55.406290 -20.161137
39.615026 12.473848 -17.253278
47.321447 15.703883 -47.960475
62.987593 39.200478 -21.191188
58.610342 26.953477 -16.356988
52.530606 19.563140 -1.288993
62.942252 38.935119 -26.571444
61.045832 56.049045 -53.806848
59.751781 58.950562 -21.243613
59.782850 29.037064 -34.531117
62.684094 37.424242 1.652087
62.601430 50.955419 -23.252558
38.099550 12.182662 -53.696863
60.958632 31.625584 -35.204380
63.047905 39.553458 -3.420992
62.248285 35.613952 -42.143784
62.728321 50.234010 -54.423722
40.203364 12.586891 -4.912061
38.809216 12.319018 0.376598
62.988071 39.203275 -32.532823
63.091208 48.059601 -15.151731
55.012573 22.039899 -26.723529
35.859262 11.752211 -18.396847
37.488802 12.065313 -8.898254
60.072395 29.673857 -15.215899
61.449820 33.010190 -14.255588
47.211862 15.637718 -6.817304
62.737672 37.737807 -57.232552
43.940087 13.913280 -13.280390
35.188250 11.623282 -40.904184
61.500734 33.153711 -56.165827
41.484800 12.926745 -38.407930
43.576925 13.741889 -2.872794
63.220652 41.350392 -46.904429
55.510613 22.650437 -1.257853
35.130855 11.612254 -31.673111
61.473892 33.078047 -22.743653
55.450284 22.576481 -54.504547
34.496647 11.490397 -9.020109
61.421420 32.930132 -53.767907
58.617673 26.966504 -57.949994
39.973154 12.542659 -30.730909
63.238228 41.560635 -7.593917
39.037072 12.362799 -11.258469
42.286690 13.239181 -1.390811
61.540780 33.266597 -19.995860
50.824083 18.092685 -15.374729
50.426906 17.803685 -31.675981
49.289352 16.975959 -51.159811
52.953189 19.929944 -16.554525
60.985386 31.700999 -1.900043
62.685814 37.434306 -38.930435
48.748775 16.582616 -42.931485
63.323082 44.589857 -16.697625
63.247264 41.668716 -38.875037
63.212442 46.689765 -1.234688
56.957645 24.462430 -29.473771
63.325742 43.498081 -7.462134
63.316054 45.519039 -48.315097
43.277268 13.625135 -25.687215
61.392622 32.848955 -1.676460
35.172070 11.620173 -22.711886
56.585408 23.968008 -35.759999
45.320507 14.592652 -29.984185
62.642174 50.723776 -53.702067
57.079039 24.640477 -47.039544
41.825384 13.059445 1.546803
60.358648 30.303410 -60.970583
48.777944 16.603841 -49.608429
55.797996 23.002735 -58.641870
49.184946 16.899990 -27.648956
43.942141 13.914291 -10.180785
60.796838 56.681586 -7.019963
59.106367 27.834884 -36.405412
63.319020 45.485533 -3.028577
63.131765 47.601336 -26.712041
48.279019 16.282046 -40.568303
51.932381 19.043879 -34.158821
42.751483 13.420276 -10.010213
62.456531 36.412559 -47.311047
63.324477 44.017160 -35.328641
47.752478 15.964131 -33.360346
34.471972 11.485656 -12.013488
54.247223 21.250230 -39.314942
47.026691 15.525915 -30.234054
35.912409 11.762423 -30.145819
62.316124 35.874110 -60.055043
36.868446 11.946117 -52.103297
55.776723 22.976657 -55.844686
62.684416 37.426125 -51.756158
41.364752 12.879971 -39.592755
43.057938 13.539678 -4.811586
62.157900 52.662397 -3.000607
41.487989 12.927987 3.587360
62.492160 36.549194 -55.552030
35.070730 11.600702 -21.124169
44.897478 14.384459 -46.939356
62.675858 37.376039 -57.674774
63.322260 44.927245 -37.116537
63.190121 46.941970 -51.858945
63.326595 43.147964 -5.292444
61.150257 55.759176 -55.371255
60.050662 29.626059 2.069160
63.282955 45.893028 -8.052419
41.582923 12.964976 -35.644236
38.066855 12.176380 -2.296361
42.526911 13.332777 -53.225309
63.165689 40.692926 -57.545589
55.115825 22.166474 -22.685333
49.208953 16.917458 -45.439393
63.306411 45.627998 -32.887664
40.231333 12.592266 -35.152590
58.333723 26.480702 -33.570922
62.748504 37.801200 -35.030489
54.103074 21.101597 -33.193133
49.239885 16.939965 -39.047322
62.432477 51.630052 -56.817142
62.596264 36.948423 -60.881453
61.196896 55.629713 -51.122334
44.542563 14.209788 -30.396675
62.010136 34.700668 -52.216622
41.025531 12.747802 -56.518922
61.722123 54.171752 -23.646746
43.601977 13.751649 -50.475252
44.831679 14.352076 -33.389559
61.439947 32.982360 -41.795078
63.322210 44.947739 -44.360362
60.387866 57.569526 -20.086315
62.611749 37.007809 3.138844
63.306916 45.622289 -51.788158
63.275222 45.980403 -31.884078
60.466027 30.539566 -20.789583
60.478932 30.567948 1.249994
48.677613 16.530836 -50.409145
59.867371 58.699599 -30.097008
59.508188 28.548898 -38.308088
57.073761 24.632736 -45.262605
62.178273 35.345461 -38.258638
50.322029 17.727373 -37.803544
63.324894 43.846029 -54.064785
62.577776 51.083758 -12.785038
51.144569 18.360055 -12.208655
58.639874 27.005954 -38.844755
54.609617 21.623897 -2.665067
56.805128 24.238737 -14.219580
58.314957 26.453179 -3.452118
42.045529 13.145219 -11.595094
56.740378 24.157983 -47.922751
63.181855 40.886299 -54.029193
48.485025 16.406429 -24.211520
54.267256 21.270886 -48.972934
57.156192 24.753637 -20.649635
51.008048 18.241554 -46.179271
40.919874 12.724562 -37.152666
58.851191 27.381451 -36.587268
58.551980 26.849771 -50.468114
53.877090 20.868583 -60.853829
62.973804 39.119775 2.238147
62.939758 49.031936 -48.818913
56.585304 23.967880 -22.185534
62.342980 35.977099 -32.174108
47.349742 15.720967 3.864744
61.141128 32.140020 -36.602867
59.603263 28.717841 -7.959431
54.207491 21.209263 -19.927915
63.321090 45.407776 -51.336705
62.583839 51.055428 -24.157294
61.947712 53.452656 2.334470
37.613883 12.089346 -17.258538
59.408402 28.371584 -28.451274
46.501538 15.208838 -53.105288
62.496311 51.390049 -37.912728
51.242044 18.444663 -37.384113
60.953480 56.305403 -3.515759
61.546867 54.658239 1.687807
60.237932 57.895055 -15.654540
63.162678 47.252051 -49.424445
61.501604 54.783885 -58.634925
60.482631 57.363776 -37.129193
61.177912 55.682408 -60.921341
63.327584 42.741945 -11.152333
43.148592 13.575000 -50.847617
36.922887 11.956577 3.322837
42.583530 13.354837 -27.770315
59.796599 58.853254 -49.767451
61.809691 34.024628 -14.648780
61.221241 55.562134 -55.991350
40.055359 12.558454 -47.319149
62.638055 50.747195 -22.532814
63.324030 44.200693 -49.334950
47.324851 15.705939 -45.667472
42.661858 13.385356 -29.309717
37.539219 12.075000 -3.924546
62.830322 38.280043 -18.637851
55.495103 22.631424 0.887389
57.022905 24.558146 -40.928422
62.653387 50.660030 -4.749847
59.403759 28.363333 -45.737401
57.703477 25.556330 -47.215416
60.717455 31.092530 -37.485714
60.918885 31.535530 -10.848704
42.537302 13.336826 -11.862801
63.093070 39.824258 -33.512201
57.395959 25.105298 -41.303231
63.064456 39.650323 -8.943127
39.134324 12.381485 -26.979778
45.438768 14.650853 -3.984824
61.080472 31.969038 -48.834127
60.408545 30.413148 -19.035871
58.312551 26.449650 -57.706483
46.359603 15.123141 -1.366115
61.560011 54.621753 2.312100
57.992549 25.980309 -22.541043
62.406581 51.727416 -28.486689
59.781491 58.886057 -12.163136
63.251550 46.247875 -0.265923
54.943181 21.967838 -47.855509
36.960603 11.963824 -9.051605
62.417317 36.262178 -3.283486
61.838349 53.849126 -45.426193
61.901288 34.283246 -5.156510
48.564103 16.454174 -16.248785
62.714313 50.313652 2.214383
60.801752 56.670916 -1.540057
48.721032 16.562429 -11.743101
34.500621 11.491160 -50.084796
53.565175 20.546965 -36.158513
45.492347 14.677222 -37.630532
63.138038 47.530461 -17.351488
62.730911 50.219283 -36.280146
47.871755 16.036148 -2.227409
39.057188 12.366664 -31.079817
43.405451 13.675078 -30.737144
56.521309 23.889430 -61.074918
60.988426 31.709569 -15.230124
59.868696 58.696722 -20.736028
50.432141 17.807494 3.140500
61.609908 33.461461 -49.555355
59.488925 28.514668 3.870707
38.825392 12.322127 -54.376013
63.324143 44.154379 -20.369501
62.326480 35.913823 -33.441636
62.777615 49.953762 -21.855876
62.806720 38.141912 -45.763189
35.474535 11.678289 -15.674244
56.556150 23.932141 -30.432782
46.629345 15.286006 -40.872117
34.957263 11.578900 -46.598848
63.036213 48.483568 -57.194475
54.300922 21.305599 -16.878626
45.577791 14.719273 -38.389232
63.324961 43.818705 -7.045067
60.372638 30.334178 -26.633251
63.181043 47.044541 -20.855035
62.407037 36.222754 -22.723771
53.775934 20.764281 -58.814511
62.667818 37.328981 -23.132400
48.057707 16.148422 -5.334293
61.227886 32.384582 -21.727908
48.763257 16.593154 -25.537668
39.347444 12.422434 -39.536682
58.455055 26.677541 -28.359864
63.106852 47.882838 -31.360551
56.282430 23.596593 -14.768876
58.964431 27.582672 -15.929299
48.586647 16.467786 -59.536435
47.075803 15.555568 -31.860480
40.706059 12.683480 -54.298418
42.615139 13.367153 -36.711999
43.647537 13.769401 -36.563099
60.587662 57.135738 -11.466446
63.230515 46.485559 -13.476234
59.826995 58.787260 -22.723942
58.398676 26.577359 -26.872375
58.747891 27.197893 -54.703699
54.133023 21.132478 -56.149988
61.455955 33.027484 -52.166128
42.187752 13.200632 -54.194415
60.220277 57.933386 -13.328052
61.703585 33.725527 2.160405
40.289909 12.603520 -48.809007
45.945568 14.900275 -52.243988
54.095645 21.093937 -7.561183
62.660940 50.617087 -49.613326
63.093193 39.825729 -16.834276
63.269404 41.933556 -40.946256
52.364043 19.418563 -44.322380
60.330963 57.693071 -17.056366
61.320106 32.644541 -1.223028
58.379996 26.548571 -29.246963
61.789801 53.983887 -27.498886
63.287358 42.148327 -8.595145
49.586112 17.191893 -30.813001
62.372286 36.089488 -1.399073
63.064694 48.321646 -5.028910
62.878905 38.564376 0.034540
61.269725 55.427548 -2.850755
61.065348 31.926404 -33.845818
62.429338 36.308277 -22.077999
62.352693 51.930021 -0.903150
40.513351 12.646453 -24.239065
54.263164 21.266667 -29.756377
53.162023 20.131273 -8.498522
63.326959 42.998471 -0.039145
50.419560 17.798340 -21.932201
62.689208 50.456380 -6.828683
35.637734 11.709647 -4.803549
57.757993 25.636289 -6.795161
60.668742 56.959702 -16.794042
60.934229 31.569277 -22.125247
63.139728 47.511365 -19.218225
39.760998 12.501895 -54.694110
62.442041 36.356993 -52.153921
46.841845 15.414309 -41.832395
63.036798 48.480241 -9.107779
61.303114 55.334866 -29.469773
60.384547 57.576732 -12.625739
46.309421 15.092842 1.145371
49.987474 17.483939 -52.708014
60.633614 57.035969 -6.677091
60.594689 57.120481 2.383735
54.264491 21.268035 2.559684
62.739612 50.169818 -11.299252
60.652712 30.950141 -39.050274
63.002418 39.287239 -56.778659
63.007263 48.648156 -18.973969
45.084873 14.476685 -49.862230
41.389311 12.889540 -55.965616
62.226105 52.405962 0.334791
63.233969 41.509683 -48.472754
62.449768 36.386624 -11.851573
46.717471 15.339214 -15.096787
61.406972 55.046570 -51.164179
38.199247 12.201818 -35.777763
62.634794 37.135709 -29.499291
40.393343 12.623394 0.131118
40.054619 12.558312 -26.881145
42.062174 13.151704 -26.287452
63.171795 47.149034 -39.678671
63.326167 43.323800 -30.488393
51.755749 18.890562 3.807526
46.633937 15.288778 -17.504095
38.290492 12.219350 -31.055614
63.102382 47.933341 -21.133278
61.961869 34.515568 -15.652065
62.195521 52.520952 -44.942933
63.234101 46.445039 1.942582
63.099346 39.899334 -34.834652
55.268841 22.354053 -30.182411
53.830616 20.820664 3.877110
63.093227 39.826136 -30.175538
47.505711 15.815138 -51.379006
37.907235 12.145711 -4.371545
60.477045 30.563798 -22.544787
40.238833 12.593706 -15.536097
35.105147 11.607315 -20.193507
55.318806 22.415305 -32.821647
41.273695 12.844493 -12.851896
50.294183 17.707111 -20.305774
62.340109 35.966091 -26.911696
37.803552 12.125789 -37.726536
43.724371 13.807116 -58.219554
62.255955 52.293735 -1.817849
54.271978 21.275755 -58.444301
61.002769 31.749999 -27.672409
55.322901 22.420325 -26.576686
51.771194 18.903967 -20.053486
59.248304 28.087099 -54.267178
62.631958 50.781856 -37.774909
63.077268 48.217107 -47.116631
51.000033 18.234597 -7.431410
55.184764 22.250985 -8.907962
63.324591 43.970508 -24.414646
57.981085 25.963494 -21.955017
39.787162 12.506922 -37.829508
63.321087 45.408879 -14.604886
44.157259 14.020161 -32.718279
59.807846 29.092039 -9.358050
59.913711 29.324865 -21.908456
40.301832 12.605811 -54.947685
41.408284 12.896932 -45.689909
62.111577 52.836562 -47.274123
61.417699 55.016794 -2.499027
63.325842 43.457187 -60.333655
60.792421 56.691176 -15.357852
36.692711 11.912351 -28.314801
57.711655 25.568325 -28.132602
41.701942 13.011349 -26.992865
38.895692 12.335634 -39.946151
53.887598 20.879419 -16.348651
51.289711 18.486038 -45.257637
60.875174 31.439399 -25.161392
53.609085 20.592241 -46.046101
51.513668 18.680434 -55.178901
39.849203 12.518843 -31.360553
63.139476 40.379362 -37.294027
50.897750 18.146289 -50.543119
59.845950 29.175841 -58.569718
49.270675 16.962369 -32.862713
51.017936 18.250137 -29.668787
44.831547 14.352011 -50.671659
53.670488 20.655555 -40.687137
58.189739 26.269523 -12.589163
53.689074 20.674718 -23.042725
44.899800 14.385602 -4.294202
61.474124 54.860166 -9.822500
62.692196 50.439392 -37.411075
63.196124 41.056986 -31.045563
63.288453 45.830909 -7.475693
54.263679 21.267198 -60.784274
59.131207 27.879024 1.029281
62.810375 38.163300 -3.017579
62.617810 50.862296 -19.885573
54.022492 21.018508 -47.258491
62.991795 48.736093 -16.352184
60.669253 30.986519 -53.042489
44.814610 14.343675 0.499821
52.180619 19.259350 -22.411177
43.941530 13.913991 -7.959757
62.088043 34.999437 -1.094131
61.160700 32.195191 -11.397192
62.693125 37.477092 -50.642484
56.410152 23.753166 3.117139
63.111296 40.042271 -19.832314
63.099192 47.969385 -5.409595
61.961406 34.513792 -28.956581
60.974029 31.668986 -3.074059
48.135945 16.195661 -59.156303
60.010967 58.387831 -18.674081
45.733486 14.795899 1.017874
63.289905 42.178785 -58.575711
59.715471 59.029396 -6.722435
63.089169 39.794954 -22.786887
60.449681 30.503617 -52.461587
63.115161 40.088514 -4.074372
61.433706 54.972361 -59.897158
63.303968 42.347007 -4.839533
62.812373 38.174995 -24.615273
63.199480 41.097134 1.039004
61.057456 56.016779 -34.397163
59.850493 29.185832 -29.211843
51.121099 18.339682 -47.848458
63.322958 44.640889 -6.102684
58.898668 27.465815 1.500192
44.588155 14.232226 -23.115542
54.794836 21.814878 -29.784324
63.092199 39.813836 -57.006719
59.088107 27.802437 -45.504712
63.297193 42.265972 -44.489081
61.303874 55.332755 -42.679716
52.492879 19.530393 3.070173
55.929267 23.163657 -13.330013
61.986207 53.307925 -25.172065
62.759288 50.057953 -34.725231
53.709124 20.695393 -5.051640
61.438758 54.958335 -17.592323
63.325147 43.742531 -4.005223
60.941609 56.338355 -2.446562
63.325046 43.783967 -59.934192
62.098037 52.887470 -29.619209
63.027964 48.530464 -35.184416
59.453875 28.452386 -12.999165
62.470751 36.467092 -0.852605
52.450199 19.493347 -16.032609
62.636520 37.145809 -36.403399
57.075094 24.634692 0.148532
52.673192 19.686905 -9.496001
62.074620 52.975511 -5.679555
59.388275 28.335819 -39.248850
63.323746 44.317538 -2.083712
43.252932 13.615653 -19.643433
60.483594 30.578202 0.583168
38.952100 12.346472 -21.329665
41.279569 12.846782 -31.424556
60.813589 31.303954 -15.783007
43.151927 13.576299 -51.678545
63.107987 47.870006 -23.645400
54.026482 21.022623 -20.389307
35.870992 11.754465 -50.147250
63.271747 41.961587 -30.848745
51.751773 18.887110 -16.249315
56.555490 23.931333 -36.457577
60.983619 56.221739 -5.547405
54.353917 21.360243 -11.096144
38.050324 12.173204 -43.968101
55.678085 22.855738 -46.376741
63.322743 44.729126 -24.129737
35.367887 11.657798 -53.253153
63.324163 44.146061 -53.440125
61.738332 54.126757 -23.087963
35.941136 11.767943 -44.755587
35.541686 11.691192 -4.297572
61.959537 34.506628 -10.508214
63.322965 44.637797 -48.120600
51.001557 18.235920 -14.067514
35.970248 11.773536 -44.013445
54.228256 21.230673 -57.376147
57.458699 25.197318 -53.320106
50.435126 17.809666 -6.197037
62.709234 50.342528 -48.928939
59.827043 58.787156 -28.581098
61.611175 33.465032 -46.494976
61.635664 54.411751 -49.233409
55.789503 22.992324 -13.984781
57.724599 25.587310 -18.632355
61.272263 55.420505 -4.876504
63.198765 46.844298 -24.905868
57.285276 24.942962 -18.331604
58.797244 27.285592 -7.274718
40.445093 12.633338 -19.812443
61.646468 33.564520 -7.905559
53.356504 20.331803 -38.247327
56.236188 23.539906 -5.458898
46.771214 15.371664 -55.739617
59.951880 58.516117 -37.748396
63.294638 42.235407 -53.244240
45.571790 14.716320 -26.415746
61.317058 32.635947 -22.490789
61.990911 34.626942 -36.491191
59.099944 27.823472 -52.740783
63.183857 40.910244 -16.021860
39.560888 12.463446 -11.142970
48.979798 16.750717 -3.609286
42.753596 13.421099 -41.933162
62.498486 36.573454 -1.995801
57.054318 24.604219 -13.816544
62.803008 38.120187 -30.742414
46.462211 15.185094 0.633853
62.216316 52.442769 -8.318493
62.894531 49.289067 -3.794571
43.015619 13.523190 -11.970004
63.238877 46.391073 -36.396219
61.290299 32.560518 -10.262269
63.118140 40.124141 -2.360956
61.276113 55.409816 -51.707180
46.285249 15.078248 -51.947107
44.662334 14.268733 -42.868524
63.236565 46.417194 2.619994
50.746548 18.036269 -37.245893
58.220512 26.314659 -19.150707
61.249380 32.445170 -60.883483
63.325378 43.647393 -17.453588
61.835256 53.857712 -15.985639
61.345068 55.218407 -43.211136
59.547201 28.618221 -9.410045
59.186205 27.976752 2.063244
57.060112 24.612717 1.443566
62.958048 39.027566 -51.750661
61.860879 53.779129 -48.463126
35.871055 11.754477 -12.228643
62.642413 50.722418 -9.999487
58.868059 27.411425 -53.364982
62.963039 39.056776 -27.055425
62.978500 48.811677 -17.009822
49.426128 17.075483 1.547471
62.027035 34.765478 -32.218534
59.003616 27.652302 -22.118418
63.066819 39.664150 -12.190230
44.423205 14.151046 -8.087804
61.780351 33.941923 -22.125613
63.245716 41.650205 -32.932338
60.890130 56.479035 -10.517083
63.307282 42.386655 -7.584715
49.724088 17.292289 2.356223
63.321632 45.185249 -50.617851
60.724516 56.838609 -24.959553
46.046471 14.949934 -38.185665
61.979436 53.333383 -15.675724
42.020838 13.135599 -24.951579
44.422993 14.150942 -45.258997
44.243153 14.062434 -15.562480
62.046838 34.841420 -38.584754
58.986096 27.621170 -29.587302
50.146225 17.599452 -32.447144
61.992231 34.632004 -28.261005
62.634824 37.135887 -34.001900
61.935068 53.500195 -5.842503
60.346156 57.660085 -32.402903
59.760715 58.931164 -25.531110
63.193336 46.905646 -22.644707
63.321594 45.200905 -44.980234
53.265634 20.238106 -13.520915
61.001346 56.172533 -6.895926
48.869931 16.670774 -18.094509
39.441435 12.440494 -11.713832
51.170368 18.382449 -12.803729
62.980169 39.157027 -34.733310
63.190468 40.989332 -49.155550
54.848454 21.870164 3.310351
61.890358 34.252019 -37.539170
53.273453 20.246169 -44.428265
63.324156 44.149302 -19.776871
60.602097 30.838823 -50.050583
59.873092 58.687178 -54.013762
59.884919 58.661498 -1.946835
36.258150 11.828854 -23.918391
55.182529 22.248245 -14.792322
59.923312 58.578141 -8.504365
61.068206 31.934461 -27.074094
62.699723 37.515709 -5.074266
63.309181 42.409369 -59.400488
51.878234 18.996879 -4.602601
57.321369 24.995898 -22.189206
58.329265 26.474164 -40.706361
43.655426 13.773185 -6.019261
60.840559 56.586662 2.575326
58.801015 27.292292 -58.595535
46.787861 15.381715 1.785419
50.487920 17.848081 -32.770307
61.914044 34.332164 -47.321401
55.748718 22.942326 -55.294319
36.450757 11.865862 -3.740831
38.569066 12.272876 -58.534125
63.321647 45.178789 -58.376839
34.635394 11.517056 -60.089384
59.709688 59.041951 -19.886446
63.075082 48.241806 -49.545700
58.346283 26.499124 -18.450244
52.633246 19.652231 -15.338411
53.079633 20.046320 -31.074694
62.661504 37.292030 -18.073662
56.017676 23.272036 -18.486131
62.115429 35.104459 -25.341841
56.754586 24.175401 -28.805754
62.591153 51.013845 -52.057091
60.711514 31.079463 -3.615652
63.110052 40.027394 -54.093733
63.324903 43.842567 -25.817699
62.334690 51.997710 -37.705737
63.324988 43.807499 -27.051866
63.158886 47.294897 -31.027975
48.574570 16.460494 -61.014275
63.326778 43.072671 -0.654771
58.877403 27.428030 -2.500741
51.690231 18.833691 1.954575
63.327279 42.867034 -13.699502
53.191780 20.161956 -20.637562
41.429210 12.905086 -44.433363
63.151408 40.522094 -32.453899
60.423310 30.445620 -51.747635
47.780291 15.980924 -31.550188
57.886172 25.824287 -43.682095
61.355173 32.743390 -12.831702
43.499764 13.711825 -21.640258
58.905080 27.477209 -10.814792
55.344838 22.447216 -57.311518
39.020236 12.359564 -16.985074
48.886955 16.683161 -44.238960
62.619924 50.850276 -11.617940
62.782006 37.997271 -6.416981
61.162349 55.725611 -41.566227
62.589350 36.921909 -51.447662
52.510526 19.545710 -47.536542
42.258555 13.228219 -19.385101
37.837470 12.132306 -42.867791
47.715760 15.941961 -8.374144
61.527534 33.229259 -8.295791
60.738070 31.137867 -30.367332
60.819494 56.632396 -26.668740
62.396288 36.181531 -59.653398
38.608474 12.280448 -17.776413
62.269376 35.694834 -58.752308
63.163818 47.239168 -6.171007
62.249176 52.319220 -29.664034
61.336178 55.243084 -6.589803
47.446136 15.779168 -12.174356
49.076213 16.820872 -11.099600
42.874325 13.468138 -49.687864
40.148835 12.576414 -32.272892
55.758203 22.953953 -21.009701
57.665644 25.500842 -8.484291
62.788042 38.032601 -53.571818
61.095788 32.012211 -24.665383
52.823529 19.817399 -32.549276
62.722190 37.647198 -10.557920
63.234757 46.437628 -15.868893
60.839702 31.361386 -59.928870
61.186103 32.266800 -1.836709
45.907902 14.881737 -35.869014
44.285250 14.083152 -17.261920
63.324400 44.049070 -34.718164
50.088793 17.557662 -28.824039
50.203363 17.641027 -11.639118
63.259752 41.818100 3.764132
48.898525 16.691580 -53.348075
62.155865 35.259528 -37.514728
62.881568 49.362765 -36.947144
63.325938 43.417542 -23.857887
62.987120 48.762674 -12.307583
48.657451 16.516166 -0.460719
62.243390 35.595181 -60.804819
61.163421 55.722635 -33.035612
35.108535 11.607966 -28.968911
63.070640 39.686511 -34.172322
37.095424 11.989729 -38.408794
60.672581 30.993838 -52.486886
59.314276 28.204326 -13.527824
63.194394 46.893689 -16.140815
63.327488 42.781419 -19.452644
59.356499 28.279355 -47.081974
39.992431 12.546363 -51.914446
61.790528 33.970611 -18.985619
61.374415 55.136944 2.000837
61.345909 32.717277 -11.117602
56.528473 23.898212 -25.585936
62.304052 52.112900 -5.806416
59.053758 27.741401 -55.403508
61.225359 55.550702 -52.739067
36.697366 11.913245 -3.286961
41.140591 12.792632 -60.014422
59.985081 58.444032 -28.138635
60.375181 30.339771 -16.409591
44.273073 14.077158 -41.043699
53.934652 20.927936 2.298051
63.134250 40.316855 -35.445875
37.421591 12.052399 -58.512154
51.299048 18.494143 -48.666498
60.273534 57.817758 -48.830961
37.751289 12.115747 -23.928359
57.664422 25.499049 -12.464273
62.227962 35.536016 -4.285073
61.076076 55.965092 -14.822595
35.053219 11.597337 -4.679638
63.231188 46.477956 -34.273570
45.583432 14.722049 -33.157568
46.402470 15.149023 -3.535611
43.891823 13.889527 -24.612489
62.051896 34.860814 -49.695191
56.353160 23.683300 -38.534932
62.361738 36.049035 -30.018956
62.185563 52.558393 -25.120382
61.962089 34.516414 -25.112329
63.071691 48.280128 -32.939529
59.480850 28.500319 -8.906796
60.216013 57.942645 -57.269636
62.167204 52.627416 -9.202319
58.630845 26.989909 -5.158423
63.292036 42.204285 -56.686314
63.322270 44.923043 -34.512109
43.169783 13.583256 -7.414905
41.425418 12.903608 -16.983938
58.029234 26.034113 -1.225405
55.868416 23.089061 -10.743447
44.622492 14.249125 -9.015192
61.911579 53.588510 -51.160591
39.268888 12.407340 -34.503539
62.109213 52.845450 -36.958055
42.505714 13.324518 -56.151305
49.706909 17.279789 -39.241355
62.892726 38.645266 -38.184690
40.203060 12.586833 -41.496913
60.694652 31.042379 0.830778
38.612252 12.281174 -59.222923
63.201226 41.118011 -50.860906
62.565714 51.129111 -40.994507
45.242956 14.554485 1.131939
62.651448 50.671056 -50.769923
52.668650 19.682963 -56.239085
59.047025 27.729437 -49.427851
47.929132 16.070791 -48.379265
58.533787 26.817443 -32.008649
63.295215 45.754503 -38.791066
61.647701 33.567995 -14.097382
63.097519 47.988295 -20.239003
35.210219 11.627504 -25.167655
43.327966 13.644888 -49.503137
39.944862 12.537223 3.657757
58.468386 26.701230 -9.132123
62.322934 52.041906 -39.990812
44.956649 14.413579 -51.639810
56.139357 23.421202 -6.117031
62.639253 37.161803 -42.275814
60.348542 57.654903 -34.383176
39.214805 12.396949 -51.875756
63.321377 45.289765 -3.629073
61.766222 54.049340 -55.742363
39.793159 12.508074 -0.812826
53.539422 20.520411 -20.192354
63.302456 45.672686 -58.605416
56.385212 23.722591 -29.814743
62.492236 51.405373 -60.891769
61.683039 33.667609 -10.738557
61.394056 55.082421 -34.581065
59.956704 58.505643 -43.281157
35.295388 11.643868 -32.414308
63.248387 41.682149 -14.084988
63.258188 41.799395 -18.150919
62.872211 38.525200 -40.747808
49.435819 17.082534 -52.508197
43.520248 13.719806 -41.168265
37.329542 12.034712 -31.555381
63.054265 48.380939 -44.208745
37.529777 12.073186 -44.340927
38.635457 12.285632 -30.644273
42.401843 13.284047 -55.412430
62.458182 51.533407 -59.989142
61.692306 33.693733 3.757125
61.766867 33.903911 -27.983399
34.645723 11.519041 -41.063116
61.688837 54.264151 -7.264685
57.084078 24.647868 -44.764169
62.968561 39.089092 -10.214564
63.323121 44.574047 -35.152043
41.795895 13.047955 -50.852034
35.306106 11.645927 -13.285133
55.794827 22.998850 2.809749
54.749208 21.767830 -47.176077
61.310243 32.616736 -13.567106
63.303871 42.345851 1.526213
48.560550 16.452029 -1.140497
46.950269 15.479773 -46.240911
36.935974 11.959092 -15.537995
50.625159 17.947941 -31.172427
36.976201 11.966821 -20.477901
36.043289 11.787570 -14.014557
47.121948 15.583430 -41.287450
60.733495 56.819113 -10.887118
61.982420 34.594381 -49.138451
60.984263 31.697835 -24.194000
63.327489 42.781177 -28.587573
45.243266 14.554638 -48.404905
63.106133 39.980514 -55.712861
61.227960 55.543482 -15.064106
63.323758 44.312310 -40.340026
60.776969 31.223416 -39.947390
62.759150 37.863505 -15.044747
43.969570 13.927790 -2.073866
35.074969 11.601516 -33.040477
35.174921 11.620721 -27.137219
60.786660 56.703684 -33.035269
41.393648 12.891230 -3.170912
58.222588 26.317703 -50.500163
63.271510 41.958745 -35.873825
59.851829 29.188769 -2.459935
38.830884 12.323182 1.549471
63.147857 40.479614 -36.478839
60.998628 31.738326 -57.601525
63.109311 40.018532 -12.625244
63.326077 43.360755 -28.617966
60.289804 30.152003 0.408448
53.563319 20.545052 -19.274434
61.825290 53.885376 -2.653072
39.132830 12.381198 -47.015227
41.686025 13.005147 -40.348373
62.635420 37.139373 -28.779167
63.280498 45.920792 -22.243535
61.980445 53.329588 -55.257011
62.505158 51.356788 -28.970459
60.779170 56.719946 -56.364474
62.003168 34.673950 -25.943995
58.681781 27.080419 -33.099124
47.927695 16.069924 -3.438241
46.040383 14.946938 -32.166595
55.487702 22.622351 -53.154395
42.911489 13.482618 -52.734346
38.187278 12.199519 -21.480444
35.742963 11.729865 -56.001761
43.211765 13.599613 -57.234937
62.285126 52.184058 3.312019
62.322839 52.042264 -25.045730
62.329833 35.926682 -44.346158
63.326699 43.105189 -52.023253
56.372209 23.706651 -37.343202
62.432378 51.630423 -31.657132
51.522351 18.687971 -57.402496
62.535551 36.715596 -22.488754
49.154882 16.878114 -25.773158
62.791982 38.055656 -30.094154
59.166407 27.941573 -42.538785
54.555171 21.567757 -31.681889
47.853499 16.025126 -39.180612
60.624984 57.054706 -12.751468
59.221934 28.040240 -38.716965
50.661026 17.974040 -14.717330
63.090174 48.071278 -2.858161
59.608987 28.728011 -42.804004
36.544826 11.883936 -19.352493
63.321616 45.191875 -35.052862
34.608738 11.511934 -53.692856
52.489558 19.527510 -0.765299
49.729706 17.296377 -44.592651
61.057031 31.902960 -39.634774
62.108771 35.078926 -22.700229
61.823383 53.890670 3.731421
48.755089 16.587210 -41.303740
62.740447 37.754046 -26.768380
63.237008 46.412192 -27.662016
60.532095 30.684870 -57.811440
48.809732 16.626971 -39.419323
47.884097 16.043600 -1.598011
56.365182 23.698038 -39.402955
62.960773 48.912465 -42.878191
62.257079 35.647675 -27.399338
56.752257 24.172545 -29.941602
57.685313 25.529690 -53.043719
43.773102 13.831099 -19.489199
47.071140 15.552753 -28.791771
38.901894 12.336826 -20.107612
62.932369 38.877276 -36.277657
45.295527 14.580358 -47.174123
63.186594 40.942989 -58.095303
62.951479 48.965300 -32.060705
46.739494 15.352512 -50.717466
39.417809 12.435954 -22.963648
62.972568 48.845404 -5.639354
63.135446 40.331154 -5.547590
61.858038 53.789810 -18.981573
46.177830 15.014582 -38.701636
60.973881 56.248771 -43.418869
58.893269 27.456222 0.013256
63.197461 41.072978 -56.212233
61.092634 55.919129 -52.228894
63.240111 46.377124 -47.294439
42.304466 13.246107 -52.507647
62.086533 34.993646 -61.058286
37.689494 12.103874 -21.333532
39.125826 12.379852 -58.808184
62.691095 37.465214 -48.660645
61.376123 55.132203 -44.949774
61.751038 54.091489 -52.587428
61.684097 54.277309 -54.735928
52.844105 19.835258 -17.037529
63.148156 47.416135 -22.920307
63.322869 44.677562 -27.217647
55.869364 23.090223 -53.865075
63.179180 40.854299 -33.349896
59.738312 58.979804 -1.465583
48.816424 16.631840 -5.829065
63.144397 47.458610 -46.892968
63.279766 42.057510 -53.929252
58.753200 27.207328 -47.582659
38.489365 12.257562 -14.868348
56.644654 24.040636 0.706861
60.496442 30.606458 -37.305385
45.044788 14.456957 -60.399342
63.326768 43.076978 -29.966387
63.163167 40.662750 -30.673581
62.948635 38.972476 -38.654067
60.174099 58.033645 -50.046041
62.690315 37.460647 -41.612628
60.912151 31.520721 -19.076917
59.840144 58.758713 -17.298289
46.061066 14.957116 -54.332943
58.969567 27.591800 -31.424516
62.209156 52.469688 -20.974021
62.743702 37.773096 -40.419961
54.360919 21.367463 -5.766898
62.647569 37.210477 -26.536159
62.674637 37.368894 -14.582318
60.552486 57.212110 -28.472586
63.270753 41.949691 -28.821887
61.639568 33.545070 -13.461340
42.338752 13.259466 -34.307312
63.199551 46.835424 -38.294975
63.250636 46.258206 -18.890710
61.693140 54.252205 -26.884053
52.014142 19.114847 -11.348424
52.700513 19.710619 -30.184707
56.655866 24.054382 -46.458886
57.809821 25.712304 -56.051840
42.196053 13.203867 -41.215912
55.004579 22.031146 -32.668370
63.101618 47.941975 -17.748087
63.273366 46.001373 -34.632137
62.891481 38.637981 -1.189885
36.284355 11.833889 -45.451380
63.238043 46.400501 -4.979519
49.230811 16.933363 -13.614423
62.915610 49.169223 -60.324117
62.795207 38.074530 -1.679360
63.115476 40.092272 -23.393756
40.711263 12.684480 -22.702103
36.304027 11.837669 3.509283
43.498688 13.711405 -44.996600
62.862018 49.473909 -12.823554
63.247761 41.674661 -53.094459
36.010313 11.781234 -4.404015
62.697385 37.502024 -43.099419
41.043738 12.754896 -23.386024
61.115818 55.854774 -49.612667
44.001880 13.943692 -54.999425
39.380640 12.428812 -46.448655
61.493843 33.134285 2.027100
46.220370 15.039075 -21.353664
55.706371 22.890413 -41.184019
45.735062 14.796674 -48.506556
34.762166 11.541414 2.677385
44.112019 13.997896 -21.640551
55.495577 22.632005 1.428474
62.965903 48.883296 -38.392168
62.845666 38.369844 -9.861293
61.993970 34.638673 -21.273288
43.765403 13.827310 -25.085868
53.206883 20.177528 -55.147569
46.631816 15.287497 -39.705369
44.310793 14.095723 -29.453295
61.895024 53.650752 0.700693
62.957010 48.933854 -27.307891
60.378288 57.590322 -45.870751
36.480379 11.871553 -22.226945
39.864957 12.521870 -22.489031
53.359656 20.335053 -5.016068
61.264542 32.487911 -27.031322
41.864145 13.074547 -42.923394
58.077594 26.105043 -59.599642
62.461848 36.432950 -42.083639
63.301397 42.316252 -11.785481
60.121450 58.147955 -17.010229
54.621459 21.636108 -56.303658
57.752569 25.628333 0.253979
62.683522 37.420892 -39.566271
42.658972 13.384231 -34.913638
49.379108 17.041269 -61.101173
37.665271 12.099220 -39.381098
62.119749 52.805838 -17.390396
62.752121 50.098701 -33.773115
62.085752 52.933658 -20.642363
42.849268 13.458375 -38.413922
61.582378 33.383858 -55.065000
62.731516 50.215847 -7.925171
36.990417 11.969552 -39.584032
47.787329 15.985174 -40.950206
61.149289 32.163025 -16.868039
45.355920 14.610080 -34.540248
54.889764 21.912759 -39.348890
62.370143 36.081269 -40.687304
40.448759 12.634042 -10.364704
50.978967 18.216312 -8.254747
63.325882 43.440577 -24.513846
63.297209 45.731977 -26.588650
34.764429 11.541849 -44.419708
61.031252 56.089519 -13.676757
36.961437 11.963984 -59.407992
36.919597 11.955945 -18.969870
52.211738 19.286361 -3.785748
41.415859 12.899884 -12.341283
36.862092 11.944896 -36.723419
48.444820 16.382154 -10.002061
63.085692 48.121923 -13.964377
62.786715 38.024834 -12.396986
60.047055 58.309478 -37.288327
45.209054 14.537800 -37.136152
52.169435 19.249642 -7.886407
63.321142 45.386322 -27.650136
53.762617 20.750550 -1.709198
62.322537 35.898701 -53.161474
48.073853 16.158171 -16.577804
42.275466 13.234808 -44.575258
59.718126 59.023631 -36.220937
63.073687 48.257569 -43.516287
54.748734 21.767342 2.068422
62.099477 52.882055 -2.202077
63.146411 47.435852 -47.429079
56.375257 23.710388 -49.935136
60.374049 57.599524 -42.156061
62.843436 38.356792 -34.346465
60.087602 58.221443 -6.113253
60.835336 56.598001 -50.544445
35.434249 11.670549 -33.494500
61.132111 32.114602 -8.558833
59.759325 58.934183 -0.796123
62.204399 52.487571 -47.930646
63.323896 44.255786 -51.541374
62.782749 49.924573 -41.089984
63.321339 45.305350 2.845698
61.516120 54.743590 -28.693573
63.127368 40.234529 3.651429
57.621328 25.435845 -46.012607
63.060430 39.626759 -19.327306
62.774058 37.950757 -58.676249
63.126002 47.666462 -16.833036
61.558365 54.626324 -43.157750
59.852078 58.732802 -27.706178
63.323619 44.369661 -30.993905
36.784960 11.930076 -0.488634
47.007940 15.514594 -9.306719
62.990480 39.217374 -25.626003
62.487092 51.424713 -27.565224
60.563552 30.754052 -4.077377
62.975548 39.129985 -48.626905
61.568848 54.597222 -32.960189
40.571184 12.657565 -36.312837
61.459542 54.900643 -57.430832
48.212870 16.242107 -52.839610
61.899317 53.634613 -52.725943
45.750084 14.804067 -21.705397
35.611731 11.704650 -40.113997
61.828311 53.876989 -25.948200
34.602880 11.510809 -37.683154
61.904594 34.295925 -35.025265
43.677801 13.784197 -17.439252
62.547373 36.760931 -6.374405
62.555282 36.791262 -28.355515
62.904842 49.230442 -53.279811
45.975920 14.915212 -50.869396
62.796138 49.848455 -57.700269
47.922531 16.066806 -25.995453
59.943695 58.533888 -60.824044
56.968647 24.478567 -54.254658
