9.578063 -21.825872 -44.632819
11.391930 -21.711907 -17.297481
8.542129 -21.890959 -49.400539
10.937399 -21.740465 -6.982939
9.479545 -21.832062 -6.791503
11.738899 -21.690107 -1.802199
5.660057 -22.072039 -11.193068
7.698442 -21.943968 -3.080705
5.010380 -22.112858 -1.138225
11.615213 -21.697878 -38.201616
7.791697 -21.938109 -12.313849
9.055551 -21.858701 -45.572860
11.998640 -21.673788 -31.588764
11.576372 -21.700318 -22.784709
8.954988 -21.865019 3.852992
9.839376 -21.809454 -33.310552
6.081980 -22.045530 -44.730374
6.321125 -22.030504 -22.736812
6.334041 -22.029693 -14.025627
11.682714 -21.693637 2.964440
7.738667 -21.941440 -17.926602
7.600015 -21.950152 -1.687385
9.490422 -21.831378 -43.234056
7.605070 -21.949834 -52.394928
8.317527 -21.905071 -53.963124
7.800975 -21.937526 -56.171371
6.290321 -22.032440 -8.006913
11.999985 -21.673703 -25.779904
12.065181 -21.669607 -47.630392
6.632842 -22.010919 -32.378860
6.112342 -22.043622 -41.489239
10.327587 -21.778779 -45.285308
12.023817 -21.672206 -59.773395
10.145937 -21.790192 -8.401944
11.356942 -21.714105 -18.340543
9.625278 -21.822905 -40.569224
10.940821 -21.740250 -16.856036
4.867522 -22.121834 -56.528593
7.755695 -21.940371 -14.115896
4.904186 -22.119530 -43.724918
10.313323 -21.779676 -19.870283
8.295825 -21.906434 -1.462519
8.064352 -21.920978 -20.024298
11.314455 -21.716775 -51.352583
4.934038 -22.117655 -27.828759
8.614443 -21.886416 -13.237087
7.687925 -21.944629 -35.796185
6.274859 -22.033411 0.625702
4.850496 -22.122903 -44.981699
5.545656 -22.079227 -53.968818
11.352109 -21.714409 -35.670959
5.570072 -22.077693 -37.291059
7.059281 -21.984126 1.814713
7.259432 -21.971551 -42.016806
6.146003 -22.041507 -27.795591
5.677903 -22.070918 -31.263539
7.182425 -21.976389 -57.149997
8.428735 -21.898084 -42.325281
6.988498 -21.988573 0.140494
9.331787 -21.841345 -4.798555
9.084305 -21.856894 -13.537862
6.939983 -21.991622 -36.219513
8.062950 -21.921066 -18.629295
8.914982 -21.867533 -25.113834
11.439966 -21.708889 -11.839071
11.188398 -21.724695 0.275521
7.990519 -21.925617 -34.532625
10.501832 -21.767832 -8.926373
6.729124 -22.004870 -48.571271
5.749571 -22.066415 -13.792082
9.247004 -21.846672 -7.973796
10.130199 -21.791181 -17.493770
11.371971 -21.713161 -41.958553
6.228672 -22.036313 -46.322078
11.310726 -21.717009 -48.109268
10.478959 -21.769269 -26.174931
6.849406 -21.997313 -50.077761
5.294122 -22.095031 -23.549850
6.469220 -22.021199 3.812687
11.410670 -21.710730 -6.451568
7.239634 -21.972795 -19.279152
5.827081 -22.061545 -51.484909
10.349409 -21.777408 -32.443568
4.848386 -22.123036 -41.876277
5.504105 -22.081837 -40.624238
10.737302 -21.753037 -44.657835
8.544363 -21.890819 -5.771259
10.824452 -21.747561 -50.801475
9.040388 -21.859654 -39.591021
8.461040 -21.896054 -38.047398
9.402786 -21.836884 -37.298650
6.194075 -22.038487 -40.388906
5.617533 -22.074711 -42.884327
8.698502 -21.881134 -8.438638
7.845871 -21.934705 -57.816344
8.532069 -21.891591 -48.840353
5.197870 -22.101078 -59.399134
6.960286 -21.990346 0.796156
5.833635 -22.061133 -10.007860
11.160025 -21.726477 -29.946272
9.466911 -21.832855 -21.201148
4.841385 -22.123476 -50.184358
7.666418 -21.945980 -25.119836
6.034136 -22.048536 -16.058119
4.817323 -22.124988 -7.329553
7.151884 -21.978308 -3.386965
10.198050 -21.786918 -3.464428
9.096472 -21.856130 -11.376204
5.988085 -22.051429 -23.511733
9.380078 -21.838311 -31.592186
8.331672 -21.904182 -51.471997
8.866355 -21.870588 -17.813017
8.600296 -21.887305 -55.715169
8.457896 -21.896252 0.329691
9.321876 -21.841968 -26.528988
9.087942 -21.856666 -52.336331
11.610233 -21.698191 -31.032392
7.923151 -21.929849 -10.074713
10.330234 -21.778613 -3.984742
5.558254 -22.078435 -24.103612
4.840341 -22.123542 -19.120398
10.799777 -21.749112 -46.904408
10.517322 -21.766858 -37.339613
7.811177 -21.936885 -15.654650
9.181428 -21.850792 -42.123992
7.971881 -21.926788 -0.291296
5.984529 -22.051652 -20.369468
10.849860 -21.745965 -4.165593
7.778192 -21.938957 -49.089948
6.896742 -21.994338 -32.910639
12.051007 -21.670497 -44.422689
6.462500 -22.021622 2.336697
6.363576 -22.027837 -14.777832
9.027641 -21.860455 -55.334651
5.714255 -22.068634 -56.585736
7.005702 -21.987492 -25.285839
5.853760 -22.059869 -33.935505
5.767329 -22.065299 -59.659698
5.969226 -22.052614 -17.359958
5.522841 -22.080660 -25.717064
7.628020 -21.948392 -3.806867
10.848163 -21.746072 -0.925804
10.405471 -21.773886 2.565408
9.325913 -21.841714 -1.387575
11.141899 -21.727616 -37.846977
5.638525 -22.073392 -60.287849
6.495517 -22.019547 -12.658758
10.040432 -21.796821 -29.216981
11.093433 -21.730661 -5.859462
7.470502 -21.958289 -5.726896
5.002447 -22.113356 -16.168245
11.343905 -21.714924 -21.279852
6.304028 -22.031578 -25.140210
9.498970 -21.830841 -59.538141
8.961008 -21.864641 -59.209773
10.745677 -21.752511 -21.802012
6.883242 -21.995187 -14.253748
10.027322 -21.797645 -0.186774
6.151650 -22.041152 -46.880068
6.187093 -22.038925 -49.720278
8.575150 -21.888884 -27.280259
6.267867 -22.033850 -2.700785
9.574305 -21.826108 -35.146603
9.596502 -21.824713 -55.776317
7.569913 -21.952043 -7.445228
11.563201 -21.701146 -7.889726
6.578395 -22.014340 -58.129568
8.545083 -21.890774 -19.749181
9.446522 -21.834136 -5.474576
6.980126 -21.989099 -42.525491
11.848240 -21.683237 -37.649584
6.177826 -22.039508 -30.526661
10.730063 -21.753492 -47.900801
6.761054 -22.002864 -17.238156
10.695870 -21.755640 -48.563898
9.923475 -21.804170 -23.145352
8.095754 -21.919005 -55.527052
5.414250 -22.087483 -36.615833
11.159203 -21.726529 -1.451066
7.899590 -21.931330 -37.199125
5.723597 -22.068047 -4.767425
5.969944 -22.052569 -3.953930
8.778996 -21.876077 -4.543480
11.163014 -21.726290 -44.191607
4.942782 -22.117105 -26.389960
10.079282 -21.794380 -61.043213
9.167856 -21.851645 -36.037581
6.990008 -21.988479 -6.052511
6.809157 -21.999841 -35.078574
8.642513 -21.884652 -26.576352
11.450397 -21.708233 -56.626073
6.888722 -21.994842 -51.321544
10.045999 -21.796471 -42.995092
8.291007 -21.906737 -6.696558
11.750872 -21.689355 -3.535100
11.903801 -21.679746 -55.257631
8.338730 -21.903739 -13.987973
12.027130 -21.671997 -29.596578
7.206089 -21.974902 -29.745893
10.146648 -21.790148 -38.149332
8.417619 -21.898782 1.402917
9.158703 -21.852220 -53.536421
10.308409 -21.779984 -5.930099
7.677608 -21.945277 -53.012485
5.847063 -22.060289 -17.979222
7.824275 -21.936062 -46.211831
10.558338 -21.764281 -58.885895
11.496191 -21.705356 -60.105907
6.512082 -22.018506 -5.184609
6.608367 -22.012457 -12.006627
11.900184 -21.679973 -13.123483
7.767331 -21.939640 -6.449552
11.463613 -21.707403 -33.010322
8.259565 -21.908713 -35.691658
8.965017 -21.864389 0.574358
10.679441 -21.756672 -8.214386
10.142395 -21.790415 -41.874036
11.933865 -21.677857 -30.541507
9.134335 -21.853751 -17.354451
7.132746 -21.979510 -49.097061
10.084194 -21.794072 -1.944918
6.727886 -22.004948 -27.901034
9.770038 -21.813810 -2.423212
4.953483 -22.116433 -31.512057
8.383983 -21.900895 -25.580401
6.533509 -22.017160 -13.532741
4.835092 -22.123871 -26.975923
9.820657 -21.810630 -31.266736
6.958221 -21.990476 -59.677009
11.049091 -21.733447 -10.446999
6.626784 -22.011300 -35.733003
7.022042 -21.986466 -20.277786
8.906249 -21.868082 -38.378108
10.813966 -21.748220 -20.983438
7.468210 -21.958433 -17.307034
7.547778 -21.953434 1.280449
8.512717 -21.892807 -36.553513
7.356384 -21.965459 -8.583283
11.783612 -21.687298 -2.482117
11.932596 -21.677937 -10.957933
10.244356 -21.784009 0.381555
9.499230 -21.830825 -54.448858
4.975907 -22.115024 -47.940907
4.890373 -22.120398 -3.584435
9.651952 -21.821229 -23.734434
6.057801 -22.047049 -3.337464
8.504755 -21.893307 -46.619415
5.653293 -22.072464 -48.215715
5.109840 -22.106609 -44.497217
10.506883 -21.767514 -19.206003
7.556449 -21.952889 -51.832701
5.507686 -22.081612 -26.290489
5.771383 -22.065044 -25.074239
11.858463 -21.682595 -19.289935
9.124546 -21.854366 -56.875908
8.862405 -21.870836 -32.445582
8.179483 -21.913744 -52.024426
6.875147 -21.995695 -33.503961
10.307328 -21.780052 -28.734495
4.892722 -22.120250 -36.184219
6.552654 -22.015957 -41.099917
10.052671 -21.796052 3.150403
11.102545 -21.730089 3.008770
11.399674 -21.711420 -31.953874
9.191157 -21.850181 -56.268879
9.565953 -21.826633 -17.752889
8.128819 -21.916927 -54.538737
9.661297 -21.820642 -52.523587
9.900186 -21.805633 -47.099334
5.963115 -22.052998 -55.199858
6.364082 -22.027805 -50.292354
8.415448 -21.898918 -58.057664
9.171889 -21.851392 -24.479643
5.489839 -22.082734 -7.531016
9.384409 -21.838039 -7.367592
4.964787 -22.115723 -13.900579
8.014174 -21.924130 -40.858087
8.260742 -21.908639 -12.789026
6.502706 -22.019096 -26.134308
9.997174 -21.799539 -48.050958
5.006266 -22.113116 -46.427555
8.495943 -21.893861 -38.774439
8.278268 -21.907537 -57.002411
6.683797 -22.007718 -38.834930
8.126257 -21.917088 -49.820284
10.665860 -21.757526 -30.416111
5.895004 -22.057277 -1.428128
7.129245 -21.979730 -28.393306
8.379207 -21.901196 -59.268916
10.815399 -21.748130 -28.418173
6.030011 -22.048795 -42.425247
11.186798 -21.724795 -49.909791
7.762059 -21.939971 -47.101291
7.574646 -21.951746 -33.054246
9.711636 -21.817479 -9.040145
11.765976 -21.688406 -5.836117
9.976473 -21.800840 -4.568070
5.375623 -22.089910 -35.183976
8.445671 -21.897020 -24.528769
4.997323 -22.113678 3.541236
7.882848 -21.932382 -41.778594
9.354885 -21.839894 -33.001885
10.094439 -21.793428 -13.197361
11.867221 -21.682045 -54.637253
11.451293 -21.708177 -5.242840
8.837424 -21.872406 -47.111551
10.724692 -21.753829 -50.281961
6.976315 -21.989339 -26.691503
8.196758 -21.912659 -32.135562
7.228433 -21.973498 -48.369128
6.427406 -22.023827 -29.987245
5.494398 -22.082447 -43.986690
5.093299 -22.107648 -16.813188
11.880026 -21.681240 -20.062151
8.399298 -21.899933 -43.059566
8.509442 -21.893013 -57.473193
8.426011 -21.898255 -46.002473
10.337998 -21.778125 -40.891554
7.736538 -21.941574 -53.803506
7.819204 -21.936380 -33.618495
10.490633 -21.768535 -29.596499
6.208898 -22.037555 -42.995146
10.530748 -21.766015 -10.295125
4.912214 -22.119026 -43.147962
8.080783 -21.919945 0.907029
7.651664 -21.946907 3.245659
9.495660 -21.831049 -14.312356
5.662170 -22.071906 -19.865183
11.694463 -21.692899 -39.518528
8.847990 -21.871742 -28.431184
7.711984 -21.943117 -44.446938
11.253282 -21.720618 -34.406787
6.666891 -22.008780 -56.954763
8.671419 -21.882836 2.333177
10.120491 -21.791791 -12.640123
5.483111 -22.083156 -42.132492
8.210231 -21.911812 -52.833069
11.213980 -21.723087 -48.987396
6.369934 -22.027438 -19.900167
8.605062 -21.887005 -56.302756
10.589833 -21.762302 -54.888089
10.131031 -21.791129 -9.521228
7.307887 -21.968506 -45.022601
11.595140 -21.699139 -43.771203
7.098971 -21.981632 -24.656727
9.609921 -21.823870 -21.910718
8.093722 -21.919132 -26.776470
11.684806 -21.693506 -43.224812
8.769923 -21.876647 -23.518703
5.017881 -22.112387 -48.477699
5.612314 -22.075039 -49.796273
5.358336 -22.090996 -22.434495
10.297659 -21.780660 -46.555867
9.224590 -21.848080 -18.263358
8.205604 -21.912103 2.719657
10.568384 -21.763650 -15.230130
8.254191 -21.909050 -45.046423
10.002140 -21.799227 -14.152568
8.746719 -21.878105 -41.701934
5.034320 -22.111354 -32.186592
9.345764 -21.840467 -34.624428
10.607586 -21.761187 -57.713009
4.852593 -22.122772 -5.493707
7.763047 -21.939909 -31.417295
4.947613 -22.116802 -37.651153
11.753550 -21.689186 -40.873958
7.143742 -21.978819 -27.356065
7.762939 -21.939915 -13.114922
7.179434 -21.976577 -1.232061
5.588628 -22.076527 -8.116082
11.668672 -21.694519 -16.657710
8.375184 -21.901448 -48.238170
4.838460 -22.123660 -28.605898
5.124458 -22.105690 -6.144102
11.465855 -21.707262 -47.069383
9.589108 -21.825178 2.650542
10.447676 -21.771234 -51.254693
9.035071 -21.859988 -10.727498
10.127756 -21.791335 -60.226012
10.419857 -21.772982 -55.866833
11.892253 -21.680472 2.183285
7.164276 -21.977529 -11.787071
5.815795 -22.062254 -14.498013
7.488460 -21.957161 -4.510496
5.288454 -22.095387 -38.168474
11.945685 -21.677115 -8.274174
7.132778 -21.979508 -54.907216
5.962962 -22.053008 -26.676796
5.282325 -22.095772 -56.990666
11.869967 -21.681872 -38.903325
10.619627 -21.760431 -16.383046
8.281326 -21.907345 -58.707642
11.206740 -21.723542 -14.821927
8.954676 -21.865039 -11.909135
6.995506 -21.988133 -56.398779
6.066338 -22.046512 -38.818254
9.761941 -21.814319 -18.340792
10.568077 -21.763669 -59.540277
10.224889 -21.785232 -39.934723
9.692273 -21.818696 -39.926128
9.730121 -21.816318 -24.899552
7.198424 -21.975384 -15.656871
6.253944 -22.034725 -24.532373
4.908505 -22.119259 -40.883876
11.019899 -21.735282 -24.303602
7.809454 -21.936993 -42.355240
6.312508 -22.031046 -0.456617
10.872139 -21.744565 -56.885617
11.958758 -21.676293 0.811123
7.538083 -21.954043 -28.042525
6.693326 -22.007119 -7.101505
7.423253 -21.961258 -41.179315
9.083921 -21.856919 -12.916098
4.964581 -22.115736 -24.844413
10.366743 -21.776319 -52.846491
7.350744 -21.965814 -49.639372
5.727368 -22.067810 -52.975857
4.828320 -22.124297 -47.239837
10.782584 -21.750192 -40.361001
11.794687 -21.686602 -20.705695
11.377349 -21.712823 -36.831441
12.063248 -21.669728 -7.363076
7.744788 -21.941056 -24.501456
9.441315 -21.834464 -32.403724
6.578591 -22.014328 -3.696926
7.352483 -21.965704 -14.574974
5.023887 -22.112009 -52.267631
4.836304 -22.123795 -1.972870
7.629853 -21.948277 -39.236397
7.482577 -21.957531 -32.461966
10.397555 -21.774383 -25.603954
9.498867 -21.830848 -12.215465
10.736980 -21.753057 -53.263023
11.253951 -21.720576 -38.640711
6.888059 -21.994884 -23.919660
10.785128 -21.750032 -36.111231
8.022915 -21.923581 -27.585751
11.115753 -21.729259 -43.548639
11.334356 -21.715524 1.153337
6.696327 -22.006930 -49.461525
6.093795 -22.044787 -57.036634
6.299794 -22.031844 -15.462763
7.871064 -21.933122 -5.008886
7.006185 -21.987462 -37.637551
7.301289 -21.968921 -22.901810
5.291139 -22.095218 -51.699434
5.891820 -22.057477 -9.285650
6.390655 -22.026136 -33.832349
6.787901 -22.001177 -60.364062
9.615298 -21.823532 -45.469344
11.898041 -21.680108 -24.804375
9.062023 -21.858294 -1.886716
8.412855 -21.899081 -15.344718
8.679254 -21.882344 -22.775457
5.048057 -22.110491 -22.933685
5.735325 -22.067310 0.236055
8.504844 -21.893302 -37.279321
9.354164 -21.839939 -29.084251
6.964387 -21.990088 -21.020593
8.373360 -21.901563 -12.206029
5.584055 -22.076814 -23.066657
7.742457 -21.941202 -58.869703
9.046102 -21.859295 -52.983454
6.702078 -22.006569 -1.515985
9.763450 -21.814224 1.342352
5.834958 -22.061050 -21.288224
5.369614 -22.090287 -21.641179
5.120506 -22.105939 -60.406579
7.465116 -21.958628 2.625301
12.033034 -21.671627 -32.479245
8.530237 -21.891706 -9.688347
6.527187 -22.017557 -22.205791
6.514849 -22.018333 -9.645129
10.021984 -21.797980 -59.251802
8.346558 -21.903247 -44.511786
7.501527 -21.956340 -60.048085
9.820771 -21.810622 -53.123548
9.872244 -21.807388 -56.389330
8.955456 -21.864990 -59.741701
4.898291 -22.119900 0.860172
7.154326 -21.978154 -38.201129
8.335614 -21.903934 -47.410729
11.794520 -21.686612 -58.079821
5.733269 -22.067439 -16.834447
7.922701 -21.929878 -30.293382
7.225382 -21.973690 -31.143866
7.375182 -21.964278 -13.548081
5.387074 -22.089190 -1.651733
4.910110 -22.119158 -33.217237
6.607961 -22.012482 -18.298196
8.109795 -21.918123 -19.282401
5.126142 -22.105585 -12.250440
8.288827 -21.906874 -50.457466
7.239256 -21.972818 -6.838127
9.818973 -21.810735 -35.735351
6.409593 -22.024946 -27.261625
4.837755 -22.123704 -8.970629
7.958223 -21.927646 -35.095540
8.962741 -21.864532 -34.147315
6.863440 -21.996431 -52.755411
5.678740 -22.070865 -45.115463
6.356893 -22.028257 -57.519177
4.925954 -22.118162 -25.482057
6.084972 -22.045342 -48.583123
4.884545 -22.120764 -2.967314
5.970481 -22.052535 -32.481213
9.607373 -21.824030 -43.964084
7.612777 -21.949350 -29.181198
8.752640 -21.877733 -19.142990
7.123834 -21.980070 3.186155
12.050309 -21.670541 -42.262984
8.424887 -21.898325 -31.271299
10.948521 -21.739766 -17.950771
5.403407 -22.088164 1.491417
11.210196 -21.723325 -47.565185
5.422741 -22.086949 -29.055483
9.154128 -21.852507 -27.919216
8.886816 -21.869303 -16.566173
10.118834 -21.791895 -21.433769
11.195557 -21.724245 -57.821481
8.643642 -21.884581 -18.366562
9.705561 -21.817861 -28.109548
7.321494 -21.967651 -30.493787
10.750571 -21.752203 2.103015
11.353542 -21.714319 -29.132260
5.381708 -22.089528 2.486260
9.283378 -21.844387 -9.607198
7.942456 -21.928636 -39.694471
9.177294 -21.851052 -0.750465
8.760434 -21.877243 2.989628
11.380680 -21.712614 1.988755
6.665975 -22.008837 -44.670196
7.540178 -21.953911 -26.462535
6.714206 -22.005807 1.302718
6.117743 -22.043283 -38.103357
10.740265 -21.752851 -13.763591
7.275765 -21.970524 -22.345857
7.914561 -21.930389 -21.235561
10.140768 -21.790517 -44.774883
9.537319 -21.828432 -58.079444
5.895713 -22.057233 -5.488155
6.669340 -22.008626 -2.229198
11.689430 -21.693215 -58.649499
10.434317 -21.772073 -38.650247
9.812795 -21.811124 -51.559571
4.896771 -22.119996 -57.453832
5.317426 -22.093566 -2.287227
5.583238 -22.076866 -48.926358
9.476892 -21.832228 -30.599594
8.075483 -21.920278 -22.865387
9.632596 -21.822445 -49.572518
10.490193 -21.768563 -23.638101
6.102362 -22.044249 -7.352200
9.764331 -21.814169 3.775999
8.166139 -21.914583 -14.703618
10.986909 -21.737354 -39.393957
11.483328 -21.706164 -46.420932
7.097768 -21.981708 -53.389594
11.925576 -21.678378 -45.991689
8.427696 -21.898149 -5.201193
11.118761 -21.729070 -25.165771
11.986495 -21.674551 -17.378204
6.116435 -22.043365 -37.260648
9.986755 -21.800194 -55.018355
11.802384 -21.686118 -45.266264
8.951834 -21.865217 -51.310501
4.983725 -22.114533 -19.758912
7.291279 -21.969550 -5.183717
10.834990 -21.746899 -60.026666
8.480756 -21.894815 -3.700676
5.425484 -22.086777 -39.832298
11.088324 -21.730982 -41.463652
11.427951 -21.709644 -26.904624
6.745720 -22.003827 -47.295368
11.507697 -21.704633 -53.562248
7.753326 -21.940519 -51.323463
5.938456 -22.054547 -29.396058
10.115193 -21.792124 -30.268117
9.036856 -21.859876 -46.234087
11.446495 -21.708479 -25.697927
10.358069 -21.776864 -49.193984
10.795365 -21.749389 -53.957030
5.431537 -22.086397 -8.725490
9.726848 -21.816524 -19.494652
10.066784 -21.795166 -58.551296
5.003761 -22.113274 -7.898113
9.346179 -21.840441 -20.604079
11.454621 -21.707968 -33.871792
5.764655 -22.065467 -33.053442
11.062344 -21.732615 -9.333900
5.707194 -22.069077 -57.555888
11.847317 -21.683295 -53.967274
11.335097 -21.715478 -42.550930
4.951514 -22.116557 -14.510435
7.571961 -21.951915 -43.817228
8.188134 -21.913201 -21.984830
10.918899 -21.741627 -11.663589
11.282226 -21.718800 -12.515923
5.941522 -22.054355 -6.824250
11.988713 -21.674411 -27.547831
11.912824 -21.679179 -13.795994
8.627575 -21.885591 -29.219914
7.149048 -21.978486 -34.312936
10.677909 -21.756769 -34.634626
10.058248 -21.795702 -45.917353
10.077124 -21.794516 -18.825498
7.993401 -21.925436 -10.723585
10.732209 -21.753357 -60.553950
8.869624 -21.870383 -37.666802
4.850308 -22.122915 -21.242941
4.977646 -22.114915 -30.261201
5.728255 -22.067754 -0.378301
9.945969 -21.802756 -20.837547
10.016499 -21.798325 -57.467596
5.463391 -22.084395 -3.395789
11.151560 -21.727009 -52.913390
7.849198 -21.934496 -45.572050
9.731618 -21.816224 -25.538127
10.617556 -21.760561 -45.873661
9.800327 -21.811907 -26.249280
12.068851 -21.669376 -39.942089
5.819926 -22.061994 1.945425
9.484177 -21.831771 1.816513
8.813283 -21.873923 -2.359963
6.802318 -22.000271 -46.189788
12.036630 -21.671401 -35.377512
10.894363 -21.743169 -23.077768
10.690027 -21.756007 -2.793553
5.097054 -22.107412 2.925660
11.381779 -21.712545 -55.461620
10.317428 -21.779418 -14.759640
7.852581 -21.934283 -28.682913
10.193881 -21.787180 -26.744716
12.004559 -21.673416 -33.124895
4.831059 -22.124125 -24.158358
12.042537 -21.671029 -9.985458
5.408341 -22.087854 -26.961442
11.312069 -21.716925 -60.738334
7.004493 -21.987568 -31.963896
10.770754 -21.750935 -34.066079
11.982929 -21.674775 -49.124791
7.094860 -21.981891 -44.160817
5.117420 -22.106133 -11.468291
11.918955 -21.678794 -4.082181
5.304827 -22.094358 -13.255339
10.474135 -21.769572 -7.681601
10.777180 -21.750532 -36.737104
4.931700 -22.117801 -58.520623
11.992751 -21.674158 -15.544163
9.452217 -21.833779 -38.253090
11.426101 -21.709760 -44.907173
8.929389 -21.866628 -50.668445
7.627388 -21.948432 0.573220
6.553772 -22.015887 -45.214539
10.033236 -21.797273 -49.990013
5.632108 -22.073795 -50.348300
6.111565 -22.043671 -2.007173
10.322479 -21.779100 -10.833603
9.681167 -21.819394 -29.797688
8.880906 -21.869674 -35.579366
10.876724 -21.744277 -12.998886
8.231959 -21.910447 -40.368170
4.829207 -22.124241 -33.811466
7.571477 -21.951945 -40.544427
7.384576 -21.963688 -47.596691
6.206435 -22.037710 -54.421400
7.215502 -21.974311 -55.825317
11.760174 -21.688770 0.191546
5.073229 -22.108909 -49.632863
11.955213 -21.676516 -51.562684
10.721301 -21.754042 0.756141
6.217112 -22.037039 -16.620766
10.735622 -21.753143 -42.776603
11.749260 -21.689456 -1.247847
7.582199 -21.951271 -11.385765
5.027110 -22.111807 -42.549645
10.244219 -21.784017 -24.507756
6.502355 -22.019118 -5.722814
5.056588 -22.109955 -61.007088
11.880325 -21.681221 -21.424796
8.260634 -21.908645 -2.035303
11.957475 -21.676374 -9.148505
6.288227 -22.032571 -60.615778
6.502246 -22.019124 -50.877543
7.488662 -21.957148 -50.671353
10.768631 -21.751069 -51.882211
4.821057 -22.124753 -35.389942
10.154821 -21.789634 -5.409874
6.171342 -22.039915 -6.213703
7.609049 -21.949584 3.825820
9.384114 -21.838057 -47.422634
5.043215 -22.110795 -6.745216
10.022133 -21.797971 -11.654180
5.931515 -22.054983 2.782638
10.816035 -21.748090 -15.729786
11.926319 -21.678331 -50.815387
6.904197 -21.993870 -41.574289
6.570438 -22.014840 -61.115105
7.859229 -21.933866 -48.421521
10.141130 -21.790494 -34.837466
9.003667 -21.861961 -14.933507
11.295414 -21.717971 -13.563270
9.348647 -21.840286 -15.686069
7.408678 -21.962174 -25.869881
11.985091 -21.674639 -14.472807
11.059696 -21.732781 -54.537318
11.916169 -21.678969 -53.069239
7.062830 -21.983903 -46.649048
11.261315 -21.720113 -8.350146
8.699939 -21.881044 -0.236275
7.946697 -21.928370 -36.371899
12.050851 -21.670507 -36.073003
11.270609 -21.719530 -35.051431
8.310536 -21.905510 -8.973670
7.506287 -21.956041 -34.806559
7.286866 -21.969827 -12.732424
5.545018 -22.079267 -45.759462
8.488837 -21.894307 -16.988200
11.934199 -21.677836 -12.356050
6.784120 -22.001414 -16.123298
9.636638 -21.822191 -20.110576
5.696791 -22.069731 -15.262261
9.509617 -21.830172 -3.376966
10.860266 -21.745311 -0.200584
5.719591 -22.068298 -12.212179
5.758850 -22.065832 -10.582479
10.150130 -21.789929 -54.221473
7.263824 -21.971275 -35.385836
8.917359 -21.867384 -45.012142
11.048246 -21.733501 -56.274651
11.381617 -21.712555 -36.217261
5.569433 -22.077733 -27.649579
5.507443 -22.081628 -47.068377
9.412103 -21.836299 -47.993853
11.943179 -21.677272 -18.367670
10.103052 -21.792887 -2.923959
10.051390 -21.796133 -33.932074
6.938461 -21.991717 -13.131742
6.135076 -22.042194 -35.218732
9.002373 -21.862042 -48.419231
5.004188 -22.113247 -38.719226
9.863236 -21.807954 -42.407949
10.899190 -21.742866 -33.324732
7.831058 -21.935636 -9.488012
6.838876 -21.997974 -9.023952
5.586693 -22.076648 -46.414184
7.300423 -21.968975 -9.455604
10.600387 -21.761639 -20.458141
7.072436 -21.983300 -10.708840
11.695358 -21.692843 -28.125137
6.568688 -22.014950 -23.390532
6.464981 -22.021466 -21.223192
5.529191 -22.080261 -35.988985
9.378705 -21.838397 -33.814788
12.050369 -21.670537 -34.567799
8.919325 -21.867260 -40.968236
9.113557 -21.855057 -19.856070
4.978448 -22.114864 -17.390806
8.316776 -21.905118 -0.883143
11.426525 -21.709733 -15.773977
8.902983 -21.868287 -9.208303
7.640225 -21.947626 -21.890873
5.382295 -22.089491 -34.575757
8.279531 -21.907458 -33.182450
8.610063 -21.886691 -34.638205
5.046900 -22.110563 -39.399544
5.045975 -22.110622 -50.957058
5.343650 -22.091919 -57.955883
8.260734 -21.908639 3.590120
10.864162 -21.745066 -27.096985
6.699598 -22.006725 -0.963081
7.421998 -21.961337 -36.617818
10.170840 -21.788628 -52.150424
10.666403 -21.757492 -4.926227
6.908305 -21.993612 -40.475565
6.608195 -22.012468 -54.002964
5.279452 -22.095952 -17.948215
10.949450 -21.739708 -19.841520
9.228988 -21.847804 1.161022
5.278379 -22.096020 -28.243713
8.727542 -21.879310 -60.480230
12.029052 -21.671877 -6.632143
5.517467 -22.080998 -30.740435
7.508561 -21.955898 -20.752153
11.374386 -21.713009 -0.767802
8.970049 -21.864073 -57.963310
9.305841 -21.842975 -36.762002
7.398193 -21.962832 -8.008135
7.675021 -21.945439 -23.460061
9.299936 -21.843346 -6.050837
6.779310 -22.001717 -2.930328
8.927602 -21.866740 1.795112
10.589250 -21.762339 -58.288569
7.207726 -21.974799 -21.557561
6.966139 -21.989978 -57.703667
10.640874 -21.759096 -12.241645
8.439951 -21.897379 -3.044897
9.490690 -21.831361 -61.077828
10.937981 -21.740428 -45.371028
5.059079 -22.109798 -52.902809
11.594894 -21.699155 -9.567725
6.557089 -22.015679 -36.736553
6.852793 -21.997100 -4.665321
9.592719 -21.824951 -10.493182
11.024361 -21.735001 -30.966944
6.569388 -22.014906 -58.793478
11.751067 -21.689342 -15.012861
6.306914 -22.031397 -56.490628
10.271953 -21.782275 -27.972156
9.973050 -21.801055 -7.435845
11.998291 -21.673809 -46.814527
4.815727 -22.125088 -49.103458
11.897747 -21.680127 -52.477040
5.237215 -22.098606 -54.940679
9.868773 -21.807607 -37.030697
9.548690 -21.827717 -4.041193
10.159453 -21.789343 1.774843
10.167951 -21.788809 -27.315469
9.386661 -21.837897 -8.561794
10.587174 -21.762470 -2.252733
11.176332 -21.725453 -58.459312
7.924045 -21.929793 -30.819713
8.261960 -21.908562 -60.134014
11.904693 -21.679690 -57.268780
10.062630 -21.795427 -6.556426
8.410433 -21.899234 -28.093925
7.941634 -21.928688 -16.973088
5.863128 -22.059280 -39.413990
9.613363 -21.823654 -53.837829
11.350605 -21.714503 -45.867947
10.779087 -21.750412 -55.463197
10.248897 -21.783723 -56.891664
7.045599 -21.984986 -29.004179
6.025081 -22.049105 -13.176631
4.889307 -22.120465 -53.672558
6.307440 -22.031364 -11.321521
6.196397 -22.038341 -59.300347
7.685493 -21.944781 -16.266795
10.357909 -21.776874 -35.477355
10.921895 -21.741439 -32.313373
5.278721 -22.095998 -29.640911
6.079047 -22.045714 -21.867941
11.087284 -21.731048 -26.341311
4.794454 -22.126425 -9.979366
7.067122 -21.983633 -17.816362
7.759549 -21.940128 -37.850499
10.335011 -21.778313 -31.043314
9.763701 -21.814208 -28.668652
4.846169 -22.123175 -22.086965
11.789981 -21.686898 -4.642823
8.444560 -21.897089 -39.339438
11.996460 -21.673925 -56.712381
6.215204 -22.037159 -47.485561
9.294497 -21.843688 -22.336312
6.609457 -22.012388 -39.405690
8.147536 -21.915751 -8.004248
7.204949 -21.974974 -0.501426
11.345789 -21.714806 -50.453401
8.613117 -21.886499 -30.031989
5.106964 -22.106790 -20.295565
10.069886 -21.794971 -16.918521
5.796567 -22.063462 -28.655533
7.558044 -21.952789 -55.369583
10.991530 -21.737064 -3.571319
6.823015 -21.998971 -8.268458
11.945898 -21.677101 -41.543135
11.985760 -21.674597 -50.121632
5.052534 -22.110209 -10.772114
6.540390 -22.016728 -55.613849
5.988635 -22.051394 -18.634385
9.739625 -21.815721 -16.426600
5.732937 -22.067460 -31.945446
10.029762 -21.797492 -50.843587
10.343778 -21.777762 -1.370844
10.750241 -21.752224 -31.665511
8.213648 -21.911598 -17.476920
10.258777 -21.783103 -15.853019
6.253761 -22.034737 -8.767105
10.526680 -21.766270 -43.305687
9.890270 -21.806256 -38.760029
9.262296 -21.845711 -38.813245
11.817077 -21.685195 -26.352074
11.095357 -21.730541 -59.242271
11.988183 -21.674445 -28.885952
11.145732 -21.727376 -2.276179
5.252134 -22.097669 -0.117385
10.171392 -21.788593 -22.406147
10.195432 -21.787083 -36.345974
6.316014 -22.030825 -51.796114
6.307031 -22.031390 -43.535354
11.747240 -21.689583 -48.529455
5.850083 -22.060100 -58.699220
5.199029 -22.101005 -9.457564
11.395552 -21.711679 -2.981973
9.566699 -21.826586 -39.303454
11.525748 -21.703499 -40.291907
6.270736 -22.033670 -59.934206
8.108938 -21.918176 -24.041807
7.205455 -21.974942 -18.728133
11.182141 -21.725088 -40.896761
11.136054 -21.727984 -19.199602
4.986789 -22.114340 -4.706829
8.246424 -21.909538 -11.580775
7.926014 -21.929670 -61.006797
9.101809 -21.855795 -58.604502
5.771789 -22.065019 -55.946015
9.383235 -21.838113 -57.451398
5.440289 -22.085847 -53.432519
8.789099 -21.875442 -20.275996
5.658643 -22.072128 0.975791
8.693763 -21.881432 -49.991019
11.051324 -21.733307 -9.879864
7.653903 -21.946766 -19.674520
9.809178 -21.811351 -41.258626
6.345427 -22.028977 1.685281
7.328989 -21.967180 -2.458691
7.163027 -21.977608 -16.751155
8.823374 -21.873289 -31.896856
11.240356 -21.721430 -22.288485
5.786326 -22.064106 -52.406104
8.985246 -21.863118 -30.892708
11.421780 -21.710031 3.663562
6.847711 -21.997419 -43.249499
5.817227 -22.062164 -19.246534
7.149302 -21.978470 -54.184912
5.670008 -22.071414 -43.440771
11.224640 -21.722418 -27.862571
7.126353 -21.979912 -58.541857
9.258276 -21.845964 0.003095
6.299534 -22.031861 -53.383058
9.664362 -21.820450 -11.174443
8.733115 -21.878960 -6.336680
8.796680 -21.874966 -51.821420
7.981160 -21.926205 -29.700878
4.811498 -22.125354 -55.860420
6.174763 -22.039700 -44.153021
5.804206 -22.062982 3.357253
4.924626 -22.118246 -40.205999
9.603992 -21.824243 -27.207647
9.301119 -21.843272 -49.051097
10.576752 -21.763124 -18.515126
7.201871 -21.975167 -60.772188
11.866409 -21.682096 -22.130138
11.905199 -21.679658 -55.992344
10.904916 -21.742506 -10.987844
9.667227 -21.820270 -50.378732
6.429520 -22.023694 -19.090440
8.921975 -21.867094 -21.136289
8.722238 -21.879643 -7.452861
7.088039 -21.982319 -10.010819
10.748310 -21.752345 -52.448433
6.928957 -21.992314 -7.741784
5.587855 -22.076575 -61.034404
4.890842 -22.120369 2.033979
6.993751 -21.988243 -45.637765
11.966927 -21.675780 -23.771188
6.358506 -22.028156 -28.940831
11.165679 -21.726122 -23.615006
5.527145 -22.080390 -20.824020
6.082785 -22.045479 -45.479385
6.714204 -22.005807 -30.755520
4.852382 -22.122785 -30.890078
8.622676 -21.885898 -16.085032
9.322811 -21.841909 -2.822238
6.125254 -22.042811 -36.369735
8.862086 -21.870856 -40.338842
7.659312 -21.946426 -56.816086
10.106128 -21.792694 -0.836671
8.886951 -21.869294 -21.726969
9.472871 -21.832481 3.182852
6.333879 -22.029703 -31.331388
8.884999 -21.869417 -10.207660
11.663588 -21.694839 -10.370255
8.870615 -21.870321 -43.901019
6.560793 -22.015446 3.104161
4.900122 -22.119785 -45.884724
7.609616 -21.949549 -43.193974
9.704982 -21.817897 -13.605415
9.276314 -21.844831 -60.256261
8.785199 -21.875687 -33.591884
9.890882 -21.806217 -48.799000
8.097281 -21.918909 -20.670282
7.436766 -21.960409 -24.075198
6.013477 -22.049834 -34.493928
9.253770 -21.846247 -25.766574
10.159611 -21.789333 -31.865050
10.358139 -21.776860 -44.059328
8.455972 -21.896372 -55.059440
4.938694 -22.117362 -15.504601
6.551813 -22.016010 -54.901125
7.178209 -21.976654 -39.943096
7.798764 -21.937665 1.979842
9.467772 -21.832801 -51.018317
9.302746 -21.843170 -18.835971
7.906069 -21.930923 -38.461925
5.444854 -22.085560 -4.254026
12.065501 -21.669587 -60.734635
5.480535 -22.083318 -33.497603
6.563635 -22.015267 -10.396869
11.989776 -21.674344 -0.379010
