58.971173 -47.547273 -37.477033
58.563694 -47.932441 -4.717386
51.646359 -53.809323 -46.231865
58.261243 -48.218331 -49.786627
58.373818 -48.111921 -45.679880
52.994299 -52.789498 -13.681575
57.801848 -48.652573 -36.826236
56.840077 -49.561684 -46.995348
46.941677 -57.095638 -9.616630
52.926050 -52.841134 -24.031412
54.967611 -51.165839 -35.719818
50.687548 -54.534742 -5.451761
46.952854 -57.088107 -49.289717
55.239042 -50.936069 -41.729361
57.721937 -48.728108 -33.737055
49.774012 -55.187199 -48.988431
52.522407 -53.146523 -2.731607
47.671761 -56.603705 0.139152
54.322991 -51.711518 -12.160960
54.550293 -51.519104 -57.379617
56.785333 -49.613430 -20.849018
58.663810 -47.837807 -25.093555
58.474341 -48.016901 -13.395819
51.751433 -53.729826 -6.350338
46.849704 -57.157610 -46.266495
55.758227 -50.496573 -5.561490
56.083411 -50.221301 -46.851903
59.572793 -46.978594 -15.314526
52.164255 -53.417493 -38.323976
53.813673 -52.142661 -45.041270
54.036432 -51.954093 -58.394222
47.110242 -56.982058 -33.128444
53.880995 -52.085673 -11.474295
49.681365 -55.249625 -10.409909
51.337049 -54.043341 -47.440156
59.074032 -47.450045 -55.533338
49.835485 -55.145779 -22.897367
47.871363 -56.469212 -60.171993
50.152452 -54.932205 -48.262041
59.470006 -47.075753 -18.027280
57.239612 -49.184025 -15.063704
54.335680 -51.700776 -26.921557
56.898722 -49.506250 -28.954347
57.395005 -49.037140 -26.133570
55.249059 -50.927590 -21.267162
58.530084 -47.964210 -38.612680
54.437682 -51.614431 -30.590151
58.826366 -47.684151 1.517600
54.345696 -51.692298 -3.638924
47.281936 -56.866370 -4.001405
47.784552 -56.527705 -36.606158
55.569801 -50.656078 2.894197
54.633190 -51.448930 -44.353249
51.178105 -54.163595 1.759119
54.053899 -51.939307 -10.662491
55.774128 -50.483112 1.917255
55.543124 -50.678661 -20.198116
50.535054 -54.650116 -12.076968
53.508993 -52.400090 -47.456245
49.864904 -55.125956 -32.236826
48.207016 -56.243048 1.162632
49.083694 -55.652338 -36.863419
52.658233 -53.043759 -15.492185
47.020821 -57.042311 -21.990330
59.284008 -47.251567 -44.367476
50.592840 -54.606396 -8.705181
48.175893 -56.264019 -49.715698
49.947465 -55.070326 -36.582901
50.713379 -54.515198 -42.380154
59.409708 -47.132749 -33.755965
51.533892 -53.894413 -32.824934
46.953082 -57.087953 -0.612744
53.050576 -52.746920 -60.043919
59.583972 -46.968026 -8.572299
52.755153 -52.970431 -54.688929
53.356042 -52.515810 -1.726019
46.977379 -57.071582 -7.424085
50.662654 -54.553576 -30.230426
51.253390 -54.106636 -1.140320
55.952806 -50.331859 -7.300665
51.777527 -53.710084 -37.534475
55.610581 -50.621557 -38.944301
55.899442 -50.377033 -57.893598
53.033020 -52.760202 -0.368432
57.925219 -48.535957 -12.121862
53.938205 -52.037243 -1.953139
54.734151 -51.363466 -60.993122
54.005708 -51.980101 -29.820830
54.306826 -51.725201 -46.603200
51.400451 -53.995373 -30.333576
50.294964 -54.831763 -40.963465
59.401134 -47.140854 -45.175559
53.548352 -52.367259 -0.922280
58.282309 -48.198419 -56.203418
49.767799 -55.191386 -40.363888
50.475986 -54.694805 -9.690130
58.738599 -47.767113 -27.618557
58.885314 -47.628430 -49.784668
47.450912 -56.752513 -48.068849
55.440175 -50.765808 -31.593787
49.793076 -55.174354 -60.931969
53.029903 -52.762561 -23.151656
55.203370 -50.966267 -34.648373
48.617389 -55.966537 -54.570309
56.117149 -50.192741 -20.999992
54.831408 -51.281137 -10.473663
55.029493 -51.113455 -52.769559
54.127000 -51.877426 -0.696909
49.299471 -55.506947 1.361007
54.840726 -51.273249 -9.567339
53.744753 -52.201003 -36.466516
48.797010 -55.845507 -17.817780
48.403026 -56.110975 -40.495509
47.285290 -56.864110 -29.711372
57.574224 -48.867734 -21.277501
49.247202 -55.542166 -60.185133
54.957382 -51.174498 -20.516123
54.358006 -51.681877 -5.877842
46.985384 -57.066188 -58.670512
57.443859 -48.990961 -30.063748
57.953259 -48.509452 -35.861028
54.378506 -51.664524 -38.766281
49.269073 -55.527429 -54.114464
49.919111 -55.089431 -15.261592
58.582227 -47.914922 -47.917357
53.644730 -52.285674 -22.739281
48.253773 -56.211543 -8.340517
51.123582 -54.204846 -45.698581
55.758594 -50.496263 -3.436667
46.924527 -57.107194 -23.026443
50.672281 -54.546292 -36.138388
57.206144 -49.215660 -33.202585
57.831606 -48.624444 -38.176935
49.303953 -55.503927 -18.596290
55.567453 -50.658065 -28.800117
55.210650 -50.960103 -45.505401
57.834679 -48.621539 -52.614729
52.303715 -53.311981 -42.508106
55.041957 -51.102904 -18.829061
48.572722 -55.996634 -53.143891
57.334168 -49.094646 -60.375569
57.054120 -49.359360 -45.174422
59.123707 -47.403091 -17.250812
55.329380 -50.859598 -50.598463
55.455143 -50.753138 -4.192776
56.856778 -49.545897 -43.071636
54.722520 -51.373312 -59.288473
54.423774 -51.626204 -50.407514
48.643627 -55.948858 -38.497826
54.828084 -51.283951 -8.581698
56.601913 -49.782383 -53.974464
48.331154 -56.159403 -37.797015
56.087976 -50.217437 -56.592012
56.668926 -49.723463 -11.222187
51.056786 -54.255383 -46.528406
50.327119 -54.807435 -45.642227
56.040606 -50.257536 -2.035880
49.509100 -55.365698 -16.219918
56.746470 -49.650166 -2.331572
51.293493 -54.076295 -53.123605
52.843743 -52.903405 0.682951
47.658941 -56.612342 -40.540724
48.509924 -56.038947 -1.366333
53.805530 -52.149554 2.243723
52.294660 -53.318831 -13.590456
47.237420 -56.896365 -45.133417
58.650254 -47.850620 -16.698343
55.317400 -50.869739 -47.721903
57.066496 -49.347662 -51.241963
54.757851 -51.343403 -29.696610
58.903729 -47.611024 -41.781981
58.799970 -47.709101 -59.640046
47.541312 -56.691601 -7.849597
57.022733 -49.389029 -54.562898
59.553360 -46.996962 -43.594194
51.504513 -53.916641 -26.594735
51.527880 -53.898962 -61.111813
48.297362 -56.182172 -4.581201
49.599286 -55.304931 -5.937296
59.535950 -47.013419 0.281433
52.170608 -53.412687 -22.788800
58.555979 -47.939733 -60.879761
50.964793 -54.324983 -58.449152
57.418775 -49.014671 2.163156
49.216935 -55.562560 -26.879768
51.256312 -54.104425 -49.239640
56.786392 -49.612429 -13.029347
51.078708 -54.238797 -2.548814
58.955859 -47.561748 -42.801729
53.816881 -52.139946 -60.976204
46.864782 -57.147450 0.354945
56.092716 -50.213424 -43.663986
53.172734 -52.654497 -11.338757
51.725282 -53.749611 -13.166372
47.895376 -56.453032 -51.660879
57.942954 -48.519193 -5.133149
59.548457 -47.001597 -35.925358
53.523620 -52.388195 -12.193393
58.653105 -47.847925 -44.731374
56.288219 -50.047929 -28.600854
49.160326 -55.600703 -22.515906
59.585496 -46.966586 -41.272638
57.129333 -49.288266 -21.882744
48.978754 -55.723048 -51.257974
57.588423 -48.854313 -50.516699
47.568119 -56.673539 -11.995259
54.414791 -51.633808 -36.217232
55.562908 -50.661913 -22.404999
52.831926 -52.912346 -12.471211
52.640170 -53.057425 -59.069353
58.489695 -48.002388 -32.641970
51.541627 -53.888562 -34.098114
46.942834 -57.094858 -47.368706
50.550036 -54.638781 -17.582128
58.791093 -47.717493 -33.408298
50.143339 -54.938345 -20.057209
47.166964 -56.943839 -42.849770
51.513528 -53.909821 -57.104418
49.265745 -55.529671 -44.044540
57.747716 -48.703742 -28.171751
47.690921 -56.590794 -56.211353
51.327592 -54.050496 -21.516188
51.931148 -53.593858 -17.506623
50.674365 -54.544716 -4.466577
51.869949 -53.640159 -16.722093
52.944525 -52.827156 -49.203329
47.997893 -56.383956 -28.774155
47.717404 -56.572950 -58.676342
53.655356 -52.276679 -49.224938
59.438119 -47.105893 -32.595403
49.386987 -55.447978 -55.485906
51.136659 -54.194953 -37.075844
50.208495 -54.894443 -16.617473
58.330793 -48.152590 -34.704341
57.212086 -49.210043 -37.175950
47.043252 -57.027196 -27.944837
51.886502 -53.627636 -52.589991
50.499658 -54.676895 -14.374441
54.856015 -51.260307 -1.203605
51.887095 -53.627187 -49.205078
56.250705 -50.079685 -22.864704
53.910525 -52.060675 -59.267752
58.148878 -48.324544 -27.500475
53.606973 -52.317636 -38.493237
50.501424 -54.675560 -55.181436
56.579095 -49.801698 -0.527169
57.361838 -49.068491 -12.785392
57.593383 -48.849624 -27.130263
57.356757 -49.073294 -20.269848
50.437644 -54.723814 -37.488736
50.292976 -54.833267 -54.185309
57.788819 -48.664889 -22.091547
49.028289 -55.689670 -15.317682
49.034236 -55.685664 -8.561878
50.709340 -54.518254 -1.849141
50.236058 -54.875871 -55.895892
49.704886 -55.233776 -56.720202
48.860886 -55.802467 -24.262126
57.106263 -49.310072 -18.122558
48.174979 -56.264634 -0.620042
47.705453 -56.581002 -50.445723
50.002462 -55.033268 -31.127306
57.208949 -49.213008 -4.311095
56.105361 -50.202720 0.999911
56.350466 -49.995236 -54.966818
58.850550 -47.661291 -35.353504
57.680525 -48.767253 -43.291330
54.277425 -51.750089 -18.515393
48.350640 -56.146273 -7.061107
53.513065 -52.397009 -26.935511
52.065131 -53.492489 -27.923550
56.850484 -49.551847 -12.189899
53.109865 -52.702063 -35.102943
58.794291 -47.714469 -10.424358
50.372957 -54.772755 -35.333884
46.867505 -57.145616 -43.821860
59.527663 -47.021253 -30.602360
55.367082 -50.827682 -44.600275
55.956141 -50.329036 -11.581315
51.631912 -53.820254 2.922809
49.016037 -55.697926 -40.222730
54.847346 -51.267645 -3.053639
58.320635 -48.162191 -53.350808
52.907547 -52.855133 -34.055486
55.698544 -50.547096 -37.140559
49.164174 -55.598110 -43.025576
47.716989 -56.573230 -25.831340
58.569657 -47.926804 -7.813419
55.104336 -51.050099 -43.684874
58.659805 -47.841592 -54.771072
49.591099 -55.310447 -33.204387
53.480818 -52.421407 0.316430
48.059802 -56.342241 -32.702156
55.573759 -50.652728 -12.790531
50.470345 -54.699073 -51.643533
59.561152 -46.989597 -59.890712
52.138206 -53.437201 -53.481817
56.680646 -49.712386 -40.014534
55.874824 -50.397872 -32.347256
59.502503 -47.045035 -36.843986
47.819633 -56.504068 -20.253126
57.034838 -49.377587 -27.464040
55.981013 -50.307982 -53.581719
52.318564 -53.300746 -21.877865
48.237336 -56.222618 -34.386220
52.687971 -53.021260 -31.047833
52.056415 -53.499083 -12.388547
57.442176 -48.992551 -53.327012
48.807014 -55.838767 -7.763831
47.922060 -56.435052 -53.572687
58.750753 -47.755624 -6.554111
58.190235 -48.285452 -17.358354
54.856580 -51.259828 -19.703664
50.999940 -54.298392 -56.284485
48.951357 -55.741508 -41.168418
46.894940 -57.127130 2.664436
51.340985 -54.040363 -4.810184
57.708556 -48.740757 -32.659589
54.563682 -51.507770 -45.421826
54.118707 -51.884447 -23.315754
58.331537 -48.151886 -23.619064
51.032412 -54.273824 -3.546229
52.933088 -52.835809 -7.054042
51.144537 -54.188992 -54.097208
47.765816 -56.540330 -47.140970
48.981826 -55.720978 3.730044
47.057168 -57.017820 -11.329497
54.451395 -51.602822 -51.811904
55.337001 -50.853146 -53.494680
57.561320 -48.879931 -29.081590
51.738228 -53.739817 -40.032129
54.135997 -51.869810 -17.507988
56.347520 -49.997729 -42.323525
57.305866 -49.121398 -5.383658
59.407530 -47.134807 -16.342679
48.444380 -56.083111 -18.848790
59.479190 -47.067071 -50.119819
56.570563 -49.808921 -25.712161
58.847714 -47.663971 -1.781226
56.423803 -49.933155 -45.683186
51.659683 -53.799242 -51.514383
58.047809 -48.420080 -15.716889
52.612273 -53.078531 -44.518488
48.187679 -56.256077 -5.729628
54.902638 -51.220839 -39.227600
58.255982 -48.223305 -28.884145
46.879035 -57.137847 -17.938101
57.718907 -48.730973 -45.796325
54.540928 -51.527031 -14.010729
53.945664 -52.030930 -32.464465
57.657551 -48.788969 -25.236058
53.843501 -52.117412 -13.979779
55.308397 -50.877360 -18.029741
52.791573 -52.942877 -61.061525
48.669568 -55.931378 -45.704987
50.397899 -54.753884 -52.484800
58.650491 -47.850396 -11.944619
58.116531 -48.355120 0.990839
53.180380 -52.648713 -3.306006
56.212185 -50.112293 -59.709563
55.131807 -51.026845 -55.385878
50.525736 -54.657166 -56.979867
53.104049 -52.706463 -42.996902
59.313979 -47.223236 3.178355
53.577911 -52.342237 -6.080611
57.400035 -49.032386 -42.447361
55.471177 -50.739565 -11.015452
56.905991 -49.499379 2.953738
55.957846 -50.327593 -50.708574
54.569960 -51.502456 -54.651772
52.075328 -53.484774 2.122123
59.545067 -47.004802 -3.998524
57.640005 -48.805555 -9.046759
55.616919 -50.616192 -58.827853
57.900603 -48.559225 -57.541658
59.462220 -47.083113 2.111930
52.152714 -53.426225 -57.425141
58.830566 -47.680181 -20.487045
49.406094 -55.435104 -25.893759
49.672299 -55.255734 -25.016131
55.890297 -50.384775 -48.652447
51.103162 -54.220296 -50.129886
53.341316 -52.526951 -4.230119
55.608926 -50.622958 -60.572749
52.578356 -53.104193 -10.625395
55.344700 -50.846629 -7.960620
56.268587 -50.064547 -38.300798
53.689457 -52.247812 -39.317575
50.998828 -54.299233 -13.385617
58.019298 -48.447029 -46.532853
53.090434 -52.716764 -21.344156
48.458658 -56.073490 -48.815099
52.989963 -52.792778 -53.344847
59.461339 -47.083945 -47.995095
56.407010 -49.947371 -3.884651
53.533540 -52.379797 -2.626186
46.912598 -57.115232 -15.266448
49.764665 -55.193498 3.275630
48.962239 -55.734175 -35.164749
57.879234 -48.579424 -22.956767
47.120288 -56.975289 -51.916384
52.970234 -52.807705 -18.690119
50.715644 -54.513485 -39.125335
47.713925 -56.575294 -17.223404
56.662495 -49.729543 -30.341140
58.081083 -48.388627 -6.941608
55.926718 -50.353943 -41.702873
52.530683 -53.140261 1.442845
58.428932 -48.059824 -30.891537
51.763806 -53.720465 -29.407674
46.914006 -57.114283 -5.561648
59.510564 -47.037415 -9.703363
55.030542 -51.112567 -42.750003
57.977918 -48.486143 -19.626381
52.765026 -52.962961 -47.490411
53.592763 -52.329664 -57.626344
55.956896 -50.328397 -24.992030
48.607564 -55.973156 -33.373088
47.874915 -56.466818 -1.523830
58.221587 -48.255816 -11.225634
51.542202 -53.888127 -59.801064
58.315709 -48.166848 -48.695323
50.314366 -54.817084 -6.221677
48.488944 -56.053083 -9.235665
48.332066 -56.158788 -39.448685
47.855993 -56.479568 -26.854725
58.844744 -47.666779 -58.478540
57.014097 -49.397192 -22.687706
50.604995 -54.597199 -15.832328
47.660981 -56.610968 -49.107824
48.983737 -55.719690 -58.903335
54.411848 -51.636299 -7.820553
53.096965 -52.711823 3.662420
56.731801 -49.664031 -48.274294
49.110187 -55.634488 -20.816946
56.141851 -50.171830 3.503002
48.956787 -55.737849 -44.856238
57.420582 -49.012963 -47.439579
58.290541 -48.190638 -39.490662
58.266267 -48.213582 -26.708890
52.115084 -53.454695 -48.260607
56.278095 -50.056499 -8.200520
46.856088 -57.153308 -60.794177
55.212855 -50.958237 -48.883714
53.098437 -52.710709 2.358450
53.338413 -52.529148 -55.283307
53.794473 -52.158914 -45.950354
56.356021 -49.990533 -9.364047
53.701135 -52.237927 -43.496735
50.363412 -54.779976 -13.118309
51.494665 -53.924092 -15.074779
58.457341 -48.032970 -2.873515
55.074225 -51.075589 1.661161
55.571493 -50.654646 -49.579794
59.420079 -47.122946 -10.877424
51.179983 -54.162174 -23.725752
47.180091 -56.934994 -41.170536
49.086739 -55.650287 -50.027085
50.997407 -54.300308 -0.346044
52.025952 -53.522131 -7.294128
57.589541 -48.853256 -6.313985
48.716228 -55.899939 1.953716
50.382142 -54.765805 -24.213159
57.713710 -48.735885 -0.883958
56.394827 -49.957683 2.198092
49.903257 -55.100114 -8.039338
58.733418 -47.772010 -51.346112
50.069866 -54.987851 -28.457280
47.172868 -56.939861 -30.818304
49.705879 -55.233107 -34.772601
58.073455 -48.395837 -40.321077
59.076487 -47.447725 -2.778842
53.593814 -52.328775 -19.903718
58.683491 -47.819203 -5.657518
48.495113 -56.048927 -47.971738
58.928820 -47.587307 -46.033800
55.077798 -51.072565 -25.908599
52.439916 -53.208933 -11.392566
50.131375 -54.946406 -3.642213
57.871258 -48.586963 -2.848894
51.436555 -53.968057 -28.660328
56.029030 -50.267335 -35.442330
56.784669 -49.614058 -1.406656
55.955719 -50.329394 -27.884340
51.596977 -53.846685 -8.637475
52.643537 -53.054877 -39.280580
59.618361 -46.935520 -42.803686
58.856357 -47.655802 -26.299685
58.084692 -48.385216 1.833072
55.465818 -50.744101 -51.641870
49.800905 -55.169078 -7.020796
52.028621 -53.520111 -40.812984
54.106865 -51.894471 -40.964203
57.574120 -48.867832 -48.510903
51.738670 -53.739483 -11.595653
55.903877 -50.373279 -55.609673
51.261190 -54.100735 -19.403603
55.197779 -50.970999 -24.378399
53.292114 -52.564176 -28.682265
57.038912 -49.373736 -6.624899
56.218922 -50.106590 -18.037717
55.182905 -50.983590 -16.167241
56.598733 -49.785074 -31.433358
48.466958 -56.067897 0.360655
56.748031 -49.648690 1.106987
55.830197 -50.435649 -40.853786
55.952584 -50.332048 -16.968936
58.379402 -48.106642 -41.069262
58.102756 -48.368141 -44.483768
46.932442 -57.101861 -53.759750
58.197720 -48.278376 -21.310999
53.214262 -52.623078 -49.995526
50.487550 -54.686056 -20.843091
47.903683 -56.447435 2.598309
56.984228 -49.425426 -9.438655
58.027505 -48.439271 -51.552851
51.098129 -54.224104 3.837901
48.360073 -56.139917 -16.732920
58.570826 -47.925699 -22.482199
50.602223 -54.599297 -49.049947
48.522711 -56.030331 -55.926596
53.982635 -51.999634 -33.279997
52.166749 -53.415606 -4.683037
48.432990 -56.090785 -29.449135
55.119630 -51.037153 -36.541468
57.816764 -48.638474 -30.763491
52.885678 -52.871678 -30.242181
56.537851 -49.836612 -51.859800
49.833233 -55.147296 -59.804348
58.871691 -47.641308 -52.643404
47.802520 -56.515599 -13.993719
54.884148 -51.236492 0.709886
47.551937 -56.684443 -22.717406
57.953938 -48.508811 -60.594865
49.019970 -55.695276 -14.322483
51.194236 -54.151391 -12.560559
56.585102 -49.796613 -33.464048
58.735301 -47.770230 -14.215251
57.279689 -49.146142 -31.200428
54.984461 -51.151575 -15.047369
59.522075 -47.026534 -24.847622
59.514673 -47.033531 -20.657346
54.333566 -51.702566 0.243364
48.952956 -55.740430 -5.414403
54.228432 -51.791563 1.158998
59.513742 -47.034411 -1.556574
49.595841 -55.307251 -2.702899
56.040464 -50.257656 -1.084490
49.940357 -55.075115 -44.439678
57.102558 -49.313575 -40.627693
50.438275 -54.723337 -0.934143
55.313835 -50.872757 -11.906429
57.107015 -49.309362 0.190769
57.603521 -48.840041 -41.246739
56.221243 -50.104625 -4.685279
56.948502 -49.459196 -56.842327
51.426833 -53.975413 -38.312737
59.510968 -47.037034 -29.297281
59.524363 -47.024371 -57.381728
49.411787 -55.431268 -1.701159
58.721807 -47.782985 -29.607337
55.692504 -50.552209 -54.535152
51.713092 -53.758835 -3.389520
46.978974 -57.070507 -37.712686
50.351949 -54.788649 -50.231488
50.793546 -54.454545 -31.399260
50.939340 -54.344240 -26.170816
56.544397 -49.831071 -58.774564
55.739526 -50.512403 -39.875739
54.184735 -51.828553 -16.301523
51.813215 -53.683084 -44.937569
57.882940 -48.575921 3.449963
53.594157 -52.328485 -50.854266
46.980859 -57.069237 -35.025830
56.350368 -49.995319 -15.131873
51.212117 -54.137863 -17.136585
52.117155 -53.453128 -31.636955
51.945998 -53.582622 -35.516657
48.782457 -55.855313 -19.889152
49.275765 -55.522920 -34.010029
51.320535 -54.055836 -40.955481
46.907988 -57.118338 -14.370975
57.608267 -48.835555 -10.454869
48.995039 -55.712075 -6.762368
55.532142 -50.687957 -9.956836
48.180038 -56.261225 -59.332190
47.836820 -56.492487 -2.531884
58.826387 -47.684132 -34.262691
47.059432 -57.016294 -31.989771
51.014689 -54.287233 -33.486848
53.607157 -52.317480 -8.676040
54.291531 -51.738149 -56.600893
57.235319 -49.188083 -49.320955
57.415367 -49.017893 -44.140776
49.301669 -55.505466 -9.388459
54.661472 -51.424990 -28.861118
53.638947 -52.290570 -25.295295
59.583811 -46.968179 -5.206122
59.574986 -46.976520 -58.602462
52.552658 -53.123635 -29.347671
57.169134 -49.250644 -55.402356
47.779209 -56.531305 -8.895866
50.115628 -54.957017 -27.322864
48.474034 -56.063130 -58.081236
49.412542 -55.430759 -38.100797
47.782442 -56.529127 -31.634550
53.636982 -52.292233 -42.597550
46.924787 -57.107018 -57.035014
53.176179 -52.651891 -58.234125
54.163780 -51.846292 -14.726357
52.646088 -53.052948 -37.177251
53.114668 -52.698429 -46.488294
56.138390 -50.174761 -10.343977
58.026202 -48.440503 -18.298597
55.521907 -50.696620 -6.338851
57.595376 -48.847740 -39.751328
50.760130 -54.479827 -41.508880
56.841154 -49.560666 -10.274187
55.109202 -51.045980 -17.121789
51.233173 -54.121932 -7.127127
52.061809 -53.495002 -55.537009
49.182632 -55.585674 -31.432548
54.281899 -51.746302 -9.076120
55.167570 -50.996571 -0.430340
56.475326 -49.889540 -37.070505
48.780106 -55.856897 -16.091450
52.469215 -53.186766 -1.369796
56.255434 -50.075681 -49.697918
51.087645 -54.232036 -10.083853
59.518102 -47.030290 -38.672039
54.256721 -51.767616 -47.670730
50.571256 -54.622726 -18.956396
47.032704 -57.034304 -25.228052
56.075987 -50.227585 -36.365422
50.875960 -54.392193 -27.185319
49.225941 -55.556491 -0.805683
48.865877 -55.799105 -52.188012
53.455622 -52.440470 -7.860925
51.882169 -53.630914 0.981813
49.678824 -55.251337 -47.458377
52.201352 -53.389427 -41.651643
54.264336 -51.761170 -2.766330
59.532558 -47.016625 -7.512082
53.071613 -52.731003 -9.286256
55.188281 -50.979039 -37.757081
56.734925 -49.661079 -60.447064
47.224217 -56.905261 -39.664264
50.418027 -54.738656 -39.998687
56.680654 -49.712378 -32.502712
52.287658 -53.324129 -34.424336
50.471890 -54.697904 -23.167683
54.866708 -51.251255 -21.975391
54.813677 -51.296146 -58.359767
54.208100 -51.808775 -4.481983
55.291934 -50.891296 -57.193399
57.586983 -48.855673 -1.908701
52.003465 -53.539144 -39.151100
55.210996 -50.959811 -40.582402
56.500429 -49.868290 -24.449279
59.567850 -46.983265 -12.820334
47.214028 -56.912127 3.381334
57.787307 -48.666318 -13.516296
54.570522 -51.501980 -11.280514
50.784313 -54.461531 -28.342572
59.234328 -47.298526 -39.579778
48.115789 -56.304516 3.573733
49.785143 -55.179699 -23.769208
50.128883 -54.948086 -43.543120
57.036877 -49.375659 -8.289952
46.858434 -57.151728 -26.951156
47.010672 -57.049149 -8.577007
53.951457 -52.026026 -7.189627
49.979376 -55.048824 -5.259390
52.801659 -52.935246 -8.091136
50.798581 -54.450736 -43.364840
56.573643 -49.806314 -39.071904
56.588593 -49.793658 -19.878058
57.189783 -49.231125 3.859496
49.836489 -55.145102 -41.604302
52.371383 -53.260784 -46.465187
48.652200 -55.943081 -43.595500
54.989378 -51.147413 -46.767716
51.138836 -54.193306 -35.031526
55.937659 -50.344682 -27.087931
53.468676 -52.430593 -56.804938
49.583297 -55.315704 -21.577898
52.427326 -53.218458 -49.970775
51.990497 -53.548955 -25.638424
51.376952 -54.013151 -41.957902
58.168431 -48.306062 -42.643389
58.669166 -47.832744 0.628687
50.911869 -54.365025 -44.595520
59.621578 -46.932479 -37.652954
53.033880 -52.759552 -56.151700
48.766402 -55.866131 -28.517797
51.004784 -54.294727 -32.295465
58.986651 -47.532643 -23.693584
57.102754 -49.313389 -34.833556
51.561742 -53.873343 -43.938418
53.025575 -52.765835 -39.971378
49.772999 -55.187882 -29.609827
53.834870 -52.124718 -13.126305
47.639050 -56.625746 -44.100086
59.282522 -47.252971 -53.379170
47.487116 -56.728119 1.340153
52.046301 -53.506735 -47.257091
54.659129 -51.426973 -40.124804
58.369288 -48.116203 -3.881627
49.626173 -55.286814 -52.698762
56.172658 -50.145752 -12.406679
59.148492 -47.379662 -4.662824
48.890213 -55.782707 -36.017393
58.660512 -47.840924 3.776803
57.707438 -48.741813 -56.531742
58.338570 -48.145238 -37.554606
53.269547 -52.581250 -52.561357
54.215021 -51.802915 -19.528597
48.400998 -56.112342 -20.957496
59.415179 -47.127577 -51.156838
48.424419 -56.096561 -31.876094
59.294519 -47.241631 -28.268922
53.074582 -52.728757 -48.260375
52.676719 -53.029773 -14.454967
55.863065 -50.407826 -52.528386
58.628927 -47.870779 -17.936128
52.502340 -53.161705 -33.153623
54.322923 -51.711576 -31.591493
51.636606 -53.816702 -10.632831
49.127228 -55.623005 0.367110
55.924928 -50.355459 -33.638249
55.263337 -50.915504 -1.805455
55.457996 -50.750722 -30.692451
59.492204 -47.054770 -31.580470
48.020385 -56.368800 -18.000737
51.891103 -53.624154 -14.371877
50.244543 -54.869910 -53.333382
58.979010 -47.539865 -3.738784
51.717879 -53.755212 -1.798903
49.255443 -55.536613 -48.209658
49.466946 -55.394102 -27.798253
58.194498 -48.281422 -8.605635
53.479248 -52.422595 -17.551772
53.375606 -52.501009 -14.657222
47.088404 -56.996773 -28.841659
54.996317 -51.141539 -22.963941
51.222878 -54.129721 -14.297100
56.057694 -50.243071 -29.437239
57.523243 -48.915924 -18.855051
57.040281 -49.372442 -24.910993
56.243395 -50.085872 -6.119825
56.687785 -49.705637 -14.235520
48.326659 -56.162431 -12.448130
46.876240 -57.139730 -24.202858
56.427612 -49.929931 -44.819982
54.465639 -51.590764 -37.220308
49.612023 -55.296348 -57.616744
48.983055 -55.720149 -29.984848
58.021667 -48.444790 -47.757195
50.758259 -54.481243 -60.146416
52.131152 -53.442538 -60.634385
50.647295 -54.565196 -10.978782
50.610916 -54.592720 -61.045743
50.081431 -54.980059 -26.437303
47.882901 -56.461437 -24.600363
57.460650 -48.975090 -15.990005
56.611433 -49.774324 -35.983223
47.066806 -57.011326 -52.936668
56.204208 -50.119045 -61.004894
47.030914 -57.035510 -18.907669
51.552374 -53.880431 -42.961140
49.066218 -55.664114 -12.262929
52.833792 -52.910934 -5.339939
57.569778 -48.871936 -54.168332
50.184410 -54.910671 -38.332205
49.777961 -55.184539 -58.525901
49.396611 -55.441493 -45.987608
58.650892 -47.850018 -9.649075
52.285675 -53.325629 -20.683180
50.203295 -54.897946 2.514437
47.873672 -56.467656 -9.936805
55.634776 -50.601076 -42.948826
53.461382 -52.436112 -37.508207
58.610027 -47.888645 -43.671355
47.800261 -56.517121 -33.579388
54.453731 -51.600845 -24.478006
55.027826 -51.114867 -32.212844
50.000614 -55.034514 -39.113749
54.395262 -51.650340 -48.553323
54.144663 -51.862474 -21.452836
47.935037 -56.426308 -13.103305
58.743826 -47.762172 -0.932235
51.013513 -54.288123 -22.558302
46.946689 -57.092261 -54.952162
52.924055 -52.842643 -51.478145
47.920934 -56.435811 -43.382225
49.254085 -55.537528 -39.063240
53.766078 -52.182952 -9.941741
54.757519 -51.343685 -51.065044
56.644999 -49.745910 -7.229122
54.671068 -51.416866 -41.401154
51.332809 -54.046549 -39.291844
56.313378 -50.026631 -21.777319
57.047836 -49.365300 -38.368158
54.581149 -51.492983 3.844544
48.678933 -55.925068 -10.192569
54.531910 -51.534665 -53.565128
55.071519 -51.077879 -27.146938
53.454012 -52.441688 -44.328617
49.193739 -55.578189 -13.448951
49.077869 -55.656263 -11.265827
53.789520 -52.163107 -35.222493
54.300373 -51.730664 -34.503830
55.306159 -50.879254 -13.915382
48.380093 -56.126427 -30.818932
55.854978 -50.414672 -19.241435
48.165858 -56.270780 -52.488463
56.562900 -49.815408 -53.133558
54.041441 -51.949854 -41.867089
57.204320 -49.217384 -59.286515
58.239911 -48.238496 -25.849953
50.307055 -54.822615 -33.283076
55.088565 -51.063450 -28.079064
48.303782 -56.177846 -46.470288
52.721932 -52.995566 -16.888504
52.242274 -53.358465 -23.728792
47.575132 -56.668814 -61.018142
51.244340 -54.113483 -55.550096
50.312469 -54.818519 -34.205128
50.331092 -54.804429 -57.785542
49.148741 -55.608509 -42.113275
47.174775 -56.938576 -6.530137
53.411256 -52.474036 -40.799254
53.045356 -52.750869 -20.453687
59.505034 -47.042643 -6.188720
48.987979 -55.716831 -3.490577
51.948021 -53.581092 -54.538505
53.572706 -52.346643 -31.778008
49.945933 -55.071358 -46.501702
53.665451 -52.268133 -5.165377
51.449882 -53.957974 0.336238
53.360807 -52.512205 -54.052875
50.503513 -54.673978 -7.179519
52.864427 -52.887757 -36.144663
52.867097 -52.885736 -42.168954
57.114039 -49.302722 -46.054279
54.423952 -51.626053 -15.566893
48.707864 -55.905574 2.868728
50.096590 -54.969845 0.315710
47.964999 -56.406119 -30.168569
54.325605 -51.709305 -55.401833
59.143081 -47.384778 -13.463515
47.975573 -56.398995 -10.941994
57.368884 -49.061830 -51.998497
55.633823 -50.601883 -23.438748
48.571159 -55.997686 -2.534318
55.229804 -50.943890 -33.148054
57.007755 -49.403187 -58.222164
58.667355 -47.834456 -36.385160
58.663611 -47.837995 -46.959159
58.537510 -47.957191 -57.283855
50.105669 -54.963728 1.473075
59.256296 -47.277761 -12.123092
55.526799 -50.692480 -9.062973
54.014530 -51.972634 -52.676401
58.867166 -47.645585 -56.635034
57.425243 -49.008558 -7.386436
53.972803 -52.007956 -54.355652
56.035284 -50.262041 -16.052431
52.716295 -52.999830 -40.975743
52.873695 -52.880745 -57.271830
59.520042 -47.028457 -56.395032
55.567776 -50.657792 -59.741090
53.069020 -52.732965 -32.397637
52.489525 -53.171400 -43.654295
47.149935 -56.955313 -2.813076
54.243964 -51.778415 2.897832
49.909893 -55.095642 -11.408622
55.852960 -50.416380 -0.293276
57.894218 -48.565261 -31.877375
58.181033 -48.294150 -54.192833
59.024632 -47.496741 -19.374293
48.921467 -55.761647 -32.563113
53.674593 -52.260394 -20.739056
50.758204 -54.481284 -24.849616
58.376243 -48.109628 2.712632
59.224500 -47.307816 -21.747706
53.032006 -52.760970 -26.262758
51.511227 -53.911562 -18.580949
59.459034 -47.086124 -54.363025
50.590425 -54.608222 3.272229
52.552818 -53.123514 -17.999669
48.132235 -56.293435 -27.672063
51.318543 -54.057343 -36.255627
55.767618 -50.488624 -14.597425
54.745501 -51.353858 -5.178764
54.160658 -51.848935 -28.336551
56.543981 -49.831423 -26.825911
49.566588 -55.326962 -4.242317
49.269338 -55.527251 -17.116545
46.944867 -57.093488 -35.998428
59.553641 -46.996697 -49.140157
53.699930 -52.238947 -24.325424
59.220708 -47.311400 -40.496443
55.523832 -50.694991 0.612668
47.600022 -56.652042 -38.677448
54.981477 -51.154101 -49.901402
48.191309 -56.253631 -15.506282
58.018971 -48.447338 -14.679032
55.669368 -50.571793 -46.288916
59.324097 -47.213672 -26.971398
47.095160 -56.992220 -50.875547
56.071118 -50.231707 -47.747903
50.022551 -55.019733 -9.122356
56.613075 -49.772934 -18.905483
52.177693 -53.407326 -45.703247
54.528091 -51.537898 -49.341621
47.804347 -56.514367 -3.465428
47.661713 -56.610475 -45.864622
52.910032 -52.853253 -38.056362
48.014201 -56.372967 -41.427568
52.248275 -53.353926 -19.037730
47.853408 -56.481310 -55.242101
52.470551 -53.185756 -6.438427
54.938067 -51.190848 -12.574464
55.871885 -50.400360 -25.980860
47.281071 -56.866953 -19.680331
56.816069 -49.584378 -15.842457
55.864163 -50.406897 -45.407883
57.014306 -49.396995 -3.305331
56.647559 -49.743661 -56.151939
54.888772 -51.232577 2.800381
50.858182 -54.405643 0.715917
59.311684 -47.225405 -60.753353
51.032814 -54.273519 -29.472940
53.610746 -52.314442 -51.894006
57.245943 -49.178041 -11.330487
56.663423 -49.728666 -41.411307
59.288054 -47.247742 -22.618694
47.499215 -56.719966 -15.740281
47.006092 -57.052235 -1.664327
53.601337 -52.322407 -19.002531
47.386831 -56.795692 -34.323035
48.469868 -56.065937 -42.403919
58.113711 -48.357786 -59.594665
57.459031 -48.976620 -17.071898
58.743238 -47.762728 -15.684873
57.715122 -48.734551 -23.921090
48.250193 -56.213955 -35.845020
59.555549 -46.994893 -45.964443
52.404328 -53.235859 -26.356351
49.669387 -55.257696 -14.389779
53.350903 -52.519698 1.360739
49.848126 -55.137261 -54.761338
51.088230 -54.231593 -8.093822
54.783835 -51.321408 -6.791703
48.436704 -56.088283 -60.974116
46.882984 -57.135185 -55.768026
54.405611 -51.641579 -43.269294
52.166288 -53.415955 3.416513
58.812270 -47.697475 -31.512080
52.203182 -53.388042 -50.854889
51.868729 -53.641082 -58.706173
53.670852 -52.263561 -15.759469
49.978022 -55.049737 -50.885762
48.519120 -56.032751 -50.578172
48.104627 -56.312038 -45.102655
57.191962 -49.229066 -36.136095
51.954016 -53.576556 -0.788859
53.753029 -52.193997 -56.056871
48.894302 -55.779951 -46.999342
53.676465 -52.258810 -34.153553
52.316271 -53.302481 -24.675078
52.518152 -53.149741 -52.436172
47.704843 -56.581413 -5.147209
52.317048 -53.301893 -9.255929
50.893820 -54.378680 -48.152878
46.838629 -57.165072 -12.904531
59.549473 -47.000636 -14.110110
50.573967 -54.620674 -21.838502
52.345975 -53.280008 -3.612882
48.588569 -55.985956 -23.451860
57.635960 -48.809378 -58.624319
47.320798 -56.840185 -21.154155
48.748098 -55.878464 -25.296939
54.944366 -51.185516 -56.236384
49.419279 -55.426219 -19.490899
53.233099 -52.608826 -27.659480
57.797899 -48.656306 -55.177063
50.441418 -54.720958 -59.107725
48.469011 -56.066514 -21.921121
58.235481 -48.242683 -50.661260
50.553340 -54.636281 -47.206942
48.877457 -55.791302 -56.945265
56.505868 -49.863686 -57.599650
51.647667 -53.808334 -20.389514
47.748670 -56.551883 -42.297105
48.627305 -55.959855 -26.359551
57.990221 -48.474514 -0.055088
48.324071 -56.164175 -14.588274
54.361222 -51.679154 -25.800200
