46.199750 7.648153 -7.190756
46.544865 7.795180 -33.008187
54.655471 12.657764 -12.894766
68.337840 32.659337 -36.197130
51.898340 10.706133 -51.196508
69.731007 39.391622 -5.079973
41.368932 5.877655 -13.431182
69.957751 45.798033 -52.812628
49.973070 9.511369 -57.526722
68.301006 32.539501 -52.210717
35.015242 4.232204 -56.499975
69.971157 45.056641 -26.960453
61.919838 19.967696 -35.751200
64.070808 23.131663 -26.263428
69.945156 42.117239 -38.112315
69.956198 45.883862 -20.205842
55.741645 13.526637 -15.459215
38.937769 5.248043 -26.721324
35.166570 4.271394 -53.892088
65.284803 25.194163 -34.058382
69.998407 43.549640 -31.467145
69.946442 42.138287 -36.319299
43.043598 6.431016 -37.523144
58.520364 16.091506 -46.864163
36.148980 4.525814 -36.691381
40.488044 5.649526 -40.551217
67.752236 30.770875 -51.755497
40.729534 5.712066 -34.607971
69.818869 40.049274 -33.164621
68.157703 32.073292 -3.311109
44.249918 6.835720 -13.831234
68.215427 32.261086 -14.948376
69.200683 36.090461 -29.443776
69.920739 41.717401 -4.300330
69.091280 35.599235 -49.277163
69.981332 44.493918 -44.230807
46.962230 7.972988 -30.932630
68.200451 32.212366 3.654579
69.951242 46.157879 -15.693309
69.983818 44.356441 -7.462559
68.366270 32.751829 -28.984099
39.293120 5.340070 -57.837032
51.414601 10.402240 3.624030
35.133413 4.262807 2.634485
57.862927 15.417106 -12.080210
42.287992 6.177521 -58.252517
65.877383 26.401186 -1.942608
70.006128 43.122654 3.523930
63.038298 21.552675 -40.785159
64.865542 24.471309 -46.623932
69.905721 41.471489 -50.018109
42.193265 6.145742 3.737023
60.833080 18.641757 -1.521351
69.593552 38.416692 2.467197
69.474902 37.575134 -13.576192
69.167003 35.939232 -55.521758
60.793348 18.593967 -4.250507
38.600609 5.160727 -45.997567
35.325576 4.312573 -24.398078
69.026454 35.308164 -31.056287
35.440637 4.342371 -13.426381
69.390397 36.975762 -38.333344
44.971635 7.124946 -54.724482
69.410469 37.118126 -45.189452
46.046185 7.582731 -49.242843
39.570407 5.411881 -12.785100
62.603150 20.936023 -22.734719
61.173942 19.051751 -30.763835
37.600646 4.901760 -58.778531
65.099390 24.865496 -1.625365
50.808456 10.021448 -44.664280
68.991236 35.150035 1.005753
44.409018 6.889096 -9.443606
69.824791 40.146247 -60.761093
65.883055 26.412740 -24.233648
37.294962 4.822596 -28.166721
49.197363 9.105708 -25.386368
38.243501 5.068244 -29.534102
61.545293 19.498417 1.586687
39.248305 5.328464 0.007746
49.796079 9.418811 -28.783528
60.151613 17.822079 -20.692226
34.920815 4.207749 -50.015373
59.858909 17.470010 -13.137497
49.179956 9.096605 -22.239867
55.828504 13.602673 -33.556920
68.991174 35.149755 -40.851370
66.317901 27.298473 -0.690992
69.722311 39.329944 -31.352395
57.663634 15.212670 1.941413
35.645566 4.395442 -48.705300
35.887647 4.458135 -20.879302
46.012426 7.568348 -13.288352
64.822664 24.399032 -32.714493
58.455799 16.025276 -49.785089
48.160084 8.563256 -26.615405
58.699165 16.274920 -51.258529
67.568999 30.308475 -36.638136
51.375851 10.377896 -23.420568
48.315846 8.644714 0.508814
67.676716 30.580300 -13.938302
63.951886 22.931202 -61.006550
52.557660 11.120331 -12.565303
44.297793 6.851782 -28.744080
68.908187 34.777140 -5.584980
38.046394 5.017198 -60.424766
48.023488 8.491823 -54.868767
64.312525 23.539114 1.758103
69.978116 44.671731 -0.218911
69.804029 39.909552 -9.942671
69.699398 39.167430 -17.993884
69.998462 43.546595 -3.736394
43.791399 6.681893 1.289701
65.642227 25.922198 -40.857142
54.113257 12.254090 -48.962072
44.573966 6.955530 -61.079425
69.861968 40.755026 -44.535586
58.688795 16.264283 3.445732
55.103679 12.991451 -53.243023
38.497509 5.134026 -36.781921
69.341272 36.721707 -22.767761
41.649360 5.963269 -28.329992
48.224703 8.597049 -29.543369
42.781537 6.343099 -48.536926
37.315850 4.828005 3.374752
67.457506 30.027123 -3.582953
55.845459 13.617515 -1.661859
64.303443 23.523806 -49.290415
69.286089 36.473935 -10.052547
56.038859 13.786817 -42.776307
67.012799 28.904902 -34.439778
69.742816 39.475382 -14.575628
41.734660 5.991886 -8.933785
39.666804 5.436845 -6.040496
44.928044 7.106375 -42.277130
45.917034 7.527709 -45.817923
67.265054 29.541468 -23.443486
55.690925 13.482236 -49.386722
67.207835 29.397076 -32.930223
69.926541 41.812405 -2.709434
69.838869 40.376784 -51.317653
69.661430 38.898129 -59.281086
55.718659 13.506514 -41.015354
61.183626 19.063399 -34.613600
57.877210 15.431758 -45.105846
47.098122 8.030881 -16.502748
69.105258 35.661997 -60.959591
45.085416 7.173420 -19.520821
39.998827 5.522831 -45.525068
52.920238 11.365896 -37.200265
62.564640 20.881450 -25.806271
63.790726 22.659542 -22.322575
69.973141 44.946923 -25.191072
53.276377 11.631038 -21.667104
66.643479 27.972919 -31.514272
58.660939 16.235708 -1.194705
69.639946 38.745750 -55.085099
62.030761 20.124886 -48.230114
53.454591 11.763717 -24.911337
61.071599 18.928651 -53.070752
62.053957 20.157758 -1.425372
69.245965 36.293776 -3.807705
39.040248 5.274582 3.700798
69.904331 41.448724 -6.078776
42.252039 6.165459 -10.759680
67.625832 30.451894 -44.313779
55.085035 12.977571 -22.228858
69.989465 44.044175 -51.234993
64.119027 23.212945 -55.839693
66.627787 27.933320 -38.661978
69.393770 36.999683 -5.560559
65.160801 24.969013 -11.353426
46.788757 7.899084 -59.011756
40.452108 5.640220 -1.551690
43.655014 6.636138 -2.073850
66.263956 27.188593 -19.366338
68.763843 34.129030 -19.968790
58.168136 15.730190 -60.238258
58.808375 16.386948 -6.870074
57.497566 15.063766 -48.670907
63.118365 21.666139 -32.809591
68.862014 34.569822 -26.842852
69.700172 39.172919 -8.520036
62.186893 20.346141 -60.734689
46.009962 7.567298 -28.735259
40.304662 5.602035 -52.624958
69.955562 42.287634 -51.781504
69.165843 35.934028 -13.988621
59.639851 17.239879 -53.724653
50.879257 10.065926 -42.647070
49.508535 9.268438 -19.039493
65.307349 25.240088 -30.900049
61.853234 19.873311 -14.644371
64.834168 24.418424 -25.774574
59.766128 17.369414 -50.505310
68.734310 33.996427 -32.499753
67.156890 29.268515 -40.177013
43.395296 6.549006 -44.381755
68.683406 33.783574 -47.326662
43.349171 6.533532 -42.156722
69.981260 44.497952 -48.840112
69.999986 43.462326 -29.534103
62.677645 21.041591 -11.141955
51.675403 10.566081 -53.395962
48.534498 8.759059 -6.756658
68.040956 31.693476 -18.193717
68.320421 32.602666 -19.581305
39.758267 5.460532 -28.917959
59.082282 16.667922 -58.373821
69.816414 40.009075 -58.111076
67.461138 30.036289 -18.460191
62.849374 21.284949 -57.836489
53.414120 11.733587 -6.968691
35.974844 4.480717 -60.418697
69.899385 41.367729 -41.607078
51.595696 10.516007 -14.077904
37.118747 4.776960 -24.111458
57.095711 14.711983 -59.078010
68.552503 33.357704 -43.119976
57.214989 14.816398 -42.756461
63.145689 21.704859 -51.950669
68.793629 34.262772 -22.621477
45.702122 7.436151 -23.174494
36.551857 4.630150 -12.069212
38.735698 5.195711 -25.206079
68.674053 33.753145 -18.150270
69.951720 46.131501 -33.297823
65.559583 25.753861 -26.706195
64.710008 24.209132 -5.257933
49.979912 9.514947 -32.379445
37.098547 4.771729 -0.001906
66.913137 28.653405 -48.936221
36.377122 4.584897 -30.837004
67.979549 31.493700 -45.414895
51.993481 10.765903 -5.793997
42.701761 6.316335 -12.538040
37.179658 4.792735 -53.322122
65.738840 26.118989 -55.172283
47.511843 8.224255 -44.795040
53.380047 11.708220 -57.917231
69.836960 40.345524 -22.213698
38.650130 5.173551 1.711629
59.679454 17.280503 -0.238111
69.473724 37.566781 -8.150721
53.869617 12.072701 -27.784583
51.164649 10.245215 -36.391557
62.712659 21.091209 -14.011684
36.991873 4.744103 -8.502002
56.604870 14.282302 3.231078
67.184289 29.337657 -30.528530
43.880336 6.711731 -15.823597
69.881630 41.076993 -8.067133
38.912838 5.241586 -7.340442
69.989305 42.840176 -34.350073
69.958784 42.340390 -39.818415
69.977191 44.722969 -54.255063
64.973167 24.652728 -23.954398
56.738818 14.399559 -20.939459
35.971683 4.479899 -22.766358
48.058991 8.510389 -46.494914
37.148900 4.784769 -46.773534
58.367884 15.935092 -10.508445
60.245241 17.934696 -30.036836
42.239938 6.161400 -1.411888
58.962811 16.545369 -16.974522
41.966273 6.069589 -31.873562
69.886758 41.160967 -53.076117
53.246406 11.608725 -61.119172
61.120202 18.987112 -5.994723
67.881842 31.175827 -5.267815
69.972729 44.969693 -23.503595
69.980072 44.563578 -15.804480
35.610058 4.386247 -9.305010
67.307148 29.647694 -28.624237
46.766235 7.889489 -8.943477
39.387979 5.364636 -11.021245
63.641648 22.408249 -1.496492
41.382958 5.881287 -21.585806
44.215038 6.824019 3.769143
35.238785 4.290096 0.186954
48.314398 8.643956 -49.639818
69.672083 38.973688 -34.351022
41.760998 6.000722 0.140128
67.348858 29.752949 -45.969645
55.355883 13.188941 -31.657281
56.177026 13.907768 -54.419541
35.082124 4.249524 -43.340365
51.779614 10.631548 -21.424327
52.077727 10.818828 -40.192857
56.846761 14.494053 -34.458535
68.237584 32.333171 -30.660306
55.750918 13.534754 0.099164
69.563641 38.204536 -57.928692
52.114948 10.842211 -2.077294
53.474126 11.778261 -38.929242
62.039979 20.137949 -24.226788
67.793040 30.886926 -38.424382
35.364453 4.322641 -4.642832
64.625693 24.067007 -28.377947
60.596766 18.357516 -39.197559
69.952137 46.108422 -18.576058
69.378498 36.891369 -11.915240
69.098284 35.630686 -51.736226
46.373086 7.721998 -35.806158
53.344456 11.681723 -50.367519
44.117475 6.791288 -53.201118
37.518603 4.880513 -17.860353
38.346161 5.094831 -4.234939
60.455210 18.187250 -44.451996
51.889448 10.700548 -11.181877
56.207513 13.934456 1.647088
59.710911 17.312771 -40.155303
49.122628 9.066625 -58.753406
49.174860 9.093940 -35.289505
38.901589 5.238673 -2.003559
65.333474 25.293301 -8.112373
66.534311 27.739278 -57.540704
69.986914 44.185189 1.401160
54.262074 12.364882 -9.334199
35.179558 4.274757 -47.006543
66.622717 27.920528 -24.314567
59.142973 16.730179 2.001332
38.102798 5.031806 -42.754466
69.572624 38.268253 -61.038405
65.456555 25.544003 -16.911767
52.837815 11.304532 -30.689383
69.555410 38.146158 -36.914511
60.452715 18.184249 -25.539600
63.136401 21.691697 -8.295314
56.798071 14.451430 -44.426599
69.910060 41.542542 -57.360013
69.959915 45.678309 -21.939734
44.197055 6.817986 -24.482748
41.972777 6.071771 -26.637917
68.744167 34.040685 -7.041275
65.053102 24.787470 -54.510783
67.342722 29.737464 -59.321654
53.529863 11.819757 -2.776175
63.437643 22.118590 -17.517742
69.926293 41.808354 -25.374238
45.207923 7.225611 -43.891149
41.383706 5.881481 -29.892918
69.520823 37.900838 -10.490983
57.041339 14.664386 -51.181814
60.200969 17.881445 2.833322
61.840041 19.854615 -9.067019
69.559660 38.176303 -43.358925
60.079817 17.735721 -37.896253
69.014876 35.256180 -34.405767
53.365110 11.697099 -4.881610
59.086888 16.672648 -19.548204
57.043339 14.666137 0.267990
63.940733 22.912402 -18.809946
68.469707 33.088341 -45.514910
68.459214 33.054204 -60.846963
69.806425 39.926545 -37.348938
60.486855 18.225312 1.018459
63.489871 22.192603 -30.326735
35.412835 4.335171 -27.681664
56.146253 13.880830 -8.152376
63.395954 22.059512 -12.547860
50.146730 9.605739 -21.070230
63.196154 21.776375 -28.846949
48.096277 8.529888 -57.679529
43.926893 6.727350 -49.806105
37.197745 4.797419 -35.475951
63.583146 22.324783 -3.369255
45.478677 7.340958 -15.707955
59.513055 17.109810 -45.455149
45.484940 7.343627 -50.868693
38.142248 5.042022 -11.814533
56.476650 14.170058 -29.961356
68.841003 34.475484 -54.998992
47.341896 8.135380 -0.822628
69.850002 40.559078 -35.715496
58.531885 16.103324 -37.126736
39.344518 5.353381 -19.599140
69.928838 41.850022 -26.906159
69.466971 37.518881 -30.773426
57.588870 15.143694 -2.014849
52.128175 10.850520 -25.348451
69.391365 36.982630 -50.528695
35.008362 4.230422 -14.916353
69.989107 44.063938 -35.706022
67.871688 31.142794 -20.030305
69.972507 44.981996 -55.978556
59.517514 17.114385 -22.478607
69.802863 39.901283 -29.641292
47.308389 8.120460 -21.931526
56.671385 14.340529 -60.852116
54.882088 12.826479 -5.552674
65.166991 24.979448 -42.406681
60.470785 18.205984 -15.133089
67.730614 30.716313 -56.168225
61.776894 19.776990 -12.590681
69.154427 35.882767 -57.674579
69.983460 44.376251 -59.678588
59.650943 17.251256 -2.110905
66.835380 28.457185 -36.865794
55.512377 13.325936 -57.540322
69.998726 42.994435 -56.273922
65.774431 26.191484 -57.718182
46.800072 7.903905 -54.094525
69.429716 37.254644 1.169657
50.573761 9.874007 -2.101644
58.546563 16.118381 -31.037001
63.178989 21.752050 -50.218474
42.684373 6.310501 -33.623976
65.529050 25.691668 3.808144
54.211333 12.327106 -51.711842
69.999825 43.471233 -61.012279
69.753560 39.551590 3.578529
68.615630 33.563076 -2.250581
39.630354 5.427405 -9.398871
62.366438 20.600577 -56.557398
65.997542 26.645936 -15.419794
69.796559 39.856568 -42.531986
65.850603 26.346638 -3.960410
59.727786 17.330082 -4.063909
61.564693 19.521752 -21.259336
43.384978 6.545545 -39.284661
51.241203 10.293308 -3.734237
69.953701 46.021983 -35.899703
39.408897 5.370054 -54.024144
59.513225 17.109985 -48.025657
63.195486 21.775428 -59.395349
69.980764 44.525277 -1.907889
69.957474 45.813230 3.313707
63.368737 22.020943 -19.978674
40.868864 5.748149 -11.757829
69.950672 42.207558 -32.788200
69.945239 42.118592 -9.797815
61.281516 19.181143 3.263630
42.670015 6.305684 -25.229904
69.930166 41.871770 -17.873393
61.171443 19.048745 -51.169962
49.089394 9.049245 -1.559402
69.135434 35.797487 3.767371
36.710405 4.671210 -40.013012
44.447639 6.902053 -45.792979
69.908952 41.524392 -29.128133
65.989486 26.629527 -11.052491
60.094335 17.753184 -34.529429
60.281046 17.977763 -23.858999
44.576621 6.956661 -12.252555
69.964798 45.408336 -39.382608
54.610933 12.624605 -43.241713
41.958694 6.067046 2.002016
60.096096 17.755303 -59.801136
39.092045 5.287997 -55.739568
47.484206 8.209802 -4.532550
58.920368 16.501831 -32.467669
66.585239 27.843013 -33.300278
61.156770 19.031096 -60.883265
42.360148 6.201728 -40.420811
69.704681 39.204896 -53.320272
66.729796 28.190743 -55.818188
57.375303 14.956737 -9.185829
40.874212 5.749535 -55.365221
54.961142 12.885333 -45.658306
37.693003 4.925679 -54.881186
37.513307 4.879142 -15.887571
67.728347 30.710592 -30.206479
67.765833 30.805188 -32.001115
54.883025 12.827176 -2.651262
45.474561 7.339205 -0.520746
66.535051 27.740785 -5.888511
68.669719 33.739044 -13.009484
67.061155 29.026929 -26.962818
55.392419 13.220925 -55.859463
52.582415 11.135883 -33.237567
35.675455 4.403183 -58.467055
69.620177 38.605533 -26.632464
43.823917 6.692803 -51.502778
69.391162 36.981191 -54.037570
66.306188 27.274615 -30.062770
69.121459 35.734738 -19.560062
64.756529 24.287551 -40.294589
57.028730 14.653348 -19.061281
43.337233 6.529527 -30.314515
51.543308 10.483096 -31.352637
69.997033 43.625615 -19.086657
39.877985 5.491536 -15.510120
60.052033 17.702303 -52.227020
64.586588 24.001090 -0.327434
51.337968 10.354098 -27.965962
69.997125 42.968220 -43.919826
38.879472 5.232945 -48.710751
47.948696 8.452710 -2.968528
50.270394 9.683427 -51.991818
69.985464 42.777277 -12.457124
61.430178 19.359955 -57.066101
61.386494 19.307411 -0.216401
68.757830 34.102034 -52.673117
41.103201 5.808837 -3.700012
66.604113 27.881457 -45.691199
69.725716 39.354097 -3.270940
68.112469 31.926131 -1.337858
35.876440 4.455233 -16.321550
43.133986 6.461341 -46.998786
69.746388 39.500718 -49.691386
51.782802 10.633551 1.082819
59.500784 17.097222 -56.713824
69.692829 39.120836 -44.554481
65.100671 24.867655 -3.456555
60.700148 18.481865 -11.915338
54.083699 12.232084 -32.269197
41.780276 6.007189 -45.416118
54.904848 12.843423 -38.758827
66.563178 27.798077 -43.949682
47.123231 8.041578 -14.712253
54.661103 12.661957 -19.074328
58.648442 16.222889 -13.648840
66.908546 28.641820 1.020456
45.834217 7.492427 -10.475022
54.730147 12.713360 -58.851438
53.134334 11.525289 -41.268964
59.261939 16.852216 -15.020299
41.321005 5.865243 -36.291592
46.207848 7.651603 -57.473116
48.642935 8.815767 -51.425865
38.626141 5.167339 -52.306048
69.991736 43.918591 -10.966495
69.704646 39.204653 -23.604558
69.494447 37.713763 -49.051895
67.397082 29.874643 -7.544285
69.251035 36.316541 -35.610666
37.453698 4.863705 -21.177220
69.523428 37.919322 -17.114314
60.108238 17.769907 -31.864043
55.625829 13.425251 -24.164084
57.764996 15.316648 -40.536497
44.080320 6.778823 -21.100329
66.901755 28.624681 -8.308383
41.666695 5.969084 -24.056523
64.563819 23.962710 -21.779179
69.951248 46.157653 -42.619106
68.781299 34.207408 -50.483851
41.775484 6.005581 -53.391834
69.171874 35.961105 -25.371403
52.575313 11.131421 -27.496192
69.961990 45.563569 -37.653137
35.125867 4.260853 -32.047009
65.895643 26.438380 -47.171499
62.684563 21.051394 0.899000
64.635318 24.083231 -16.169568
67.910435 31.268849 -21.723367
53.450567 11.760721 1.012886
69.962896 45.513411 -4.279550
68.242509 32.349192 -12.007049
57.841511 15.395138 -32.706881
69.956264 45.880280 -46.299002
57.660077 15.209022 -38.962844
48.690304 8.840538 -15.798629
51.239676 10.292348 -60.539566
53.913678 12.105504 -47.215273
69.975276 44.828789 -12.628470
65.915132 26.478077 -36.804462
69.681544 39.040794 -19.574321
67.275323 29.567382 -53.121367
43.973280 6.742912 -26.257222
62.641085 20.989782 -3.202560
67.814593 30.957045 -11.039808
57.144326 14.754540 -57.029293
49.403427 9.213470 -5.241019
63.370942 22.024067 -53.722323
56.387757 14.092241 -3.389318
66.701925 28.120409 -52.701285
69.565232 38.215824 -46.562039
70.005307 43.168073 -24.181867
64.735133 24.251486 -44.445997
69.800476 39.884348 -6.638531
64.555671 23.948974 -30.148233
62.947497 21.424000 -45.923477
49.262269 9.139651 -12.761216
43.100082 6.449966 -35.485097
62.087319 20.205034 -49.852866
69.470677 37.545168 -40.058471
49.528922 9.279099 -43.650743
69.094016 35.611521 -37.216205
67.695810 30.628484 -48.181323
69.382098 36.916900 -41.811524
60.031830 17.678002 -18.443293
47.455319 8.194696 -19.981162
65.909030 26.465647 -50.708962
54.094042 12.239784 -54.454774
69.858901 40.704803 -39.177015
48.407137 8.692454 -39.358556
41.841576 6.027755 -43.519730
42.461038 6.235576 -15.243443
39.930529 5.505144 -23.505177
48.486216 8.733809 -14.193095
64.623266 24.062915 -37.440002
40.617693 5.683102 -48.940240
68.244794 32.356629 -39.824369
61.036671 18.886639 -58.748840
69.056364 35.442462 -53.626767
67.630946 30.464800 -16.254596
55.077465 12.971935 -7.158814
62.535314 20.839893 -15.666661
45.999632 7.562898 -17.567019
68.500518 33.188580 -10.588710
48.554507 8.769522 -17.748093
40.556963 5.667375 -27.245944
69.952520 46.087206 -6.292858
62.403812 20.653540 3.716893
37.439709 4.860082 -19.594275
70.001742 43.365197 -17.065805
69.008392 35.227067 -21.300943
53.513353 11.807465 -35.278355
45.468014 7.336416 -26.353953
69.036900 35.355066 -42.662471
69.982519 42.729049 -7.867129
57.480968 15.049236 -13.702158
64.178337 23.312921 3.742643
47.545291 8.241747 -12.475907
61.986120 20.061624 -53.569641
49.468766 9.247640 -3.326719
61.659045 19.635239 -26.580884
61.383264 19.303527 -43.812485
69.962477 45.536592 -8.516805
41.340054 5.870176 -6.955747
54.512007 12.550956 -0.244758
55.922077 13.684586 -28.322103
59.573465 17.171779 -42.911979
52.496811 11.082105 -56.829872
66.978100 28.817339 -61.010634
37.660337 4.917219 -10.163585
44.908238 7.097938 -8.010708
64.340934 23.587003 -11.747598
45.978877 7.554056 -60.850274
58.550365 16.122281 -3.010331
49.624304 9.328979 -30.558156
44.986751 7.131386 -33.585477
69.942249 42.069637 -59.508113
57.669551 15.218740 -53.047722
62.089299 20.207840 -5.019527
68.800116 34.291897 -29.303919
40.301861 5.601309 1.506314
52.558725 11.121000 -55.012458
57.913929 15.469424 -26.044008
65.556339 25.747254 -18.563774
63.154603 21.717491 -55.745418
52.613536 11.155434 -48.233230
64.014862 23.037359 -59.288892
69.355088 36.783743 -18.298324
68.397287 32.852734 -16.436606
49.861322 9.452930 -16.717437
69.826493 40.174116 -46.112844
37.340714 4.834444 -37.896405
69.980000 44.567585 -33.926021
42.999032 6.416065 -55.455135
66.280123 27.221524 -34.995697
59.519995 17.116930 -27.026257
50.008725 9.530015 -37.089705
61.794675 19.798377 -32.773584
60.201729 17.882359 -7.314651
53.151557 11.538110 -10.298894
56.866807 14.511601 -23.867725
35.030670 4.236199 -41.353924
50.808970 10.021771 -17.974841
69.030988 35.328521 -12.434695
44.468492 6.910595 -3.509454
63.110570 21.655092 -35.603126
59.057590 16.642594 -11.956105
58.298688 15.864110 -4.947313
37.319406 4.828926 -51.010004
69.830426 40.238527 -26.514734
50.029769 9.541020 -47.106012
65.938665 26.526011 -12.815656
68.408326 32.888648 -5.145720
68.523843 33.264462 -0.213901
61.998715 20.079473 -45.274781
69.949879 46.233340 -13.541633
69.939895 42.031090 -45.793031
67.928774 31.328511 -23.712485
69.993136 43.841117 -38.961531
62.495019 20.782790 -37.710113
56.504139 14.194122 -39.383371
69.999963 43.463604 -41.793754
63.731861 22.560317 0.618812
62.476306 20.756271 -34.265501
45.557746 7.374644 1.343926
35.264907 4.296861 -19.264134
42.887176 6.378539 -5.974063
63.620053 22.377085 -10.929914
68.252312 32.381085 -58.770427
53.201879 11.575575 -19.989396
69.192009 36.051513 -27.069727
62.830937 21.258822 -6.572863
46.659571 7.844048 -52.450817
57.604100 15.157026 -15.577862
66.675446 28.053590 -11.249674
59.819910 17.424583 -10.478541
58.566784 16.139124 -8.770510
53.972033 12.148949 -23.303736
52.881995 11.337424 -44.805628
65.061830 24.802183 -49.813983
67.149896 29.250868 -6.096794
36.803374 4.695286 -4.217947
69.983063 44.398208 -57.660706
65.533839 25.701424 -28.570341
35.422622 4.337705 -29.380894
50.014602 9.533088 -7.491482
42.206707 6.150251 -60.485650
69.415635 37.154773 -33.839579
69.980909 42.702691 -48.352704
35.122859 4.260074 -35.403753
58.917134 16.498514 -28.991337
42.640107 6.295651 -3.373772
66.558296 27.788133 3.617295
69.101405 35.644696 -39.134902
55.119257 13.003049 -36.719088
55.068262 12.965083 -29.600178
47.075102 8.021074 -25.605638
47.672329 8.308182 -47.989448
36.615635 4.646667 -56.508965
49.979652 9.514811 -38.958840
69.908103 41.510490 -31.135803
39.236262 5.325345 -39.162486
69.992774 43.861181 -46.737163
69.959185 45.718729 -50.767493
61.843059 19.858892 -7.364818
65.557618 25.749858 -6.459365
44.453222 6.904090 -48.130205
65.221058 25.070586 -13.188058
55.138889 13.017665 -34.995802
54.212364 12.327874 -33.779328
51.086670 10.196227 -12.687433
60.720592 18.506455 -36.140148
53.153887 11.539845 -16.143367
65.138775 24.931885 1.347138
68.120281 31.951546 -50.244983
69.165793 35.933801 -2.083088
65.090175 24.849963 -58.565850
45.241071 7.239732 -58.797014
69.853567 40.617468 -19.777445
65.658085 25.954500 -59.547456
60.517800 18.262533 -46.888772
59.623306 17.222906 -36.132510
56.280224 13.998107 -6.028853
57.483710 15.051636 -35.860936
57.905429 15.460705 -20.522081
65.009778 24.714441 -60.466845
37.124814 4.778531 -1.714977
40.372307 5.619553 -25.333618
69.727709 39.368233 -25.137586
58.213890 15.777124 -18.326350
62.567818 20.885954 -42.589704
68.198728 32.206760 -6.525634
68.690231 33.805776 -24.699034
41.371756 5.878386 -17.771737
49.759123 9.399484 0.902514
65.750619 26.142981 -32.534823
64.936112 24.590266 -19.753110
37.226770 4.804936 -6.691869
62.122650 20.255103 -51.568468
43.211878 6.487472 -8.149912
69.961576 45.586488 -58.659741
59.187699 16.776059 -25.113591
69.975837 44.797823 -40.757908
50.622914 9.904887 -33.959128
50.819002 10.028073 -19.747646
61.491852 19.434137 -16.344356
54.055968 12.211438 -11.532180
49.965181 9.507243 -53.877554
49.497806 9.262827 -60.982727
69.954129 45.998219 -11.371127
69.951707 46.132165 -2.635863
46.878762 7.937428 -37.880426
48.276118 8.623937 -31.524270
53.654833 11.912796 -14.052050
47.910517 8.432744 -10.480158
66.650264 27.990043 -14.318681
49.014261 9.009954 -9.088455
48.824100 8.910508 -33.437556
35.086545 4.250669 -1.579267
58.841915 16.421353 -39.165544
64.087379 23.159597 -14.401775
50.760189 9.991125 -26.554189
41.598127 5.946081 -19.523039
40.745958 5.716320 3.087910
50.508765 9.833176 -10.947926
69.106004 35.665345 -44.404300
41.359236 5.875144 -51.183876
65.294747 25.214419 -35.658464
60.711767 18.495840 -8.680998
40.099737 5.548964 -37.320313
67.865826 31.123721 -53.527107
68.141356 32.020110 -42.140531
69.092399 35.604261 -17.261881
46.092600 7.602504 -20.923700
69.559537 38.175427 -28.622576
69.608526 38.522898 -12.131061
60.739198 18.528834 -33.019064
47.127814 8.043531 -23.535450
69.421738 37.198058 -56.557727
37.226215 4.804792 -33.881283
65.809697 26.263316 -39.096823
67.695758 30.628354 -58.118390
69.955717 42.290163 -22.491240
66.756802 28.258890 -41.526363
65.781674 26.206238 -48.725642
69.992215 43.892083 -22.250398
45.352367 7.287147 -37.655332
68.569653 33.413498 -8.640207
48.401319 8.689412 -37.089124
69.526411 37.940474 -15.324846
43.082775 6.444160 -18.877143
35.268514 4.297795 -7.574006
47.560613 8.249760 -34.228006
68.447468 33.015992 -49.029038
58.620920 16.194657 -34.343202
62.463725 20.738442 -17.531753
69.852049 40.592599 -56.134455
49.971894 9.510754 -50.400699
67.817352 30.966021 -40.663661
64.365388 23.628223 -51.548092
56.532729 14.219150 -32.157255
63.215108 21.803233 -48.196903
67.488584 30.105549 -49.825374
35.538202 4.367637 -45.227089
68.906164 34.768058 -9.589914
65.727173 26.095224 -44.350146
64.000942 23.013894 -34.360225
69.933938 41.933534 -20.710711
50.601022 9.891133 -58.890529
55.947718 13.707032 -59.355893
44.181005 6.812601 -56.856326
69.954099 45.999928 -31.559244
68.441744 32.997370 1.947969
65.538834 25.711599 -0.100980
42.793979 6.347273 -17.209592
69.462247 37.485375 -2.556801
69.355972 36.787711 -47.453339
65.638587 25.914783 -21.277724
67.275494 29.567813 -25.037571
66.582648 27.837736 -2.290972
68.434064 32.972384 -54.141087
44.793794 7.049182 -35.979626
45.944000 7.539197 -3.262605
55.612646 13.413711 -20.476881
65.976378 26.602828 -52.274499
61.362085 19.278052 -37.546938
55.320769 13.158203 -26.925431
55.406692 13.233419 -17.554440
67.683733 30.598007 1.222064
64.320389 23.552371 -53.895778
68.539578 33.315655 -41.423735
67.902901 31.244338 -28.289619
60.487989 18.226677 -41.409901
68.796309 34.274804 -59.156949
69.825706 40.161230 -1.587873
48.194173 8.581083 -41.358561
55.521765 13.334154 -47.512617
67.599873 30.386387 -42.423727
36.538051 4.626574 -25.983727
68.749311 34.063784 -3.960067
68.147250 32.039286 -25.633175
69.906606 41.485977 2.264377
38.416308 5.112997 -40.804122
56.094897 13.835872 -9.814492
69.915582 41.632952 -15.928126
51.983405 10.759573 -58.476945
43.974965 6.743477 -0.226560
70.004007 43.239929 -14.806927
50.243729 9.666675 -0.632168
69.879918 41.048961 -23.846958
68.778524 34.194949 -15.127193
63.763214 22.613166 -5.205148
64.016138 23.039510 -9.619786
49.432613 9.228733 -40.636574
42.357047 6.200688 -50.081058
61.619246 19.587369 -2.973159
55.489077 13.305539 -11.684145
47.283180 8.109720 -27.844562
57.605422 15.158183 -29.187247
45.892406 7.517217 -40.055652
39.979642 5.517863 -60.004895
58.608184 16.181592 -55.125639
52.053066 10.803336 -34.866970
66.304313 27.270796 -54.151045
50.217870 9.650430 2.442747
69.460663 37.474141 -20.432661
54.878395 12.823729 1.374474
57.146157 14.756143 -37.394928
64.035430 23.072028 -45.550840
60.629905 18.397376 -22.378544
63.958259 22.941945 -6.786758
66.317298 27.297245 -27.370983
63.595796 22.342710 -24.513045
54.100394 12.244513 -17.632410
46.037400 7.578988 3.847206
69.939785 42.029287 -0.650994
62.348505 20.575164 -29.404359
67.858240 31.099043 -60.213092
47.664075 8.303865 -42.788053
50.947465 10.108775 -9.294089
68.292049 32.510363 -32.339972
53.151611 11.538151 -52.762578
51.930717 10.726474 -7.814371
53.745750 11.980483 -56.172389
60.792321 18.592731 -27.496211
68.515115 33.236069 -37.970841
68.503810 33.199290 -34.753262
66.275169 27.211432 -61.095698
64.346143 23.595784 -57.811557
52.636419 11.169809 -18.196417
69.998299 43.555640 -5.891201
62.193137 20.354990 -58.972379
40.126860 5.555988 -42.317861
66.605063 27.883392 -59.391945
64.269747 23.467006 -43.058159
63.417962 22.090700 -44.403705
56.306114 14.020771 -52.619124
66.435979 27.538985 -17.130686
57.492418 15.059259 -6.794735
69.676825 39.007326 0.070207
56.285110 14.002384 -36.156353
51.092882 10.200130 -29.715093
39.004264 5.265263 -22.116596
50.025626 9.538853 -14.286458
66.400564 27.466849 -22.671681
51.834300 10.665902 -38.393111
61.814410 19.822115 -39.893365
38.933474 5.246930 -50.356817
35.264035 4.296635 -38.160544
67.940811 31.367673 -8.460650
55.082194 12.975456 -60.601482
57.028417 14.653074 -46.344115
67.815282 30.959286 -34.719507
69.694842 39.135112 -39.344373
62.742986 21.134185 -27.487558
69.640867 38.752284 -21.806858
50.959322 10.116225 -48.385165
61.976071 20.047385 -19.727445
63.565461 22.299722 -37.813254
66.005704 26.662562 -8.664231
63.869654 22.792588 -41.376670
45.316777 7.271985 -31.784233
40.043624 5.534432 -47.301805
69.493569 37.707533 -0.861937
68.688970 33.801674 -56.939141
67.401186 29.884999 -9.201849
36.595278 4.641395 1.606913
70.002839 43.304554 -27.866983
56.835212 14.483942 -11.312421
39.427689 5.374920 -30.619961
67.652798 30.519943 -26.436077
45.509535 7.354104 -5.833485
63.619390 22.376145 -39.417195
69.975120 44.837459 -28.562412
51.843391 10.671614 -45.931572
63.327866 21.963025 2.546836
54.486093 12.531663 3.580172
68.777848 34.191916 -36.333289
66.520009 27.710146 -4.212969
69.852240 40.595727 -11.549685
39.728757 5.452890 -17.726966
48.430712 8.704783 2.369078
66.015648 26.682817 -42.556052
61.547373 19.500919 -10.878642
66.764811 28.279102 -21.046750
69.831720 40.259716 -48.056033
61.782411 19.783626 -41.902454
43.803147 6.685835 -32.443205
51.498173 10.454741 -16.497224
35.679618 4.404261 -33.684275
58.363558 15.930655 -42.405207
51.128779 10.222680 -56.260840
56.364537 14.071914 -25.758071
64.905714 24.539026 -56.284383
60.986522 18.826319 -55.512521
69.953251 46.046838 -29.721055
69.632621 38.693799 -41.171099
46.408302 7.737001 -41.663263
69.885674 41.143215 -13.672134
60.106045 17.767270 -16.735865
65.478579 25.588865 -9.755062
40.363867 5.617368 -32.432487
57.705937 15.256066 -22.262196
67.269725 29.553256 -1.276523
53.213848 11.584486 -0.820898
37.488169 4.872632 -44.398301
61.391022 19.312858 -28.835316
58.163305 15.725235 -24.283218
38.517639 5.139239 -32.461381
67.008875 28.895000 -15.717502
69.136590 35.802679 -7.639548
39.039776 5.274460 -34.185445
42.911081 6.386559 -22.860540
49.512259 9.270385 -48.542488
67.265004 29.541342 3.797061
61.055314 18.909063 -18.149592
62.332668 20.552721 -31.325558
68.916538 34.814638 -0.677561
38.209898 5.059542 -13.607564
68.154614 32.063243 -47.714115
66.250368 27.160917 0.974810
52.320710 10.971474 -42.681251
