-58.574660 -30.654983 6.720260
53.728251 -52.182821 5.551379
-33.037645 -57.394659 4.472585
77.221855 31.376143 4.257904
-46.692179 58.661257 4.189576
3.239493 -68.727087 4.013374
80.266474 20.058559 6.092518
-23.998476 -62.234773 6.874037
-10.604154 78.981187 6.745320
-17.818344 76.885810 6.713121
7.447541 -68.795416 6.510658
-66.931429 -7.672134 4.515327
80.507634 18.789168 4.903319
20.622715 79.684147 6.797058
43.325711 71.420016 4.617069
-5.350093 -67.851014 6.772819
-14.101738 78.085995 6.852873
-15.259712 77.715020 5.405721
67.489675 -37.628474 3.888289
-68.182608 3.364163 6.067888
37.828873 74.215535 6.204934
-9.706381 79.210968 4.012952
-58.516621 42.955363 4.231106
73.053602 40.833321 5.500354
-0.906897 -68.432348 6.758510
81.372694 11.743274 6.083376
56.354795 -49.995455 4.387114
24.395889 78.874972 6.713312
50.647015 -54.534823 5.214364
80.448607 -6.910850 5.386162
-35.939487 67.701723 5.277526
78.232642 -16.064953 3.959719
76.938710 -19.911616 6.665563
81.068044 14.851623 4.205410
-22.454527 -62.912637 6.371671
45.461667 -57.993717 6.473424
-65.813815 24.884432 4.051374
73.671264 -27.443583 6.455460
14.457130 -68.407068 4.560309
42.215363 72.031532 4.014423
41.611497 -60.164415 5.148809
77.895096 29.298771 6.479752
-6.844779 79.761307 6.327933
32.841148 -64.094376 3.890049
-45.083413 -48.025454 6.635599
79.350931 -12.041984 3.908026
65.910447 51.999253 6.690976
81.285243 13.121743 6.805961
44.208795 70.933664 5.849975
64.278782 -41.776829 3.940414
-63.787067 -19.349519 3.990329
-67.634121 -3.155738 5.796959
79.861764 22.188818 6.843273
-58.661504 42.692291 6.732829
-62.462861 34.893423 5.204690
-57.859666 -31.957883 6.600343
-63.349011 32.660221 6.859504
53.655454 64.442283 4.522263
63.643230 54.744079 4.671244
-56.555762 -34.021001 3.888490
10.923124 -68.675949 4.022048
-68.029022 0.892952 4.095364
19.302395 -67.737432 5.116587
-26.741381 -60.941538 6.495826
77.107450 -19.486370 4.472220
-62.694994 -22.113864 4.450389
81.456428 10.396053 5.640610
-13.102435 -66.142457 4.116230
-49.606988 -43.352138 3.980967
67.089943 -38.177781 6.283019
-66.561522 21.802824 6.797732
16.666382 -68.129681 4.950534
80.776254 -4.957492 6.459677
81.348344 0.094354 4.597034
-67.337855 17.685618 5.126337
50.599250 66.767113 6.851669
58.621725 60.065432 5.163575
39.000852 -61.466351 6.877580
35.936552 75.065947 4.999730
-67.099732 -6.786213 6.769152
59.225897 -47.306496 4.556505
-13.169344 -66.125223 5.684952
-50.747946 54.167201 6.735770
79.239665 24.670961 5.285058
-50.506047 -42.263673 4.447085
-67.982310 12.025735 6.755624
-67.716331 -2.501010 5.016649
31.601337 -64.554894 5.455651
80.235104 -8.025521 5.520687
77.715821 29.851948 3.879709
27.447678 -65.895014 4.216688
-46.226381 59.152766 6.352157
52.904028 -52.863640 4.497686
47.743484 68.743488 4.366482
-45.825119 59.532058 4.165451
15.341411 -68.296040 5.529249
39.717077 73.325277 3.921111
40.771477 -60.625387 5.862511
-65.690225 25.364269 6.401448
-24.405053 74.238979 5.451530
71.186575 44.229802 6.541258
57.477621 61.141446 5.593613
13.687343 -68.503720 6.332093
-67.115191 -6.704840 4.785848
65.201585 52.857433 5.806557
58.636262 -47.863846 5.284843
79.136269 -12.875414 5.552001
-62.333305 -23.029402 5.325542
-41.156936 -51.522056 4.534708
43.364913 71.398426 6.573920
-67.667522 -2.889732 6.741727
-46.730890 -46.426574 5.564065
-49.634182 55.511444 5.231999
-1.203655 80.589706 4.042915
-46.427437 -46.750213 6.743334
-66.756180 -8.594624 3.918372
60.840514 57.845837 4.371951
-32.668425 69.825080 6.813293
-33.681680 -56.985261 6.290210
69.799095 -34.221758 6.812522
-31.960594 70.273536 5.402502
-63.393920 -20.344685 4.543886
-16.345596 77.363103 5.032262
-30.186992 71.293653 6.730740
-26.760766 73.132630 5.611159
67.292062 50.097386 4.138243
71.698497 43.302701 4.001954
-60.431269 39.363181 4.033949
-44.288031 -48.773500 6.497046
69.265503 47.262030 3.992572
54.255710 -51.747132 6.851972
-67.422090 17.022859 6.576620
7.434816 80.991667 6.877870
-57.052679 -33.236611 6.776341
74.402098 -25.893546 6.871376
56.696873 -49.674713 6.859323
67.832144 -37.157858 5.723173
-55.825441 47.367244 6.498833
-29.495406 -59.475611 4.234621
6.532630 80.992345 5.733844
77.366359 -18.724254 6.766431
10.773457 80.883594 4.987743
-19.665242 76.214705 6.384136
58.159213 60.500418 4.087003
40.430236 72.989034 4.821166
81.429543 1.369522 4.199932
80.997855 -3.213990 4.018898
-67.862776 13.555563 5.086855
80.928410 -3.760366 5.904956
-11.104150 -66.657158 6.728820
8.436348 -68.796159 4.418777
65.944549 51.955016 5.689050
58.782003 59.914693 6.200786
-68.103618 10.120672 5.424430
35.273930 -63.133290 4.653807
24.666704 78.805221 4.618707
-5.114771 -67.896089 5.601325
76.155956 34.083431 5.456741
23.039571 79.221206 5.817622
-57.323486 45.010677 5.174742
77.762709 -17.507544 6.874814
46.048066 69.821235 3.962671
77.274211 -19.007128 5.850640
-4.054901 -68.032244 5.911424
66.885724 50.657545 5.875803
53.284061 64.749997 5.622988
81.206281 -1.574147 6.055105
-66.727961 -8.743165 5.102619
61.882354 -44.529562 4.507191
-48.109483 -44.956279 5.627252
25.518667 78.585791 5.430532
-68.033827 11.216688 5.826402
-3.487382 80.302966 4.445226
-7.665432 79.605404 5.504343
-65.109536 -15.295115 3.903625
-47.752719 -45.346144 4.176835
-62.708190 -22.080462 6.834651
81.577724 4.387158 3.919098
-42.692918 -50.249431 4.422631
25.602469 -66.367287 6.644773
34.090960 75.798278 3.944905
-32.848322 -57.515008 6.038708
-56.464460 46.362006 6.736150
-62.933042 33.708512 6.833580
-32.117838 70.173918 4.117194
-13.208099 78.314718 5.116801
18.963439 -67.801825 6.712954
-56.251584 46.696881 4.290024
-60.150969 39.957674 6.616210
-65.573621 25.816988 4.542254
-5.889994 79.942690 4.200347
9.335337 -68.774630 5.016905
-64.692580 -16.581686 5.609404
74.778602 37.289638 5.212507
66.200735 -39.399720 3.880212
-45.456608 -47.674469 5.502946
16.573895 -68.141293 6.185232
-54.463267 -37.152547 5.388673
-66.196242 -11.193938 6.869449
-40.526328 64.240581 5.390009
-30.822944 70.944666 6.047251
47.213338 -56.883945 4.653937
67.343788 50.026077 5.126631
-16.826471 77.207260 6.194266
50.183484 -54.871046 3.933899
0.986887 80.782540 3.890630
-65.309716 26.841604 6.791394
-59.982572 -28.089410 4.033305
16.308507 80.371644 6.264712
0.591602 -68.558479 5.315101
38.855386 73.731551 6.283540
71.293092 -31.837390 4.706772
23.677162 79.060086 3.895556
-46.875640 -46.272196 4.595790
-47.401666 -45.711179 6.438076
-62.478315 34.854477 6.872170
12.261667 -68.592759 5.700438
32.321571 76.500371 6.759989
-52.246712 52.358282 3.933164
13.510564 -68.515140 5.063339
30.719221 77.036639 3.971566
-67.785374 14.164555 6.562709
37.440575 74.398611 5.225028
-39.285124 65.265823 6.291666
54.336672 -51.680260 4.768067
79.451790 -11.650400 5.763994
-15.785938 77.544479 4.069245
-20.539569 75.869299 5.512118
-21.670299 75.422600 3.903954
-11.997293 -66.427110 3.919754
-54.232030 49.670145 3.897013
-51.272842 -41.335360 6.657660
-18.925796 -64.312838 3.908767
63.090449 -43.211074 4.497666
-43.631640 -49.390826 5.468897
-59.460355 -29.041021 6.709822
-53.963334 50.039388 4.908302
-68.115165 2.278997 3.972939
-64.907207 28.122553 6.591464
-38.845387 65.593860 3.992951
81.547416 3.220641 4.360824
-66.289518 23.037505 3.907565
-65.949358 24.358184 6.218193
-68.207725 6.548960 4.147748
-43.506387 -49.508625 4.413579
-55.278310 -36.028938 6.776772
50.542904 66.808116 4.658942
81.095589 -2.445042 6.712287
77.549246 30.365936 6.715458
32.434745 -64.254928 4.791358
80.727870 17.560939 5.057998
73.854498 -27.054959 5.002360
33.886338 75.879472 4.974669
-68.113702 2.255459 6.571548
-53.455415 -38.541973 6.826095
29.403310 -65.267237 6.593500
-41.513796 -51.226383 6.400603
-64.608387 29.039864 5.874605
64.193861 -41.879323 6.597151
-37.966074 66.231690 6.249561
3.381301 80.931353 4.170049
78.895077 -13.811843 6.247518
42.608270 -59.617422 4.837816
-49.358049 55.826745 4.092077
-45.206889 60.108439 6.756648
-10.628918 -66.779565 5.433791
15.389570 -68.289993 3.984376
80.790047 17.065737 6.827422
68.312857 -36.497267 6.449434
58.874079 59.828096 4.053644
-33.941270 -56.820246 4.246829
-51.583905 53.158250 4.512643
-66.175666 23.479540 5.657807
-32.084096 -58.000808 4.104541
80.680757 17.877903 3.969567
74.105093 38.723718 6.431521
73.340933 40.309725 6.562655
-65.629999 -13.406289 6.461052
29.873859 77.312034 6.386564
79.354273 24.223181 6.315599
45.744218 -57.814716 4.138431
-18.789981 76.560480 4.028888
-29.612413 -59.411170 5.239842
-49.037548 -43.980580 4.859062
-11.278075 78.808700 5.545054
-21.868926 75.344132 5.346651
68.436109 -36.327895 5.275429
-67.768347 14.298522 4.421318
76.251840 -21.642609 5.525271
69.418630 -34.820272 6.018694
56.833411 61.747316 6.235172
-6.517801 79.823423 5.171155
-3.059616 80.356676 6.517456
-30.688066 -58.818757 4.972523
-65.753965 25.116801 5.222591
1.870565 -68.639919 6.759901
81.579839 7.174833 6.029340
80.334084 -7.508759 4.331090
46.919711 -57.069947 6.630791
-42.692819 62.451047 4.431367
-4.342120 -67.995739 6.845640
-48.414626 -44.630838 6.689953
11.065434 -68.667105 6.512234
59.975709 58.758474 6.717066
80.930379 15.948059 6.856366
79.024163 25.512945 6.030036
59.932758 -46.602509 4.448677
28.313932 77.820214 5.432564
-21.781752 -63.179594 5.524204
29.609838 -65.200305 4.011180
-64.132369 30.501139 4.639770
-65.656523 -13.302659 4.131758
12.316456 -68.589354 6.829345
76.311373 -21.492578 6.542106
-7.884596 79.563769 6.595405
81.368191 0.406042 6.872457
64.958623 53.151584 6.724069
62.845023 55.698298 6.527548
79.288233 24.481202 4.063779
38.338359 -61.777486 5.352586
69.274647 -35.046773 4.046425
-56.937209 -33.418884 5.609890
22.545423 -67.121343 6.728661
61.979212 -44.426575 5.590231
-67.038027 -7.111017 5.714021
27.281413 78.131781 5.636650
72.751470 41.383890 6.693679
78.038516 -16.660876 6.150073
19.611968 -67.678621 3.953571
44.472147 -58.594595 6.726208
-3.952625 80.244551 5.979831
-44.475109 60.794583 6.763689
-40.614024 -51.971881 5.510097
-9.452042 79.265996 6.460191
-2.884976 -68.180939 4.937528
12.999759 -68.546886 4.012766
81.430559 10.812259 6.615901
55.633890 -50.608738 4.069680
-49.286105 -43.706875 6.028283
-68.207256 7.166080 5.926589
62.420901 -43.956941 6.852762
-61.323681 -25.271025 4.131951
74.893701 -24.850898 3.968002
-29.210915 71.829289 5.494965
-44.374625 -48.692060 5.035598
19.657516 79.869028 6.214848
71.841150 43.042748 4.959119
14.706990 80.575192 5.502400
-10.714491 -66.757524 4.151757
78.917423 25.929986 5.134842
-56.794840 45.842287 5.918012
-31.809899 70.369010 6.637774
5.773600 -68.794157 5.430756
-1.605178 -68.343598 4.444194
79.597799 23.271705 5.863562
25.795342 78.514531 3.895403
-10.324576 79.052744 5.507348
-17.132476 -64.909529 6.507913
-64.178241 -18.168746 6.413867
74.786628 -25.077990 6.299961
77.622837 -17.936922 5.463889
75.780283 35.034383 4.057519
29.755868 -65.152979 5.485283
81.293883 -0.760927 5.467111
20.992056 -67.416441 5.906489
-66.478940 -10.053973 3.901138
41.449410 72.453376 6.466418
78.102990 28.657287 3.893610
-55.211957 48.323525 6.751668
20.456037 -67.518271 4.542537
8.943884 80.990532 4.858129
68.528608 48.392698 5.754980
17.614956 -68.010581 6.824920
55.839152 62.632999 5.829784
71.939947 42.862712 6.817252
80.644612 18.068159 6.708201
70.851307 44.758990 5.640150
76.162976 34.065660 3.879524
-67.530534 -3.980711 4.905853
-68.209249 4.539683 6.514805
-64.031194 -18.622477 4.922262
-61.108895 -25.728370 5.730519
68.550946 48.361902 4.297972
80.866761 16.454741 5.357417
27.968515 -65.732230 6.784129
-32.942623 69.651382 3.978833
-59.502614 41.165044 4.659101
-67.662401 15.132100 6.475798
64.019092 -42.090260 5.237470
-45.679907 -47.464459 4.172418
-40.564996 64.208641 6.715422
-44.963898 -48.137856 4.021053
81.097549 14.616634 5.716548
55.261470 63.111632 5.056095
22.097028 79.401747 4.167339
-36.465270 67.320334 6.436680
57.856727 -48.600699 3.948487
-34.073217 68.935055 6.413436
-51.964179 -40.498367 4.319026
-60.529258 -26.962591 6.766237
6.093472 80.992675 6.681414
-48.836250 56.381553 5.453799
31.700689 76.716905 4.156542
81.063417 14.888477 6.863550
-42.283506 62.789140 6.113874
-53.525895 50.640519 6.848194
-35.577624 67.964209 6.180611
42.456853 71.898534 6.531421
81.030901 -2.953989 5.011192
20.959476 79.619641 5.386738
76.534117 33.126181 5.342146
-54.890703 48.764994 4.202077
70.809615 -32.632094 5.448987
-26.785454 73.121035 4.642536
55.407543 62.990604 6.770180
80.116717 -8.643605 3.951145
-66.558748 -9.633876 6.403282
-37.277810 -54.533703 6.746692
47.844889 -56.483792 3.885678
7.545145 80.991584 5.296510
-66.982897 19.602955 5.882875
-66.737154 20.885906 3.921982
17.101264 80.270887 6.817112
-51.580539 53.162311 6.794447
-49.221842 55.971569 6.700257
57.193605 -49.227513 4.337180
-20.741274 -63.592456 4.757771
-55.875423 -35.094797 4.386549
60.577257 -45.917232 6.110815
13.530448 80.708039 5.944144
-36.997600 66.934222 4.282787
-14.227584 78.049515 4.981135
-2.176463 80.467562 5.570933
-5.347949 -67.851425 3.960207
80.416646 -7.077714 6.749869
74.448148 37.993262 4.502412
38.350402 73.969642 4.093727
77.634102 30.104102 5.711408
-8.711428 -67.207161 5.425371
-40.262325 -52.263278 4.456541
-67.903982 13.231353 6.078451
11.740767 80.822000 5.317219
-63.671562 31.847356 6.015614
-64.319630 -17.732472 3.986335
-60.760538 -26.470126 4.174551
62.444284 56.125703 5.270732
-58.123288 43.669560 5.488923
-18.132962 -64.583615 5.683556
-54.554684 -37.026531 4.045394
35.136146 75.383548 4.229482
-57.027417 -33.276523 4.629811
41.927293 72.190185 4.952349
-58.636356 42.737954 5.376139
36.041424 75.024334 6.649483
55.216780 -50.953277 5.225334
-67.635331 -3.146103 3.952042
21.969257 -67.230799 5.808830
-30.096985 71.343046 4.149806
-16.726392 -65.041813 4.125065
75.879736 -22.580354 4.128280
-36.112581 67.576206 3.955814
35.608769 -63.001010 5.700729
26.805168 78.254442 4.280578
-68.208936 4.952464 5.048067
23.753415 -66.840545 6.619758
80.263134 20.076140 3.884865
79.648281 -10.887520 4.181512
77.852478 -17.231974 4.426434
81.511421 9.511256 4.091481
81.403485 11.247875 4.073724
-68.207752 6.512181 6.747692
69.253373 47.281165 5.350727
25.519603 78.585550 6.675467
26.939842 78.219756 6.869154
-18.224874 -64.553674 6.752889
28.525899 77.751161 4.449934
-63.988276 30.943473 6.848420
58.032596 60.619499 6.855844
71.571972 43.533264 5.884293
-63.334114 32.697764 5.357382
-8.487579 -67.250039 6.669000
75.866948 34.815006 6.750367
-34.399700 -56.528832 6.792184
-28.404301 72.271929 4.864346
-63.523284 -20.017228 6.577703
44.758566 -58.437418 3.903032
81.240573 13.477517 5.209464
-27.649784 -60.492082 4.062544
60.833528 -45.644747 5.095920
78.088303 28.702608 5.267581
70.538268 45.253092 4.317456
-53.970588 -37.831747 4.921987
-26.430134 73.287909 6.829730
2.157951 80.855322 6.877079
-68.051971 10.931758 6.831864
-16.086733 -65.250186 5.270756
-66.253178 23.178596 6.783337
-27.717161 72.649006 4.121224
22.934138 -67.047497 4.831961
-27.542751 72.744716 6.304782
66.401584 -39.123717 6.755345
-14.803638 77.862826 4.090549
-23.403821 74.709203 5.480264
37.109593 -62.354566 6.528642
17.501345 80.220038 5.826061
9.461271 -68.766804 6.674927
53.683563 64.418993 6.816906
56.803517 -49.574720 5.592294
-59.421571 -29.111696 5.651538
-43.562152 61.671120 3.967023
-67.886640 -1.144652 4.661016
78.467374 -15.344374 6.839829
-57.534594 -32.475972 4.046312
67.866426 49.305561 6.430406
-30.233650 71.268049 5.254512
46.792082 -57.150809 5.528671
17.314860 -68.048260 4.196271
28.591667 -65.530277 3.955351
66.563749 -38.900872 5.201734
77.454654 -18.453208 3.968383
-38.986554 -53.290233 6.432065
60.112753 58.615770 5.126059
21.491163 -67.321624 4.895627
-63.529123 32.206319 4.409814
46.043908 69.823878 6.813919
4.847049 -68.793460 6.570672
79.762399 -10.444455 6.797041
-10.732736 78.948277 4.273741
72.340396 -29.935770 6.270387
81.297007 -0.711867 6.573686
-44.794962 60.505810 5.008732
-66.889139 20.092439 6.860292
77.001595 31.942841 6.251040
-56.367829 -34.317573 6.875014
-53.493790 50.684637 3.925234
-67.969483 12.227170 5.286262
-7.350321 -67.467877 6.873947
51.415343 -53.977501 6.825579
-27.805040 -60.406575 6.692693
-1.800629 80.514751 6.582316
75.453774 35.852016 6.010006
-67.758092 -2.168424 4.064105
-56.994590 45.528062 4.135959
52.465290 -53.215901 5.367982
-60.546690 39.118382 5.018022
-67.387725 17.293242 4.023436
-47.435942 57.870444 6.720059
71.632919 -31.220357 4.035525
78.753169 26.571740 4.243121
-58.410043 -30.954957 4.206396
81.580169 7.609664 4.164555
-3.270503 -68.131939 3.956652
-33.519837 69.285658 5.404930
30.923260 76.970169 6.362420
16.137984 80.393317 5.045744
-54.579351 -36.992520 6.560162
-31.206280 -58.533352 6.058359
71.904027 -30.728099 6.806672
-50.644709 -42.095814 5.677225
-67.218861 18.371062 5.820636
78.428508 27.652859 4.063951
-55.909009 -35.041772 6.352882
80.111786 20.872786 4.865948
-35.298149 -55.957708 5.137193
-36.131202 -55.368101 6.849306
-38.777183 -53.442594 4.160264
9.860145 80.941750 6.007725
50.519166 66.825391 5.663420
44.254941 70.908249 4.658949
64.577088 53.613481 5.364124
66.033499 51.832394 3.933564
4.708128 80.993717 5.000873
73.031320 -28.681240 6.478397
46.793312 69.347495 4.987057
3.209611 -68.725184 6.567318
-17.733576 -64.713717 3.899765
-67.961031 -0.201040 3.961427
75.805509 34.970528 5.617521
59.710250 -46.839094 5.413453
-16.830996 77.205793 4.123778
-67.383944 -5.148168 5.619200
65.049652 -40.846437 6.256118
-35.074868 68.300449 3.912833
51.526829 66.092104 5.235986
-39.694491 -52.733752 5.239392
65.589749 52.387490 4.623413
64.893107 53.230888 4.211180
80.600731 -6.116635 6.731184
-7.638312 79.610556 3.900390
-38.126763 66.115141 5.191004
7.865548 80.991343 4.084553
-64.789458 28.484015 4.798065
52.372668 65.476579 4.771693
48.452907 68.292521 5.843821
-2.099312 -68.280795 6.630109
41.940128 -59.984075 6.714107
63.345317 55.104746 5.706671
-4.941239 80.120423 6.126135
67.915644 49.237734 4.702780
75.600925 -23.282990 5.897474
-57.677380 44.453968 3.904197
44.640241 70.696048 6.754648
-67.457214 -4.564644 3.879501
-22.973046 74.907945 6.566268
18.438068 80.100984 5.397289
-25.047621 73.937200 4.027035
-21.351216 -63.350431 6.589377
6.308415 -68.794559 6.822727
50.151656 -54.894139 6.098853
-11.731112 -66.495671 5.771991
48.741532 -55.915699 4.058800
-68.020696 0.758985 5.931486
79.957924 -9.472646 6.104739
-41.556071 63.390007 6.663809
71.182429 44.236347 4.088090
-58.982273 -29.912208 4.279806
-67.441353 -4.690960 6.716399
61.920346 56.703432 4.492142
1.559967 -68.620141 5.676244
-4.522850 80.172955 5.038048
80.829430 -4.539120 4.317630
59.657488 -46.895195 6.590073
-66.317520 -10.720095 5.687806
69.813450 46.397143 4.943210
-62.280524 -23.163006 6.679991
59.471320 59.266398 4.632066
9.871547 -68.741305 4.013325
70.426955 -33.234062 6.198418
-26.182674 -61.204959 5.135867
15.574822 -68.266734 6.821079
24.758382 -66.583328 6.008671
34.249408 -63.538034 6.259876
58.146693 -48.315319 6.147211
56.619191 61.948787 4.054766
-68.207035 7.458038 4.965935
76.593408 32.976096 6.598222
80.825011 16.787260 4.146557
22.079902 79.405027 6.150740
69.712090 -34.358626 4.978473
-23.673519 -62.387985 4.222346
25.026523 -66.514699 4.192070
-23.025128 -62.686223 5.293139
71.408599 -31.627661 6.411557
7.263306 -68.795277 4.234734
-42.928643 62.244610 6.811604
70.939039 -32.428496 6.829224
-62.981803 33.585628 4.001261
-68.074299 1.621467 5.257114
73.411026 40.181996 3.896919
35.018050 75.430409 6.209908
68.414850 -36.357109 4.210476
-34.707283 68.533342 4.972838
80.934390 -3.713319 6.871021
-60.096474 -27.881851 6.230276
78.288046 28.086273 6.842933
77.503467 30.507193 4.625370
-23.752441 74.545475 3.917207
-4.365604 -67.992754 4.078472
29.649376 77.385165 4.801707
12.340453 80.783814 6.767407
75.245713 -24.104310 6.718344
52.544978 65.351187 6.648915
72.465225 41.905508 5.628340
-9.607696 -67.035484 4.016022
54.815391 63.481227 6.031331
18.489398 80.092777 6.801227
79.943011 21.761163 4.092313
-64.483707 -17.226190 6.669830
28.099469 77.890080 6.550575
46.841167 69.317075 6.042519
-56.244027 46.708769 5.616397
2.340577 80.866672 3.945360
-67.596976 15.646863 3.885639
52.195756 -53.411404 3.881244
38.014345 -61.929657 6.271781
-46.354280 59.020532 5.218268
-56.106269 -34.730417 5.272384
-50.260089 54.756013 4.955665
78.931833 -13.669140 4.314756
-63.908579 -19.000821 6.849261
-52.593122 -39.730726 4.068246
-6.803790 -67.572563 3.920325
-51.017492 53.841875 4.049289
-8.638128 79.420618 5.391663
40.026979 -60.984439 3.989306
-58.255404 -31.236749 5.664014
74.323744 -26.059729 4.372590
-65.794344 -12.764180 5.658048
26.590913 -66.114299 6.620245
16.474718 80.350519 3.954906
-63.065614 -21.175720 6.500075
49.287827 67.721449 6.724713
81.578681 5.647870 3.913181
64.107209 54.182357 3.929400
-55.304151 -35.993314 4.800900
-48.395417 -44.662493 4.579803
-50.274189 -42.544387 6.605550
73.914030 -26.928697 3.978000
-67.975427 0.030606 6.766583
-2.500511 80.426876 4.469639
-14.732547 -65.691320 5.181909
80.307870 19.840662 5.121841
61.200707 -45.254336 4.008576
-38.214714 -53.851908 5.048637
-66.065832 -11.703458 4.228602
33.356239 -63.890886 4.955357
-24.292440 -62.096174 5.216605
-66.054433 -11.747996 5.277338
0.086243 -68.526300 4.372186
10.569937 80.896554 6.706494
-44.437406 60.843789 3.961521
-65.112809 27.491397 5.285452
73.558954 39.886594 4.834295
-43.402400 61.800397 5.354843
-25.329507 -61.607214 5.342769
-36.818882 -54.867670 5.645018
-7.093429 -67.517084 5.923416
-60.326385 -27.394567 5.348372
73.244018 -28.295038 3.907743
45.791225 69.984504 5.051576
55.073420 -51.071692 6.431724
75.103542 36.597753 6.761285
-66.867574 -8.008262 6.761405
49.283275 -55.524035 6.458741
20.329034 79.740401 3.925100
51.752648 -53.732814 4.813976
5.860179 -68.794222 4.172909
48.175532 -56.274304 4.919178
-52.850808 -39.375481 6.763843
-28.513195 -60.016561 5.517689
78.661420 -14.719023 5.645288
-67.907324 -0.979920 6.690154
6.760837 80.992174 4.635315
49.689914 67.428846 5.882518
66.485567 51.209182 6.635149
67.304591 -37.882814 5.151159
32.768471 76.323042 4.001607
79.343347 -12.071429 6.814405
81.578857 5.880792 5.015900
-59.004569 42.069371 3.913408
42.982166 71.609221 5.606835
72.468423 41.899682 4.353773
28.145694 -65.674809 5.788294
-15.600268 -65.408654 4.186336
79.480005 23.731934 4.971849
81.580555 8.119281 6.703031
79.753618 -10.478546 5.639388
-66.431121 22.483607 5.080421
35.245005 -63.144717 6.687834
-30.362328 -58.998156 6.842927
58.895625 -47.613097 6.457222
78.423082 27.669602 5.467121
63.042778 -43.268610 5.708974
10.493637 -68.702642 5.001985
76.293373 -21.537941 3.916520
-35.297264 -55.958271 6.580185
-39.531727 -52.868609 3.918977
80.583325 -6.207505 3.890336
-32.234057 -57.905482 5.142633
-60.874571 38.422974 5.663829
-36.364039 -55.198663 4.511119
-62.695563 -22.112425 5.696180
31.236727 -64.673058 6.837153
36.474734 -62.652722 5.001460
37.757595 -62.050237 4.290990
-61.147483 37.844152 6.761877
57.518286 -48.904532 6.878287
72.981108 40.965427 4.374100
-67.284125 18.030335 6.758621
61.755739 56.860040 6.522170
-25.343976 73.798018 5.542680
81.237324 13.503393 4.002181
-4.543669 80.170341 3.940503
1.327418 -68.605333 4.085523
-59.946381 40.359272 4.162917
72.654143 -29.366092 5.446877
-19.898030 -63.927055 4.136009
34.336462 -63.503643 4.723975
49.094421 67.862192 5.074236
-67.615852 15.498352 5.094876
75.363197 36.044880 4.312183
-19.851263 76.141216 4.424080
80.115932 20.850960 6.739024
45.372266 -58.050359 5.038510
-12.365736 -66.332210 6.516253
7.731825 -68.795629 5.536912
-12.631206 78.462371 6.231068
81.580742 8.365928 5.532899
-40.269720 64.452536 3.968092
-68.174060 9.014428 5.740012
-65.326159 -14.593416 5.064230
-66.046097 23.982592 4.446091
-55.444295 -35.775274 5.777390
68.865880 -35.689810 6.822398
76.956406 32.057229 5.164067
23.731200 79.046168 4.873452
69.988552 46.120756 6.522568
-61.958728 -23.918822 5.433948
-67.929404 12.856593 4.312506
-42.445162 -50.454707 6.377222
66.937799 -38.386856 4.263657
3.672469 80.949449 5.524419
60.067627 58.663511 3.990647
30.753655 -64.829613 5.984936
61.103582 57.555576 6.878137
-66.694284 21.109716 6.138280
-39.162557 65.363793 5.118888
-8.702607 79.408369 4.343614
70.580825 45.185915 6.609519
-27.430233 -60.612999 5.468722
51.595984 66.041780 6.467430
4.552154 -68.793238 5.481299
-53.236118 -38.844291 4.474910
-25.093858 73.915485 6.676879
36.537539 -62.623227 3.968415
40.443651 72.982710 6.430618
-14.739759 -65.688970 6.798441
73.993062 38.962262 4.570625
-40.072929 -52.420200 6.873987
-58.056247 43.791289 6.713583
81.332234 12.394236 3.934501
-54.139646 49.797100 6.230418
65.689493 -40.074189 4.975648
-67.120189 18.886197 3.884120
-15.158771 77.747733 6.475513
-61.927841 36.189078 5.294664
3.641130 80.947502 6.781024
61.249042 -45.202943 6.669642
23.897512 -66.803664 5.522619
18.421717 80.103062 4.158152
-52.653023 -39.648147 5.746852
-67.298216 -5.741421 4.549869
72.217716 -30.158524 4.525249
-52.944491 51.439486 6.691491
65.697014 -40.065111 6.681781
-64.855807 -16.078029 4.487420
-12.261936 78.556885 5.284752
-12.688242 78.447773 4.135824
31.496701 -64.588804 3.997225
76.642697 -20.657603 4.495340
81.578025 4.784023 6.151489
67.225550 50.189054 6.856675
17.518289 80.217885 4.596775
-9.583294 -67.040158 6.296732
-43.322556 -49.681516 6.530761
-41.752788 63.227528 4.175758
-31.270963 70.698809 4.710159
-6.058390 -67.715342 5.904265
-7.724784 -67.396150 4.839199
81.395410 11.377784 5.109744
78.351916 -15.698807 5.513509
-53.371647 50.852487 4.998407
79.631871 23.138584 4.140471
41.101974 -60.444023 3.945821
75.333655 -23.917791 5.150934
14.491652 80.602561 6.817216
12.019932 80.804223 3.974172
-62.056171 35.916899 6.556511
54.461712 63.774265 4.872971
-18.513564 76.660502 5.182491
-26.657982 -60.980859 4.140508
81.577700 4.355038 5.046339
43.807329 -58.959423 3.927551
68.935473 47.782930 6.536576
-67.008107 19.471345 4.782370
63.071305 -43.234180 6.805251
-68.208487 5.543320 4.125584
11.903506 -68.615019 4.752214
33.224496 76.142091 6.023584
12.879381 80.749497 4.927701
-0.489786 80.679338 5.332959
-48.435831 56.807302 4.113908
-29.135592 -59.673778 6.486025
73.737579 39.506254 5.731765
8.639792 -68.796312 6.022161
81.579076 6.169816 6.756998
-62.131033 35.729669 4.202790
-48.419508 56.824658 6.517328
55.998522 -50.307546 5.727371
-61.304214 37.511738 3.958632
-44.113136 61.133983 5.499217
-67.775859 -2.026926 6.041376
79.010184 25.567560 4.100058
-60.855326 38.463791 3.905665
-61.864006 -24.120513 4.255572
-33.760214 69.133390 4.254440
-68.062367 10.768496 4.687061
-68.206439 8.244323 6.527546
74.835916 37.167602 4.099206
18.084687 -67.951602 4.885767
-50.849065 54.045156 5.494994
-57.553502 44.648841 6.186516
-11.878689 78.654975 6.860762
59.494935 59.244189 5.693036
70.257879 -33.500039 4.172620
38.699629 -61.607819 4.300848
43.686198 -59.025895 5.891150
-51.252812 -41.359590 4.411488
-21.989991 75.296304 6.569322
-45.669891 59.678787 5.628547
-18.796857 76.557764 6.695780
-57.105062 45.354280 6.831771
-34.404799 -56.525591 5.073271
32.014857 76.614558 5.084289
30.583326 77.080910 5.428026
64.234640 54.028080 6.843946
78.714928 26.721149 6.772968
39.691312 -61.142083 4.978028
70.301737 45.626430 5.698257
-25.409876 -61.569321 6.740312
32.156980 -64.364661 6.347957
52.248888 -53.372871 6.320476
-65.428596 26.380050 5.718161
49.680628 67.435604 4.435056
47.613828 68.825908 6.706563
62.949737 55.583656 4.537192
-68.151442 9.369624 4.045365
-59.599050 40.989939 6.578428
-42.012593 -50.813109 4.904813
-22.848569 74.957120 4.249317
65.030781 -40.869213 4.238143
-68.204610 8.534661 4.807403
-52.187234 -40.228346 6.626637
51.063085 -54.233002 4.143357
-59.475465 -29.013487 4.624082
61.094990 57.566737 5.489893
26.074023 -66.246595 4.109293
5.350977 80.993234 5.817681
-65.305837 26.856665 4.371061
0.619312 -68.560244 6.620404
-44.181163 -48.874008 3.893526
81.153363 -1.990489 4.196494
1.027161 80.785043 5.451444
-52.583453 51.935627 5.818219
-55.551365 47.798391 4.236464
-67.469234 16.651929 5.079748
-66.821717 20.444426 5.212174
71.837351 -30.849164 5.232757
48.382358 -56.143268 6.077808
14.616681 80.586670 3.910142
76.729151 -20.439728 5.728358
-28.373357 72.288910 6.041952
43.381862 -59.192904 6.798680
33.018123 -64.024461 6.861256
47.571525 68.852799 5.447914
-64.393494 29.699539 3.947455
-52.047936 52.598192 5.327211
0.196347 80.733408 4.613183
-62.802583 34.037284 5.676038
-19.214557 -64.198258 5.779697
81.497109 2.430614 5.627712
8.372379 80.990962 6.191300
-68.209541 4.154612 4.211720
74.554403 37.767018 6.127458
66.734953 50.865395 4.658171
80.140630 -8.518759 6.718258
19.911342 -67.621748 6.431556
-6.134793 -67.700707 4.698731
25.854744 -66.302719 5.360964
-13.645116 78.202865 3.905699
-38.174277 -53.881335 6.779911
54.817088 -51.283429 3.965537
-2.993572 -68.167136 5.959268
74.587193 -25.500975 5.366395
80.755349 -5.121965 5.157787
81.510233 9.530365 6.828824
-47.453691 57.851573 4.072428
-25.581665 -61.488325 4.221497
-0.437764 -68.491974 5.525216
-61.728276 36.612338 4.429088
-63.744686 -19.456796 5.794768
-55.770642 47.453447 5.118341
-51.880299 -40.599929 5.728633
36.867962 74.668589 6.095165
-15.931808 -65.300653 6.847187
81.421044 1.236055 5.563603
-35.095867 -56.086295 4.054829
26.399810 78.358845 6.047950
-37.684869 -54.237482 4.196724
-47.194648 58.127002 5.793043
54.871220 63.434970 4.005349
23.604785 -66.878586 3.898419
75.879904 -22.579929 6.684680
-64.047128 30.762808 5.863569
-68.207932 6.274989 5.111238
-67.930454 -0.693022 5.633062
79.878376 -9.887952 4.592623
-0.223696 80.707302 6.572384
39.574767 73.392374 5.500999
78.506277 -15.224953 4.607075
81.546496 3.206198 6.697462
39.315080 -61.318777 5.885940
76.838783 32.354972 4.250673
-61.509288 -24.875813 6.515537
-47.433774 -45.676935 5.351027
5.512723 80.993112 4.115920
-22.014299 -63.087320 4.286243
-65.235167 -14.907464 6.799547
-61.422530 37.260799 5.797600
-67.270863 -5.885402 6.365057
