-21.098708 2.225375 3.647744
-21.483437 7.255409 -20.304848
-20.930441 0.025410 -55.221512
-21.455591 6.891342 -10.336406
-21.134888 2.698396 -1.384709
-20.917981 -0.137493 -54.442512
-21.534579 7.924059 -32.996606
-21.147306 2.860750 -47.066636
-20.950348 0.285675 -16.041883
-21.236323 4.024581 -59.801764
-21.331241 5.265569 -59.254457
-20.922884 -0.073392 -25.162273
-21.281871 4.620082 -53.516903
-21.469883 7.078198 -53.032864
-20.952348 0.311818 -28.542908
-21.143866 2.815770 -30.657216
-21.406308 6.247010 -41.524046
-21.147022 2.857039 -11.981132
-21.294549 4.785842 -37.328839
-21.446042 6.766494 -43.495313
-21.342867 5.417564 -12.720093
-21.052679 1.623576 -22.978568
-21.244862 4.136226 -23.272041
-21.121002 2.516844 -55.049921
-21.206727 3.637639 -53.707839
-21.218184 3.787429 -14.594646
-21.034991 1.392317 -12.913948
-21.197732 3.520037 0.490839
-21.410306 6.299285 -27.799996
-21.519603 7.728258 -23.421576
-20.994669 0.865143 -50.492072
-21.018183 1.172567 -17.803500
-21.403917 6.215746 -28.516707
-21.098244 2.219305 -48.582277
-21.324850 5.182006 -31.783358
-21.345634 5.453736 -37.396408
-21.036646 1.413957 -0.996591
-21.534757 7.926385 -39.997594
-20.925902 -0.033942 -0.095980
-20.981861 0.697683 -57.930213
-21.060231 1.722309 -9.747527
-20.918711 -0.127958 -49.365039
-21.532369 7.895159 -21.441170
-21.000515 0.941564 -58.321596
-21.394679 6.094967 -44.635709
-21.523840 7.783646 -1.356734
-21.420535 6.433021 -31.237036
-20.920092 -0.109895 -15.859610
-21.319428 5.111124 -5.061867
-21.282565 4.629159 -0.976037
-21.380564 5.910421 -53.190121
-21.332015 5.275677 -27.451766
-21.177953 3.261434 -56.265586
-21.037675 1.427415 -20.366443
-21.466580 7.035014 -60.998984
-21.312426 5.019568 -40.996516
-21.271463 4.484012 -56.995647
-21.069770 1.847021 -0.504440
-20.932526 0.052671 -30.309826
-21.064564 1.778966 2.177537
-20.918137 -0.135454 -23.097542
-21.378372 5.881762 -47.699735
-20.931389 0.037797 -4.250422
-20.941943 0.175789 -1.995207
-21.109397 2.365117 -52.225955
-21.306884 4.947109 -56.981522
-20.939389 0.142400 -54.170804
-21.031450 1.346021 -8.463204
-21.344334 5.436743 -4.524216
-21.515632 7.676334 -22.172256
-21.501685 7.493993 -11.171329
-21.259124 4.322683 -60.276253
-21.433485 6.602322 -57.464347
-21.450806 6.828786 -47.593058
-21.097629 2.211264 -8.984740
-21.030569 1.334508 -53.580654
-21.170024 3.157771 -7.044144
-21.027085 1.288955 -9.479003
-21.063929 1.770661 -55.723090
-21.425338 6.495808 -30.741222
-21.296674 4.813629 -60.416504
-21.330799 5.259783 -39.808199
-21.193744 3.467899 -54.963479
-21.434056 6.609794 -33.884840
-21.437130 6.649981 -29.636634
-21.457206 6.912463 -0.293828
-21.077337 1.945965 -37.451349
-21.164876 3.090466 -51.167137
-21.318784 5.102698 1.278995
-21.292351 4.757100 -59.016379
-21.476276 7.161785 -27.981383
-21.303240 4.899466 -59.323389
-20.961059 0.425717 -56.895768
-21.460489 6.955388 -23.817184
-21.116436 2.457150 -34.418678
-21.474482 7.138326 -32.828850
-21.035926 1.404538 -52.513424
-21.186077 3.367659 -16.003390
-21.135939 2.712143 -59.668606
-21.119796 2.501083 -30.262948
-21.094223 2.166736 -19.204149
-21.247452 4.170086 -6.179178
-21.345281 5.449130 -21.585402
-21.062003 1.745477 -36.212728
-21.471325 7.097060 -54.022457
-21.183686 3.336397 -0.440328
-20.950667 0.289848 0.492600
-21.320485 5.124942 -34.073566
-20.918301 -0.133320 1.510905
-21.269275 4.455405 -44.471744
-21.284926 4.660023 -48.488227
-21.513813 7.652555 -19.735845
-20.984498 0.732156 -16.682875
-21.516861 7.692399 -28.571046
-21.340581 5.387680 -39.150636
-21.273213 4.506892 -24.580891
-20.971579 0.563254 -21.932169
-21.436849 6.646313 -56.592177
-21.105515 2.314372 -37.966503
-20.978332 0.651544 -46.088585
-21.307650 4.957132 -29.687902
-21.105142 2.309485 -4.067759
-21.487132 7.303716 -27.507203
-20.987743 0.774587 -25.325377
-21.133639 2.682066 -11.316923
-21.214090 3.733903 -35.226211
-20.919187 -0.121730 -1.872428
-20.968597 0.524261 0.161249
-21.045446 1.529016 -34.440174
-20.935468 0.091128 -0.307251
-21.248706 4.186477 3.380343
-21.262439 4.366023 -11.400647
-21.206958 3.640656 -40.102022
-21.011461 1.084682 -6.754397
-21.136311 2.717006 -34.531567
-21.038321 1.435852 -58.614462
-21.191545 3.439147 -41.196075
-21.310232 4.990887 -51.086355
-20.934894 0.083625 -9.709877
-21.053390 1.632869 2.592058
-21.345087 5.446586 -44.391544
-21.196250 3.500654 -13.819162
-21.029353 1.318607 -8.175715
-21.101517 2.262100 0.834201
-21.346965 5.471147 -6.976617
-21.218238 3.788130 -29.709268
-21.354926 5.575231 -21.951903
-21.021227 1.212371 -57.055097
-20.960461 0.417896 -9.293841
-20.999903 0.933571 -3.603104
-21.307354 4.953256 -16.756486
-21.479706 7.206635 -37.695425
-21.486616 7.296980 -24.066350
-21.260277 4.337760 -19.502023
-21.226835 3.900532 -32.494849
-21.038348 1.436211 -12.158194
-21.072778 1.886357 -25.308065
-21.100361 2.246985 -50.082406
-21.132259 2.664024 -38.118755
-20.918314 -0.133150 -28.742586
-21.391064 6.047698 -45.426326
-21.380964 5.915652 -36.113335
-21.363959 5.693330 -7.631337
-21.102691 2.277440 -3.619444
-20.934756 0.081827 -11.955634
-21.159447 3.019481 3.444565
-20.945794 0.226137 -5.707786
-21.434162 6.611184 -5.607380
-21.469343 7.071143 -33.374458
-20.992142 0.832102 0.197091
-21.423375 6.470151 -29.340860
-20.982157 0.701551 -38.680043
-21.450483 6.824561 -0.584668
-21.513936 7.654167 -25.210858
-21.118750 2.487406 -32.783257
-21.146691 2.852716 -29.113767
-21.424256 6.481662 -34.266806
-21.449354 6.809803 -34.694019
-21.524383 7.790744 -60.110023
-21.475696 7.154203 -19.692591
-21.462934 6.987348 -19.593350
-21.431498 6.576351 -19.110876
-21.506922 7.562466 -16.533438
-21.298805 4.841491 -43.259972
-21.170991 3.170410 -42.037158
-21.174131 3.211467 -26.228564
-21.393474 6.079208 -60.074410
-21.115028 2.438746 -56.623859
-21.397365 6.130083 -53.027369
-21.027540 1.294899 -6.681490
-21.379581 5.897574 -50.664386
-21.279434 4.588224 -37.663710
-21.121008 2.516930 -13.448934
-21.262701 4.369449 -4.934899
-21.156948 2.986817 -42.039469
-21.395446 6.104997 -30.519082
-20.922117 -0.083426 -20.709710
-21.251182 4.218850 -0.409746
-21.203572 3.596394 -43.950502
-21.336201 5.330417 -29.848651
-21.227221 3.905580 -52.186339
-21.177749 3.258778 -29.798042
-21.159286 3.017380 1.738094
-20.980524 0.680204 -46.795262
-21.449477 6.811411 0.040947
-21.371215 5.788197 -18.815184
-21.521903 7.758319 -32.677153
-21.038918 1.443659 -57.716635
-20.957204 0.375313 -35.571481
-21.151908 2.920916 -58.145377
-21.184070 3.341413 -50.089687
-21.338787 5.364216 -26.960700
-21.114741 2.434988 -33.551536
-21.432982 6.595753 -24.800831
-21.454875 6.881988 -11.166971
-21.169077 3.145398 -15.127968
-20.983819 0.723279 -7.652262
-21.205436 3.620758 -49.404224
-21.097270 2.206563 -27.104587
-21.236055 4.021073 -29.992735
-21.291437 4.745151 -53.146464
-21.463072 6.989153 -6.835747
-21.118928 2.489737 -18.089933
-21.381728 5.925640 -40.967582
-20.962778 0.448182 -32.514661
-21.274853 4.528329 -45.476065
-21.342249 5.409484 -7.332065
-21.485945 7.288204 -45.655309
-21.380169 5.905256 -2.642349
-21.018287 1.173927 -43.276555
-21.459292 6.939739 -21.956971
-21.486428 7.294519 -35.587325
-21.467214 7.043312 -33.880458
-21.515562 7.675426 -7.142461
-21.049407 1.580799 -46.006190
-21.120150 2.505709 -18.792619
-21.156275 2.978020 -23.165832
-21.160191 3.029212 0.213249
-21.076095 1.929716 -10.411521
-21.461372 6.966922 -4.287972
-21.511287 7.619530 -48.880352
-21.296520 4.811610 -33.164283
-21.184228 3.343478 -13.238776
-21.322920 5.156768 -28.621232
-21.193424 3.463705 -30.176198
-21.181642 3.309666 -18.546575
-21.535038 7.930054 -45.773471
-20.994833 0.867284 -36.147371
-20.977912 0.646056 -21.754377
-21.507094 7.564710 -37.297350
-21.047358 1.554011 -51.131497
-21.139199 2.754757 -61.066284
-21.402641 6.199065 -57.587955
-21.446815 6.776603 -57.073398
-21.105982 2.320469 -36.161199
-21.262142 4.362149 -26.249649
-21.350082 5.511891 -0.601556
-21.413396 6.339676 -31.854150
-21.382020 5.929466 -16.600857
-21.498179 7.448147 -28.950581
-21.222582 3.844926 -50.586854
-21.216989 3.771803 -47.532886
-21.518575 7.714809 3.162197
-20.938464 0.130304 -7.266247
-20.935117 0.086544 -56.937237
-21.074666 1.911038 3.840783
-21.054879 1.652334 -4.245810
-21.538902 7.980570 -4.746440
-20.990195 0.806643 -50.946184
-21.188038 3.393290 -43.837158
-21.383168 5.944475 -48.888044
-21.207858 3.652424 -2.696427
-21.317808 5.089941 0.476978
-21.272090 4.492210 -32.868242
-21.473091 7.120139 -47.696039
-21.317451 5.085266 -55.063846
-21.080424 1.986326 -27.587718
-21.050856 1.599740 -45.627750
-20.988404 0.783226 -46.536305
-21.260223 4.337054 -42.748425
-21.474008 7.132129 -15.567878
-21.337615 5.348903 -25.131651
-21.031790 1.350468 -59.128656
-21.043642 1.505419 -18.789462
-21.192287 3.448843 -13.476175
-20.952527 0.314170 -11.248488
-21.013156 1.106847 -17.201376
-21.057212 1.682838 -12.282784
-20.971930 0.567838 -51.645531
-21.333722 5.298001 -30.385782
-21.198266 3.527018 -4.200936
-21.011002 1.078686 -46.611901
-20.961800 0.435396 -56.537286
-21.378414 5.882313 -14.366129
-21.519716 7.729733 -36.440656
-21.404352 6.221432 -13.712324
-21.082291 2.010726 -31.875982
-21.516954 7.693617 -14.724253
-20.996388 0.887609 -11.873190
-21.027211 1.290605 -54.285393
-21.243920 4.123911 -49.403680
-21.168671 3.140090 -22.230311
-21.113916 2.424199 -31.190205
-21.033981 1.379111 -21.662311
-21.221260 3.827641 -11.106049
-20.959909 0.410675 -15.706969
-21.502384 7.503126 -30.517169
-21.418504 6.406458 -37.923042
-21.500559 7.479273 -42.064271
-21.241780 4.095928 -5.965110
-21.161698 3.048923 -6.118194
-21.270788 4.475192 -31.743351
-21.093193 2.153266 -32.028298
-21.280381 4.600608 -16.178640
-21.364741 5.703552 -24.675660
-20.918508 -0.130610 -8.543269
-21.213755 3.729518 2.225587
-21.070019 1.850282 -11.302262
-20.987799 0.775322 -14.004779
-21.486003 7.288960 -45.467537
-20.985005 0.738785 -42.373396
-21.195142 3.486167 -36.557931
-21.128022 2.608631 -45.124697
-21.165667 3.100810 -55.869223
-21.323365 5.162596 -16.140976
-21.011962 1.091229 -39.986473
-21.228028 3.916135 -47.640823
-21.061427 1.737954 -59.680301
-21.242560 4.106131 -15.670136
-21.150389 2.901056 -40.727814
-21.262899 4.372045 -56.056340
-21.488689 7.324082 -43.467857
-21.537912 7.967624 -1.261410
-21.165475 3.098293 -25.123093
-21.468308 7.057613 0.547173
-21.484012 7.262926 -34.981077
-20.936645 0.106521 -51.423292
-21.492001 7.367380 -36.821029
-21.282837 4.632718 -12.773943
-21.120073 2.504704 -49.078876
-21.116364 2.456205 -57.299872
-21.437102 6.649612 -32.998397
-21.178045 3.262647 -58.691527
-21.163637 3.074270 -37.414001
-20.995102 0.870805 -23.289455
-21.452485 6.850742 -37.502149
-21.029628 1.322201 -32.165126
-20.935080 0.086057 -58.699838
-20.938220 0.127107 -52.326563
-21.290779 4.736553 -13.666611
-21.012520 1.098523 -22.554336
-20.954189 0.335895 -43.255924
-21.352562 5.544319 -19.168161
-21.024856 1.259812 -48.662657
-21.337116 5.342370 -52.674290
-21.111403 2.391343 -13.589394
-21.476010 7.158312 -11.376890
-21.376995 5.863762 -48.713763
-21.511429 7.621389 -26.896859
-21.362786 5.677985 -23.192746
-21.287675 4.695966 -5.091106
-20.973598 0.589646 -29.183313
-21.193682 3.467078 -25.788172
-20.953629 0.328569 3.164383
-21.383978 5.955061 -58.083697
-21.259197 4.323641 -2.518381
-21.399872 6.162868 -39.416282
-21.392509 6.066602 0.928833
-21.089065 2.099298 -33.485396
-21.018668 1.178902 -0.958803
-21.418675 6.408699 -33.832926
-21.016247 1.147260 -28.259271
-21.252088 4.230697 -43.022077
-21.380199 5.905651 -1.609676
-21.191048 3.432640 -53.843180
-21.042802 1.494444 -22.123348
-21.395982 6.112006 -47.302098
-21.346647 5.466989 -29.208915
-21.110543 2.380105 -47.684468
-20.948504 0.261562 -22.634044
-20.920908 -0.099233 -60.379478
-21.034139 1.381181 -29.684551
-21.071131 1.864817 -32.251776
-21.017569 1.164545 -14.292980
-21.209484 3.673679 -35.553325
-20.973039 0.582337 -27.362537
-21.195427 3.489903 -18.640720
-21.030956 1.339567 -29.169405
-21.244006 4.125036 -18.042921
-20.988231 0.780972 -58.856421
-20.917548 -0.143164 -48.947666
-20.981348 0.690983 -10.069678
-21.350830 5.521681 -26.121209
-21.332847 5.286566 -46.209866
-20.949087 0.269194 -44.745458
-21.014781 1.128092 -59.242375
-21.537479 7.961971 -46.307978
-21.263695 4.382449 -50.437680
-21.455993 6.896600 -43.657832
-21.379670 5.898736 -10.229048
-21.030229 1.330065 -4.530067
-21.534115 7.917987 -51.181146
-21.087243 2.075470 -47.986845
-21.499940 7.471171 -59.397967
-21.097913 2.214979 -21.580011
-21.249706 4.199561 -4.008541
-21.167101 3.119559 -42.433664
-21.249234 4.193380 -18.264535
-21.528655 7.846598 -41.354046
-20.979053 0.660972 -4.058587
-20.949957 0.280557 -42.322873
-21.530521 7.871005 -32.537884
-21.341022 5.393445 -18.290959
-21.335994 5.327702 3.174536
-20.931781 0.042927 -42.198061
-20.991385 0.822204 1.003972
-21.018230 1.173181 -42.994843
-21.406619 6.251068 -56.399671
-20.970385 0.547639 -25.033846
-20.953036 0.320814 -25.961100
-21.290435 4.732054 -33.957620
-21.436210 6.637956 -56.169184
-21.164073 3.079967 -0.304296
-21.216520 3.765678 -59.124656
-21.031184 1.342549 -40.102605
-20.989205 0.793707 -44.367044
-21.168619 3.139401 -39.440038
-21.111139 2.387898 -9.489277
-21.165783 3.102322 -4.858649
-21.040560 1.465128 -57.164896
-21.535988 7.942477 -22.744043
-21.021240 1.212536 3.167613
-21.247419 4.169650 -53.812976
-21.033461 1.372309 -24.682500
-20.977146 0.636035 -4.948580
-20.927467 -0.013477 -10.527727
-21.332188 5.277944 -56.792624
-21.317526 5.086251 -57.360891
-21.177311 3.253044 -19.878873
-21.507819 7.574193 -25.394779
-21.418566 6.407272 -11.446823
-21.069913 1.848902 -45.020950
-21.464848 7.012377 -57.194267
-21.084739 2.042735 -32.221383
-21.439328 6.678717 -52.557722
-21.232818 3.978754 -11.850725
-21.375982 5.850512 -13.064566
-21.089881 2.109959 -30.648599
-21.088725 2.094853 -36.375755
-21.190608 3.426891 -26.179910
-21.373779 5.821712 -17.131230
-20.992563 0.837601 -11.225981
-21.139960 2.764703 3.368055
-21.448188 6.794551 -42.546607
-21.403076 6.204750 0.181787
-21.298627 4.839154 -59.735941
-21.373720 5.820946 -14.622083
-21.427723 6.526989 -31.934064
-21.283694 4.643929 -57.889029
-21.083736 2.029617 -14.222031
-21.210927 3.692546 -27.226514
-21.385159 5.970500 -28.753387
-21.409084 6.283308 -31.015170
-21.406172 6.245232 -12.098427
-21.491413 7.359695 -44.675542
-20.920990 -0.098165 -47.373625
-21.403713 6.213086 -15.315010
-21.457668 6.918500 -15.829789
-20.938898 0.135972 -33.079091
-21.108065 2.347701 -43.687078
-20.940200 0.153004 -3.836655
-21.107600 2.341627 0.543111
-21.364726 5.703356 -17.990511
-21.274093 4.518393 -54.958599
-21.217883 3.783489 -29.906188
-21.326229 5.200032 -53.670578
-21.109822 2.370680 -6.259439
-20.918207 -0.134548 -47.827709
-21.160589 3.034417 -4.516108
-21.056089 1.668164 -51.275514
-21.404490 6.223241 -9.738491
-21.329321 5.240455 2.164253
-21.212706 3.715803 -54.334918
-21.095301 2.180820 -31.060547
-21.323738 5.167465 -33.346548
-21.248205 4.179927 -44.042042
-21.310706 4.997079 -33.247800
-20.955492 0.352925 -26.507498
-21.402793 6.201055 1.784150
-21.360361 5.646284 -52.335603
-21.338585 5.361580 -28.569240
-21.319466 5.111613 -28.210371
-20.927725 -0.010106 -29.361857
-21.460313 6.953085 -3.467366
-21.444518 6.746570 -34.523352
-21.189681 3.414769 -39.795970
-21.307591 4.956359 -24.209383
-21.379296 5.893845 -2.069616
-21.384580 5.962930 -31.917046
-21.322564 5.152120 -13.597106
-21.294618 4.786743 -57.410316
-21.383988 5.955194 -54.385894
-20.992837 0.841190 1.465608
-21.253666 4.251333 -46.040576
-21.438928 6.673484 -30.002414
-21.080194 1.983317 -9.310667
-20.939792 0.147669 -29.865895
-21.086678 2.068092 -8.041606
-20.946272 0.232382 -12.437447
-21.148931 2.882003 -39.320403
-21.381851 5.927249 -42.967534
-21.138747 2.748850 -4.130041
-21.092754 2.147532 -51.561621
-21.348662 5.493328 -28.731349
-21.034994 1.392364 -11.274132
-21.517207 7.696925 -45.089378
-21.361525 5.661508 -27.783111
-21.349115 5.499252 -57.432883
-21.411856 6.319547 -57.812953
-21.286633 4.682346 -12.460484
-21.220221 3.814063 -21.180948
-21.482789 7.246938 -23.381444
-21.150968 2.908634 -53.788205
-21.259100 4.322375 -43.657310
-20.982389 0.704582 -45.885178
-20.955894 0.358178 -44.435880
-20.955256 0.349849 -58.584579
-21.316117 5.067828 -52.504955
-21.457997 6.922797 -12.495596
-21.079845 1.978755 -20.432419
-21.287585 4.694799 -56.741038
-21.353443 5.555833 -20.219914
-21.134375 2.691687 -15.120967
-21.380662 5.911703 -11.892850
-21.217409 3.777301 -35.708690
-21.293402 4.770844 -33.431091
-21.295195 4.794295 3.454934
-21.305951 4.934921 -33.616948
-20.982589 0.707197 -39.878654
-21.537513 7.962410 0.968327
-21.110618 2.381083 -59.121778
-21.484169 7.264977 -47.433527
-21.244752 4.134786 -23.655934
-21.110838 2.383955 1.407861
-21.141263 2.781743 -53.993543
-20.977432 0.639773 -15.810282
-21.523841 7.783668 -41.777618
-21.436493 6.641650 3.013473
-21.506789 7.560720 -29.461608
-21.476662 7.166832 -38.102648
-20.932881 0.057308 -7.945840
-21.383980 5.955084 -34.797260
-21.051177 1.603941 -21.331256
-21.059594 1.713985 -10.423004
-21.368022 5.746448 -1.087588
-21.160314 3.030821 -6.839844
-21.245612 4.146032 -43.379212
-21.340781 5.390289 -11.146650
-21.252386 4.234597 -24.164352
-21.289670 4.722053 -30.249917
-21.355334 5.580567 -51.342790
-21.351975 5.536643 -45.435779
-21.037155 1.420614 -46.745886
-21.084464 2.039147 -22.481095
-21.414468 6.353692 -25.046875
-21.146156 2.845720 -8.497859
-21.313401 5.032322 -19.198435
-21.184705 3.349715 -60.519094
-21.036204 1.408182 -27.783503
-21.051054 1.602326 -37.510688
-21.280610 4.603596 -35.110208
-21.047307 1.553345 -58.462349
-21.503657 7.519775 -55.551175
-21.033201 1.368915 -15.374305
-21.080716 1.990139 -43.193488
-21.383002 5.942293 -27.064830
-21.026436 1.280474 -17.423054
-21.109997 2.372971 -51.443783
-21.155402 2.966598 -11.360299
-21.307704 4.957832 -34.008200
-21.457502 6.916332 -45.047726
-21.375560 5.845002 -2.857438
-21.339447 5.372853 -31.980235
-21.472092 7.107082 -47.065338
-21.097253 2.206342 -35.955819
-21.304966 4.922037 -9.444909
-21.428530 6.537549 -8.992385
-21.370080 5.773356 -33.158584
-21.503147 7.513105 -25.647579
-21.314273 5.043716 -32.145283
-21.093764 2.160728 -1.198581
-21.049298 1.579368 -4.789676
-21.438868 6.672703 -24.580320
-21.346546 5.465665 -18.539053
-21.148877 2.881298 3.003094
-21.497289 7.436517 -2.724189
-21.110109 2.374428 -32.039069
-21.108419 2.352328 -17.544591
-21.023528 1.242451 -57.663925
-21.325019 5.184215 -7.308252
-21.135402 2.705120 -50.228699
-21.107678 2.342648 -4.678984
-21.013315 1.108922 -2.782010
-20.963589 0.458790 2.479227
-21.320072 5.119541 -27.042071
-21.455037 6.884105 -41.570944
-21.404744 6.226564 -3.271663
-21.494008 7.393625 -21.842609
-21.478548 7.191490 -55.938938
-21.445184 6.755281 -4.398072
-20.947062 0.242713 -38.612314
-21.502504 7.504693 -31.664181
-21.267775 4.435789 -41.494365
-21.351886 5.535476 -1.690430
-21.174984 3.222618 -54.022335
-21.367479 5.739344 -9.782910
-21.298418 4.836433 -9.109100
-21.404068 6.217717 -54.978344
-21.186273 3.370219 -14.514164
-20.989460 0.797039 2.386572
-20.941440 0.169214 -18.793154
-21.068892 1.835542 -61.115752
-21.094786 2.174097 -1.805663
-21.467808 7.051071 -50.543742
-21.150513 2.902681 -56.085109
-21.190730 3.428495 -49.399891
-21.489886 7.339731 -12.084090
-21.124089 2.557209 -6.322056
-20.960610 0.419844 -43.939074
-21.373604 5.819433 -29.616825
-21.376378 5.855698 -39.591658
-21.269797 4.462223 -34.290748
-21.379550 5.897162 -26.429079
-21.052270 1.618224 -40.470063
-21.458579 6.930413 1.646063
-20.948273 0.258547 -54.740966
-21.202038 3.576332 -51.968771
-20.936885 0.109658 -13.832575
-21.017740 1.166772 -40.870660
-21.398528 6.145289 -35.614427
-20.971767 0.565716 -54.377816
-21.259679 4.329944 -46.487579
-21.072215 1.878997 -14.715033
-21.237803 4.043934 -16.597199
-21.519032 7.720790 -30.471597
-21.323979 5.170620 -54.252781
-21.046143 1.538116 -5.711154
-21.495301 7.410529 -10.966129
-21.469909 7.078542 -11.209668
-21.523362 7.777401 -56.503862
-21.413646 6.342944 -19.304535
-21.087948 2.084692 -26.185830
-21.203790 3.599240 -1.389594
-21.420574 6.433530 -12.230470
-21.386532 5.988457 -9.580159
-21.261628 4.355428 -6.862040
-21.075211 1.918166 -15.724507
-21.395816 6.109835 -25.892213
-21.052925 1.626786 -11.322980
-21.105827 2.318442 -0.738218
-21.042242 1.487116 -40.660406
-21.469789 7.076969 -51.309811
-21.447479 6.785283 -27.414512
-20.961503 0.431518 -39.659516
-21.427012 6.517692 -1.800775
-21.020208 1.199042 -8.635560
-21.274379 4.522134 -49.590447
-21.078758 1.964545 -17.788323
-21.461155 6.964093 -35.182098
-21.500644 7.480375 -45.308264
-21.027848 1.298929 -30.577962
-21.217666 3.780662 -27.053334
-21.436906 6.647050 -56.935783
-21.358349 5.619984 -13.990870
-21.352938 5.549239 -0.971627
-21.243453 4.117808 -53.437240
-21.189471 3.412024 -13.057297
-21.253711 4.251917 -1.092758
-21.278419 4.574962 -51.676435
-20.990238 0.807209 -50.692073
-21.317091 5.080565 0.814728
-20.944463 0.208735 -0.863740
-21.061402 1.737627 1.618995
-21.353222 5.552951 -30.177223
-21.407701 6.265223 -18.833133
-21.497600 7.440588 -26.079703
-20.975316 0.612107 -49.369625
-21.040178 1.460132 -32.669062
-21.389698 6.029841 -0.431229
-20.970807 0.553162 -46.934539
-21.305850 4.933600 -7.160490
-21.099276 2.232794 -29.376083
-20.984014 0.725833 -24.158696
-21.442789 6.723969 -39.155331
-21.485037 7.276328 -6.171572
-21.241160 4.087828 -51.977435
-21.220877 3.822634 -16.812092
-21.006172 1.015525 -23.861434
-21.233029 3.981521 -2.164939
-21.037698 1.427712 -6.152775
-21.214372 3.737588 -25.195015
-21.168690 3.140331 -44.879076
-21.210562 3.687770 -6.022370
-21.136805 2.723465 -17.749732
-21.436876 6.646664 -4.065455
-21.059888 1.717825 -43.966305
-21.055585 1.661574 -47.448261
-21.011903 1.090463 -9.590565
-21.259765 4.331069 -46.246078
-21.408651 6.277638 -34.477547
-21.209702 3.676533 -31.506579
-21.150077 2.896982 1.320158
-21.042782 1.494176 -56.068036
-21.211849 3.704608 -23.474297
-21.255191 4.271271 -17.511209
-21.411998 6.321405 -30.411258
-21.334971 5.314337 -48.329718
-21.328087 5.224332 1.782685
-21.195068 3.485202 -58.655066
-21.211382 3.698502 -57.571366
-21.353211 5.552802 -0.412534
-21.247153 4.166182 -35.211629
-21.493433 7.386107 -9.104151
-21.053431 1.633406 -3.632290
-21.108033 2.347293 2.938074
-21.539181 7.984217 -29.032119
-21.453243 6.860651 -8.140124
-21.247132 4.165900 -43.755022
-21.119964 2.503280 -10.717511
-21.179519 3.281916 -57.462259
-20.980758 0.683258 -2.751018
-21.143266 2.807932 -23.084344
-21.145958 2.843131 -22.693603
-21.305660 4.931110 -17.139172
-21.395254 6.102490 -36.286207
-21.466416 7.032872 1.125048
-21.028743 1.310629 -32.882178
-21.127424 2.600806 -29.246096
-21.358642 5.623807 -17.409967
-21.375012 5.837830 -54.795358
-20.981283 0.690126 -59.456587
-21.218803 3.795525 -43.572536
-20.989038 0.791513 -21.581572
-20.961988 0.437860 -1.015485
-21.089524 2.105301 -6.514142
-21.405945 6.242261 -52.732675
-21.250646 4.211843 -39.710771
-20.963090 0.452269 -10.043066
-21.152909 2.934004 -54.495319
-20.965757 0.487141 0.887613
-21.406477 6.249220 -44.466026
-21.420967 6.438668 -40.648438
-21.212849 3.717674 -6.679853
-21.051282 1.605312 -28.072533
-21.384547 5.962498 -60.884082
-21.317228 5.082354 2.775537
-20.986611 0.759783 -45.108921
-21.076942 1.940794 -5.235577
-21.539080 7.982901 -39.787504
-20.937960 0.123708 -28.631897
-21.539394 7.987011 -37.325191
-20.964760 0.474096 -42.639212
-21.385171 5.970653 -8.592195
-21.009848 1.063596 -27.022048
-21.381042 5.916679 -50.971084
-21.518257 7.710658 -27.660670
-20.975489 0.614370 -59.691824
-21.244417 4.130405 -30.937166
-21.122556 2.537161 2.305760
-21.275996 4.543274 -54.640692
-21.199813 3.547248 -18.281251
-21.456390 6.901796 -44.026057
-21.212391 3.711692 -4.441431
-21.226173 3.891883 -54.360659
-21.523945 7.785026 -47.075169
-21.264981 4.399258 -53.956491
-21.285639 4.669354 -48.670426
-21.501845 7.496082 -47.363370
-21.462498 6.981651 -37.046541
-21.031023 1.340444 -41.143940
-21.089322 2.102658 -0.851719
-21.201389 3.567849 -6.830648
-21.281926 4.620805 -2.907067
-20.946256 0.232172 1.909674
-21.160855 3.037899 -47.210622
-21.329187 5.238714 -10.264262
-21.473787 7.129240 -36.136149
-21.359469 5.634621 -14.547473
-21.335581 5.322310 1.174191
-21.061694 1.741444 -39.930758
-20.944146 0.204591 -11.484724
-21.248473 4.183433 0.089153
-21.388209 6.010375 -17.127180
-21.043617 1.505103 -51.804209
-21.185049 3.354207 -22.101106
-21.257237 4.298017 -43.899862
-21.233841 3.992137 -9.982256
-21.362792 5.678074 -51.518503
-20.921167 -0.095838 -46.307876
-21.116098 2.452727 -21.186536
-21.513712 7.651230 -53.441577
-21.071832 1.873981 -0.318810
-21.285168 4.663197 -51.107196
-21.375072 5.838621 -4.422051
-21.084888 2.044689 -40.244907
-21.228556 3.923031 -18.703007
-21.108072 2.347794 -1.982589
-20.936780 0.108287 -36.000910
-21.353594 5.557810 -55.531984
-21.407526 6.262935 -21.418044
-21.386239 5.984624 -18.916567
-21.042837 1.494894 -10.852120
-21.050027 1.588908 -11.557302
-21.456155 6.898724 -22.219302
-21.298667 4.839685 -13.903923
-21.220666 3.819873 -26.411655
-21.145108 2.832015 -2.610023
-21.093877 2.162209 -16.535090
-21.399797 6.161888 0.759559
-21.269241 4.454959 -50.015851
-21.282685 4.630731 -42.314625
-21.200753 3.559534 -33.482787
-20.938668 0.132973 -44.343949
-20.957710 0.381934 -46.790228
-21.337617 5.348919 -33.293020
-20.964017 0.464385 -43.755555
-21.504965 7.536873 -9.736201
-21.523480 7.778939 -47.459794
-21.344801 5.442850 0.810169
-21.196445 3.503207 -22.843761
-21.185021 3.353842 -52.243322
-21.459102 6.937252 -38.850175
-21.326277 5.200664 -3.394956
-21.484251 7.266050 -31.596717
-21.148189 2.872290 -49.471688
-20.951321 0.298399 -9.067143
-21.027254 1.291169 -13.936751
-21.398792 6.148740 -38.174327
-21.122613 2.537911 1.646046
-21.463222 6.991115 -45.624269
-21.536677 7.951489 -52.382117
-21.156274 2.978000 -55.675928
-20.986769 0.761847 -35.704821
-21.537671 7.964476 1.851724
-21.479828 7.208232 -25.612538
-21.416348 6.378269 -8.483715
-21.276588 4.551022 1.873281
-21.433855 6.607165 0.499355
-21.227663 3.911362 -19.452065
-21.250920 4.215422 -44.247146
-21.459653 6.944451 -14.520143
-21.150533 2.902942 -23.998654
-21.471592 7.100551 -0.249545
-21.030135 1.328826 -21.005762
-21.349530 5.504683 -55.865525
-21.480823 7.221232 -37.277538
-21.075483 1.921716 -48.267178
-21.397874 6.136744 -4.292106
-21.419231 6.415962 -36.638156
-21.353248 5.553294 -2.196244
-21.360902 5.653359 -50.525533
-21.341839 5.404121 -34.018338
-21.347346 5.476129 -11.760204
-21.462431 6.980775 -26.891514
-21.511440 7.621534 -50.146888
-21.133948 2.686102 -27.896060
-21.089673 2.107241 -36.131897
-21.275238 4.533373 -14.778923
-21.439562 6.681784 -10.634134
-21.367672 5.741867 -61.032638
-21.092402 2.142923 -49.505241
-21.354078 5.564144 -9.568565
-20.933081 0.059923 -1.172426
-21.461839 6.973028 -38.491640
-21.405545 6.237036 -50.122401
-21.308378 4.966653 -51.689790
-21.060898 1.731034 -34.311379
-21.384666 5.964061 -60.694079
-21.116959 2.463983 -26.427261
-21.477813 7.181876 -49.630914
-20.977201 0.636755 -55.472571
-21.346346 5.463052 -15.773659
-21.383938 5.954542 -3.183348
-21.340889 5.391706 -15.517324
-21.500823 7.482717 -23.113741
-21.231207 3.957696 -12.849754
-21.389605 6.028633 -46.994925
-21.518575 7.714811 -42.009776
-21.050191 1.591048 2.252767
-21.309098 4.976056 -25.222066
-21.425028 6.491764 -4.857545
-21.101669 2.264087 -20.746503
-21.065634 1.792953 -18.596278
-21.418047 6.400484 -10.622744
-21.176919 3.247920 -3.497245
-21.254869 4.267055 -2.741451
-21.164037 3.079494 -30.236119
-21.475946 7.157476 -52.056692
-21.074438 1.908061 -12.308810
-20.970904 0.554433 -18.397981
-20.917817 -0.139641 -13.905927
-21.057218 1.682917 -23.915945
-21.474689 7.141044 -43.689917
-21.195480 3.490596 -48.121640
-21.035625 1.400609 -38.641469
-20.919426 -0.118605 -56.648826
-20.919821 -0.113441 -19.243721
-21.351438 5.529629 -23.060040
-21.432013 6.583075 -14.499247
-21.118808 2.488165 -14.202961
-20.934676 0.080773 -21.007951
-20.921747 -0.088257 -25.577217
-21.025120 1.263261 -11.777025
-21.485864 7.287147 -13.106136
-21.134801 2.697264 -18.171668
-21.512600 7.636700 -44.157496
-21.310694 4.996922 -40.746351
-21.374796 5.835013 -19.363763
-21.207474 3.647408 -43.375568
-21.145330 2.834917 -7.611219
-21.360436 5.647262 -9.018528
-21.138260 2.742486 -56.851280
-21.462172 6.977393 -55.076992
-21.259908 4.332938 -59.671293
-21.330579 5.256911 -60.871794
-21.438313 6.665449 -9.137334
-21.058079 1.694173 -55.151331
-21.538253 7.972083 -4.522963
-21.388676 6.016477 1.628696
-21.036891 1.417165 -31.345747
-21.533790 7.913743 -46.082325
-21.214922 3.744781 -52.334520
-21.166856 3.116358 -9.200607
-21.103851 2.292612 -30.560373
-21.278698 4.578605 -13.124008
-20.964479 0.470428 -58.898025
-21.272029 4.491409 -37.284403
-21.157826 2.998290 -24.664460
-21.323343 5.162304 -60.203221
-20.974899 0.606664 -24.404656
-21.365853 5.718085 -16.796597
-21.349804 5.508265 -36.973188
-21.110809 2.383584 -44.968985
-21.266359 4.417275 -19.944244
-21.318436 5.098151 -5.442834
-21.057993 1.693054 -37.869339
-21.266124 4.414209 -6.270203
-21.437709 6.657557 -40.383540
-21.357676 5.611175 2.929399
-21.008109 1.040859 1.422279
-21.097891 2.214687 -44.031327
-21.538441 7.974547 -15.328318
-21.049912 1.587398 -40.094196
-21.277617 4.564465 -11.695266
-20.939526 0.144180 -37.666363
-21.020987 1.209227 -48.864474
-21.255205 4.271445 -4.777124
-20.919977 -0.111402 -29.568528
-21.065677 1.793516 -16.475110
-21.537116 7.957222 -60.388471
-21.309244 4.977969 -41.292247
-21.240849 4.083760 -2.014754
-20.925313 -0.041645 -26.272511
-21.198243 3.526711 -23.438744
-21.386529 5.988412 -13.967297
-21.105178 2.309959 -38.754282
-21.496190 7.422149 -6.684995
-21.439067 6.675305 -29.828004
-20.917981 -0.137501 -3.574809
-21.402475 6.196889 2.714342
-21.160452 3.032625 -34.857431
-21.493314 7.384550 -16.612038
-21.008263 1.042873 -10.122789
-20.987823 0.775635 -2.170005
-21.410309 6.299322 -8.683037
-21.260417 4.339590 -25.059198
-21.004920 0.999162 -45.715501
-21.399780 6.161664 -4.507096
-21.351922 5.535952 -54.502702
-21.410592 6.303014 -41.086641
-21.535103 7.930901 -7.952057
-20.942027 0.176885 -27.842686
-21.462085 6.976250 -57.424867
-21.191775 3.442157 -36.949829
-21.140036 2.765699 -19.210847
-21.210191 3.682922 -7.444354
-21.278184 4.571882 -52.791904
-21.448880 6.803600 -29.121447
-21.438146 6.663272 2.267550
-21.404306 6.220828 -33.614522
-21.492578 7.374924 -58.072432
-21.517604 7.702126 1.587251
-21.015391 1.136069 -13.132184
-21.417994 6.399798 -22.758765
-21.388994 6.020646 -8.212022
-21.486883 7.300464 -32.269297
-20.961380 0.429913 -4.726849
-21.042173 1.486222 -19.338341
-21.293734 4.775194 -5.284703
-21.422452 6.458075 -27.658788
-21.099736 2.238814 -53.411581
-21.523545 7.779789 2.925514
-21.310406 4.993168 -4.259019
-21.364501 5.700418 2.562878
-21.520830 7.744301 -23.663589
-21.079597 1.975510 -35.711291
-21.299037 4.844515 -39.910111
-21.488679 7.323942 -33.452813
-21.056855 1.678170 -30.634718
-21.271879 4.489455 -43.595524
-21.119450 2.496551 -46.112333
-21.306867 4.946886 -39.105149
-21.520622 7.741578 -14.283776
-21.407117 6.257587 -20.029779
-21.436348 6.639756 -15.487265
-20.946086 0.229958 -40.223079
-21.387629 6.002790 -45.041229
-21.173158 3.198753 -21.980374
-21.028635 1.309215 -16.115134
-21.037094 1.419807 -35.543143
-21.050336 1.592940 -19.121094
-21.108461 2.352878 -40.574381
-20.922069 -0.084049 -35.431404
-20.926426 -0.027088 -24.838023
-21.336864 5.339075 -40.692719
-21.384218 5.958193 -57.585877
-21.352388 5.542046 -30.358474
-21.479888 7.209012 -0.602865
-20.983458 0.718565 -6.322249
-20.936599 0.105919 -17.684055
-21.043223 1.499943 -8.078153
-21.294749 4.788455 -43.899825
-21.298749 4.840758 -45.327025
-21.233238 3.984246 -29.190937
-21.315067 5.054105 -43.928642
-21.380372 5.907913 -22.142875
-21.181458 3.307264 -29.199715
-21.468177 7.055904 -7.421346
-21.216694 3.767949 -6.904937
-21.490935 7.353436 -44.455884
-21.254875 4.267135 -21.330117
-21.249173 4.192591 -16.744636
-21.068636 1.832201 3.150215
-20.934573 0.079432 -1.795204
-21.100132 2.243983 -25.963935
-21.516189 7.683623 -29.834459
-21.497773 7.442842 -15.764854
-21.319562 5.112865 0.058792
-21.416694 6.382790 -25.972009
-21.458899 6.934590 -44.199912
-20.933711 0.068163 -55.884963
-21.171149 3.172481 -14.609897
-20.997809 0.906189 -46.380167
-21.105626 2.315816 -15.823876
-21.430858 6.567979 -27.464356
-21.353350 5.554623 -34.190462
-20.939944 0.149648 -20.161366
-20.937051 0.111828 -19.276968
-21.323007 5.157916 -28.427866
-21.497853 7.443887 -46.382967
-21.318452 5.098358 -11.018494
-21.084323 2.037297 -42.459616
-21.457093 6.910984 -32.586314
-21.321155 5.133700 -2.632228
-21.302065 4.884110 -10.982342
-20.948170 0.257199 -51.082614
-21.257647 4.303381 -12.478850
-20.928664 0.002168 -45.346577
-20.926416 -0.027213 -14.679682
-20.935182 0.087397 -29.158412
-21.073274 1.892834 -23.947420
-21.107940 2.346068 -12.614642
-21.074222 1.905233 -33.429424
-21.234800 4.004674 -43.908182
-21.248052 4.177936 -55.854879
-21.138331 2.743414 -2.857512
-21.017715 1.166452 -51.711620
-21.472236 7.108965 -56.287889
-21.283045 4.635438 -20.455935
-21.045780 1.533379 -9.681196
-21.057807 1.690614 -59.191694
-21.503236 7.514267 -59.839546
-21.214293 3.736553 -38.554786
-21.026904 1.286583 -34.464373
-21.079806 1.978245 -9.687728
-21.415408 6.365978 -27.229687
-21.209067 3.668236 -51.735479
-21.256383 4.286848 -39.165202
-21.031258 1.343518 -37.982264
-20.933839 0.069832 -17.097073
-21.397540 6.132370 -6.927927
-21.037584 1.426217 -42.476130
-21.062053 1.746130 -26.038085
-21.478116 7.185847 -25.378630
-21.273248 4.507347 -25.767874
-21.470181 7.082096 -52.601239
-21.484095 7.264018 -56.839861
-21.029248 1.317231 -33.446048
-21.490685 7.350170 -24.310799
-21.131154 2.649581 -16.763221
-21.201798 3.573200 -50.063013
-20.982749 0.709292 -5.496271
-21.446292 6.769770 -43.877786
-21.360810 5.652159 -43.946941
-21.366875 5.731451 -36.451240
-21.365389 5.712018 -43.337114
-21.249681 4.199228 -13.845013
-20.917677 -0.141472 -59.446049
-21.502682 7.507029 0.957493
-20.920536 -0.104095 -46.118116
-21.333678 5.297430 -51.779110
-21.494656 7.402090 -33.140922
-20.921668 -0.089288 -31.090702
-21.181008 3.301381 -41.691728
-21.469022 7.066945 -53.220313
-20.988992 0.790921 -38.014278
-21.159443 3.019436 -22.968951
-21.530208 7.866913 -1.692759
-20.917484 -0.144002 -37.132397
-21.288664 4.708899 -38.015031
-21.537071 7.956633 -25.384773
-21.243881 4.123394 -1.231521
-21.387310 5.998624 -43.797448
-21.496592 7.427398 -25.199335
-20.968648 0.524932 -11.264676
-21.270786 4.475155 -30.804574
-21.230488 3.948299 -36.813468
-20.947224 0.244827 -3.330457
-21.020259 1.199709 -21.445806
-21.180427 3.293780 -11.083653
-21.256054 4.282547 -25.879283
-21.300247 4.860342 -12.327161
-21.480782 7.220704 -20.861538
-21.538719 7.978187 -34.143128
-21.319924 5.117601 -37.268872
-21.007223 1.029266 -57.761105
-20.958976 0.398480 -7.647297
-21.116993 2.464435 -49.372061
-20.924313 -0.054707 -5.687167
-21.433450 6.601864 -3.288023
-21.248589 4.184947 -10.855879
-21.126101 2.583513 0.544835
-21.460049 6.949636 3.816097
-21.449978 6.817955 -36.251703
-21.426035 6.504924 -45.403399
-21.039220 1.447606 -48.593644
-21.117987 2.477423 -38.420773
-21.068769 1.833939 -58.118675
-21.181069 3.302173 -57.646518
-21.501285 7.488763 -57.922337
-21.381665 5.924820 3.091054
-21.232888 3.979666 -10.927418
-21.117320 2.468711 -56.095965
-21.116780 2.461653 -29.088365
-21.521278 7.750153 -40.391079
-21.314750 5.049950 -2.109770
-21.144423 2.823059 -16.634224
-21.432182 6.585295 -12.854132
-21.198058 3.524292 -43.696234
-20.996792 0.892892 -55.854305
-21.328242 5.226360 -41.048367
-21.216197 3.761444 -61.018485
-21.260070 4.335061 -31.855245
-21.178355 3.266700 -39.040527
-20.937211 0.113913 -30.733940
-20.974549 0.602085 -60.255630
-21.516924 7.693233 -55.249662
-21.258093 4.309203 -55.425626
-21.461842 6.973073 0.938637
-21.429526 6.550560 -35.473152
-21.244536 4.131963 -48.566519
-21.365374 5.711832 -20.924693
-21.191949 3.444422 -0.863267
-20.939843 0.148336 -59.494629
-21.354530 5.570051 -40.539175
-21.497020 7.432993 -52.009818
-21.460403 6.954257 -7.579051
-21.122604 2.537786 -42.965537
-21.077219 1.944418 -59.139044
-21.510589 7.610406 -44.527874
-21.241772 4.095827 -39.410476
-21.111042 2.386625 2.186398
-21.228296 3.919638 -23.309939
-21.480947 7.222860 1.946710
-21.120839 2.514715 -14.501832
-21.262182 4.362676 -60.477340
-21.097419 2.208515 -9.921573
-21.505332 7.541676 -4.271203
-21.317579 5.086942 -33.740949
-20.975549 0.615165 -23.895605
-21.094762 2.173781 -28.061927
-21.216541 3.765954 -6.191877
-21.000173 0.937106 -4.736138
-21.289762 4.723256 -16.744577
-21.269937 4.464065 -52.314601
-21.283797 4.645269 3.346595
-21.532521 7.897147 -15.519417
-21.051361 1.606346 -10.675416
-21.035283 1.396143 -16.504414
-20.963906 0.462938 -52.599252
-21.139212 2.754927 -16.929797
-21.273022 4.504392 -53.668038
-21.466952 7.039887 -43.500907
-20.992474 0.836435 -4.005253
-21.511188 7.618236 -51.080349
-21.529523 7.857949 -13.134436
-21.404260 6.220234 -23.760841
-20.992623 0.838390 -49.357785
-21.509826 7.600426 -47.212679
-21.358108 5.616827 -8.148922
-21.520710 7.742728 0.963303
-21.452220 6.847275 -32.289014
-21.384205 5.958033 -42.256619
-21.429899 6.555438 -46.730734
-20.917927 -0.138200 -17.457711
-21.173067 3.197552 -3.084855
-21.054241 1.644003 -42.534800
-21.106552 2.327922 -28.261893
-21.154634 2.956566 -4.186789
-21.281747 4.618466 -33.524977
-21.130819 2.645204 -47.047678
-21.480283 7.214179 -35.179383
-21.321459 5.137672 -24.665828
-20.918071 -0.136320 -11.959450
-20.986564 0.759175 -36.417052
-20.962243 0.441188 -49.019812
-21.408184 6.271540 -47.877842
-21.091583 2.132220 -29.584256
-21.134033 2.687219 -40.722261
-21.145650 2.839107 -29.316966
-21.158665 3.009264 -26.158891
-21.217733 3.781529 1.545848
-21.134539 2.693831 -30.332290
-21.363094 5.682014 -3.780433
-21.270989 4.477816 -28.349556
-21.305982 4.935319 -36.274362
-21.184492 3.346928 -32.445494
-21.296680 4.813703 -31.378650
-21.019229 1.186244 -15.640968
-21.092591 2.145400 -29.908933
-20.969403 0.534809 -18.579591
-21.470442 7.085511 -3.231080
-21.468906 7.065435 -20.003444
-21.204332 3.606330 -40.705768
-20.919875 -0.112734 -24.228971
-21.357419 5.607818 -15.262677
-21.453983 6.870316 -47.393233
-21.389082 6.021796 -21.773892
-21.438733 6.670935 -6.171337
-21.531956 7.889754 -2.649406
-21.314935 5.052373 -42.560079
-21.152578 2.929685 1.531843
-21.423692 6.474285 -19.630348
-21.449757 6.815064 -18.981008
-21.321847 5.142741 -6.244110
-21.200260 3.553080 -27.034366
-21.335052 5.315390 -60.348079
-21.343376 5.424222 -14.987217
-21.167664 3.126916 -16.634796
-21.157687 2.996474 -2.485688
-21.016070 1.144938 -1.756016
-21.237061 4.034233 0.994601
-21.186497 3.373142 3.284607
-21.198891 3.535188 -10.183876
-21.411133 6.310088 -32.376155
-21.280516 4.602368 -16.942894
-21.377498 5.870335 -60.085861
-21.258040 4.308515 -28.846050
-21.140873 2.776643 -1.004415
-21.434824 6.619827 -33.555579
-21.354858 5.574344 -4.264023
-21.335491 5.321128 -16.884945
-21.400750 6.174347 -59.390434
-21.235296 4.011161 -49.227618
-21.185836 3.364497 -52.969398
-21.297618 4.825971 -9.867751
-21.186648 3.375115 -55.151216
-21.447831 6.789884 -6.754748
-21.416453 6.379649 -9.568142
-21.539157 7.983913 -37.968748
-21.230915 3.953879 -6.759752
-21.530951 7.876626 -14.776706
-21.514044 7.655576 -53.703493
-21.349237 5.500845 -57.167291
-21.196768 3.507425 -32.784599
-21.304932 4.921596 -25.944066
-21.325675 5.192786 -2.306687
-21.196569 3.504833 -6.623025
-21.181761 3.311229 -41.021931
-21.538377 7.973708 -52.164982
-21.046146 1.538165 -28.277240
-21.161824 3.050569 3.783497
-21.143225 2.807395 1.905513
-21.227072 3.903633 -34.480319
-21.318814 5.103084 -60.486702
-20.984665 0.734338 -39.700187
-21.366277 5.723639 -11.462660
-21.504267 7.527748 -43.532092
-21.014751 1.127701 1.187272
-21.493286 7.384177 -18.972510
-21.162108 3.054275 -5.410480
-21.173712 3.205995 -29.420906
-21.009021 1.052785 -25.603789
-21.135130 2.701559 -26.137456
-21.317363 5.084121 -44.394227
-21.297991 4.830847 -41.483588
-21.521689 7.755525 -40.810406
-21.388695 6.016737 -11.122109
-21.262544 4.367407 -33.460546
-21.527738 7.834617 -26.767032
-21.479378 7.202337 -1.160029
-21.067163 1.812943 -22.196403
-20.934213 0.074721 -36.782538
-21.312778 5.024180 -34.638290
-21.290577 4.733916 -44.806532
-21.460159 6.951074 -26.116345
-21.534302 7.920429 -47.785357
-21.107226 2.336736 -22.122776
-21.000357 0.939510 -26.187063
-21.059225 1.709163 -31.327189
-20.948779 0.265165 -16.956139
-21.534723 7.925934 -38.629885
-20.958123 0.387328 -54.060150
-21.053076 1.628771 -5.339042
-21.214372 3.737594 -53.402833
-21.537491 7.962132 -25.174176
-21.265098 4.400788 -51.141505
-21.474490 7.138439 -3.417022
-21.394237 6.089192 -2.873037
-21.136324 2.717177 -35.566159
-20.947655 0.250470 -44.047934
-21.400687 6.173517 -33.940199
-21.409668 6.290937 -44.169502
-21.369602 5.767106 -28.890892
-20.951316 0.298335 -57.452671
-21.501591 7.492761 -10.426811
-21.461677 6.970919 -18.136183
-21.168984 3.144177 -40.846323
-21.227000 3.902693 -35.500372
-21.217554 3.779189 -0.219518
-21.468121 7.055172 -4.100745
-21.399287 6.155217 -6.184424
-21.324852 5.182028 -44.146112
-20.917767 -0.140297 3.419268
-21.534469 7.922616 -41.010464
-21.473823 7.129720 -15.903233
-20.919544 -0.117065 -39.196763
-21.403147 6.205684 -32.084365
-21.453039 6.857978 -18.782654
-21.401074 6.178582 -54.222535
-21.507372 7.568340 -20.198639
-21.262739 4.369951 -16.574494
-21.267192 4.428168 -12.053064
-21.413316 6.338638 -35.522644
-21.399801 6.161936 3.320938
-21.281889 4.620330 -11.494874
-21.234207 3.996911 3.201319
-21.072231 1.879209 -5.917513
-21.165128 3.093765 -11.089320
-21.109588 2.367618 -58.469204
-21.104431 2.300192 -32.376266
-20.950074 0.282099 -36.831411
-20.983838 0.723538 -57.119912
-21.130261 2.637906 1.263370
-21.282683 4.630708 -45.306074
-21.171606 3.178453 -10.929461
-20.979368 0.665085 -3.706531
-21.460882 6.960527 -16.522451
-21.144222 2.820433 -25.766031
-21.460006 6.949068 -43.180024
-21.254321 4.259895 -19.327670
-21.480193 7.213000 -61.026701
-21.435540 6.629188 -18.162586
-21.062263 1.748874 -14.880761
-21.538918 7.980788 -12.600179
-21.394381 6.091078 -0.617656
-21.393269 6.076536 -27.661112
-21.260794 4.344524 2.242794
-21.407301 6.259986 -51.274485
-21.119906 2.502524 -39.089108
-21.465121 7.015945 -21.492887
-21.430189 6.559239 -2.400243
-21.490473 7.347402 -51.344482
-21.069678 1.845831 -43.026465
-21.520664 7.742128 -58.993226
-21.139041 2.752697 -24.687892
-21.217575 3.779462 -43.831197
-21.414969 6.360245 -31.441507
-20.967642 0.511787 -4.527145
-21.478699 7.193467 -51.463839
-21.308710 4.970992 -46.025022
-21.124977 2.568813 -9.530704
-21.302356 4.887914 -1.908828
-21.182850 3.325466 -10.067920
-21.292330 4.756832 -4.322726
-21.409213 6.284995 -49.399009
-21.058048 1.693770 -33.166242
-21.098871 2.227496 -45.607253
-20.965285 0.480966 -47.534287
-21.476841 7.169179 -37.473827
-20.985489 0.745117 -12.273671
-21.427793 6.527914 -20.674282
-21.277324 4.560637 -55.845212
-21.180650 3.296706 -40.701316
-21.536027 7.942992 -22.976971
-20.918825 -0.126464 -49.615340
-21.121895 2.528516 -22.131362
-21.335097 5.315977 -36.043205
-21.497516 7.439487 -30.299507
-21.044900 1.521868 1.094778
-21.096317 2.194108 -34.187768
-21.277827 4.567212 -40.220286
-20.921887 -0.086436 -34.281506
-21.104624 2.302723 -4.848782
-20.973451 0.587736 -32.194655
-21.374711 5.833906 -18.486916
-21.497420 7.438223 -9.926323
-21.109511 2.366612 -48.063849
-21.151587 2.916726 -42.859408
-20.936891 0.109738 -59.879635
-21.524418 7.791211 2.626072
-21.264996 4.399454 -37.518868
-20.982211 0.702261 -49.005360
-21.487071 7.302929 -36.992686
-21.282238 4.624887 -57.217101
-21.109332 2.364265 -17.743338
-21.529734 7.860711 -32.079959
-21.452187 6.846842 -36.501957
-21.272295 4.494886 -55.579955
-20.933902 0.070659 -43.634738
-21.454975 6.883292 -23.269384
-21.188700 3.401950 -37.782680
-20.919798 -0.113740 -32.945359
-21.496264 7.423111 -49.135414
-21.494121 7.395091 -20.637200
-21.371809 5.795964 -53.579693
-21.509193 7.592147 -11.335341
-21.104479 2.300821 3.811698
-21.283879 4.646344 -24.389343
-21.204401 3.607225 -24.873323
-21.504216 7.527085 -0.259172
-21.077481 1.947838 -60.915691
-21.131956 2.660068 -39.351831
-21.531185 7.879677 -25.814725
-21.395918 6.111161 -3.697117
-21.475511 7.151783 -41.369968
-21.086957 2.071739 -23.256084
-20.939437 0.143028 -11.722668
-21.392890 6.071578 -5.180320
-21.164450 3.084896 -15.638949
-21.454179 6.872880 -39.517557
-21.442843 6.724679 -48.663056
-20.931202 0.035361 -40.618968
-21.533259 7.906791 -35.721758
-20.921814 -0.087391 -3.366415
-21.089137 2.100240 -20.229119
-21.504419 7.529740 3.468943
-21.222359 3.842010 -53.590871
-21.128795 2.618739 -44.890751
-21.423782 6.475461 -36.094721
-21.111151 2.388059 -27.238140
-21.099979 2.241991 -34.625154
-21.384222 5.958255 -61.103592
-21.045109 1.524599 -10.493464
-21.427976 6.530304 -57.900127
-21.368590 5.753872 -13.525999
-21.053360 1.632481 -29.889277
-21.440666 6.696208 -31.289805
-21.084221 2.035957 -60.597959
-21.396732 6.121809 -2.076925
-21.290385 4.731404 -23.955642
-20.959293 0.402630 -25.642981
-21.209706 3.676581 -38.081249
-21.152537 2.929141 -36.807705
-20.920594 -0.103332 -57.223541
-21.342402 5.411491 -5.184840
-21.173703 3.205877 -51.961759
-21.075712 1.924721 -13.760901
-21.387001 5.994578 -46.813057
-21.203387 3.593972 -12.790076
-20.940025 0.150710 -7.470418
-21.077681 1.950464 -52.775900
-21.502830 7.508956 -42.444702
-21.012063 1.092553 -59.742035
-21.093018 2.150981 -7.555268
-20.984955 0.738142 -32.037956
-21.154909 2.960153 -22.052399
-21.224001 3.863477 -46.736923
-21.334523 5.308470 -11.963590
-20.961834 0.435852 -22.690345
-20.979998 0.673329 -48.171695
-21.536335 7.947006 -19.648000
-21.027842 1.298844 -31.687742
-21.501161 7.487139 -41.384439
-21.298668 4.839700 -56.333688
-21.239334 4.063949 -25.459658
-21.334813 5.312264 -30.779351
-21.130918 2.646486 -52.164765
-21.267573 4.433158 -28.692965
-21.271484 4.484292 -21.408588
-21.341557 5.400443 -20.350092
-21.171997 3.183566 -53.806203
-20.942114 0.178017 -19.687685
-21.026107 1.276167 -3.861463
-21.057525 1.686939 -9.453886
-21.323627 5.166016 -37.778461
-21.488743 7.324786 -37.557359
-21.298030 4.831354 -10.747894
-21.015699 1.140095 -60.475825
-21.145635 2.838905 -3.849422
-20.938260 0.127632 -20.570892
-21.328425 5.228740 -56.491864
-21.135663 2.708529 -14.280527
-21.219754 3.807950 -49.089777
-21.039783 1.454976 -1.507872
-20.985340 0.743172 -54.223376
-21.302502 4.889823 -11.218558
-21.387500 6.001105 -21.978371
-21.142967 2.804020 -51.733954
-21.523817 7.783352 -53.059562
-21.461811 6.972661 -1.766391
-21.185187 3.356024 -42.981665
-20.960364 0.416632 -55.504860
-21.419975 6.425695 -15.652009
-21.356622 5.597402 1.593988
-20.918986 -0.124356 -6.454300
-21.176003 3.235947 -55.329479
-21.138778 2.749262 -13.538672
-21.120920 2.515777 -9.805066
-21.112550 2.406343 -22.938132
-21.263564 4.380734 -7.066969
-20.953914 0.332301 -22.922880
-20.919541 -0.117107 -56.275744
-20.980072 0.674288 -43.500926
-21.334515 5.308370 -18.661762
-21.351206 5.526588 -60.660960
-21.023222 1.238452 -19.645257
-21.386198 5.984082 -22.537475
-20.965151 0.479213 -28.707088
-21.064524 1.778436 -29.186139
-21.106061 2.321502 -52.468056
-21.194895 3.482939 -42.221052
-21.451289 6.835099 -8.453443
-21.301965 4.882799 -11.544056
-21.182526 3.321223 -45.923899
-20.955966 0.359126 -0.644711
-21.236309 4.024399 -54.855256
-21.013143 1.106668 -35.690487
-21.009334 1.056877 -19.421524
-21.151427 2.914629 -12.584427
-21.415209 6.363384 -14.390592
-21.269570 4.459268 -5.205553
-21.380057 5.903796 -44.664755
-20.999139 0.923583 -16.682702
-21.370960 5.784853 -22.737138
-21.174751 3.219570 -44.107122
-21.284623 4.656075 -46.026387
-21.333457 5.294531 -18.865877
-21.077121 1.943136 -35.364738
-21.003845 0.985111 -55.622350
