34.838371 5.356978 -35.729518
34.840785 5.318551 -39.545801
34.669474 8.045292 -1.807767
34.876943 4.743021 -28.058843
34.812494 5.768850 -9.448173
34.458938 11.396391 -47.077320
34.855890 5.078127 -27.159997
34.704128 7.493709 -18.923018
34.849144 5.185505 -54.316339
34.533453 10.210334 -58.290078
34.901228 4.356486 -27.600942
34.478771 11.080706 -50.932120
34.875151 4.771546 -11.348651
34.907349 4.259052 -54.104061
34.601605 9.125572 -45.674069
34.714474 7.329033 -15.698284
34.895118 4.453732 -21.574756
34.643803 8.453895 -42.063720
34.512455 10.544564 -51.090239
34.849187 5.184816 -50.967598
34.803209 5.916640 -18.310199
34.814534 5.736387 -12.566044
34.902840 4.330820 -6.462083
34.613637 8.934049 -47.336555
34.759811 6.607412 -27.532606
34.866807 4.904364 -10.700130
34.538316 10.132928 -15.075752
34.471112 11.202625 -27.948274
34.717596 7.279344 -59.714611
34.470882 11.206274 0.579680
34.768317 6.472024 -0.439846
34.703371 7.505767 -22.828140
34.589741 9.314405 -59.687675
34.509963 10.584233 -57.800700
34.898731 4.396220 -24.587782
34.482627 11.019332 -14.487010
34.537959 10.138622 -40.168853
34.632896 8.627515 -2.910586
34.873336 4.800436 3.467232
34.491210 10.882722 -1.173761
34.535003 10.185672 -55.975472
34.761495 6.580607 -59.350000
34.818822 5.668125 -44.589975
34.556182 9.848561 3.813848
34.718226 7.269312 -61.055883
34.460098 11.377927 -14.061849
34.776670 6.339067 -29.307831
34.910102 4.215229 -22.475560
34.768892 6.462868 -38.882793
34.457700 11.416098 -40.759999
34.496477 10.798892 -49.096810
34.558577 9.810434 2.485977
34.855992 5.076493 0.500017
34.475206 11.137455 -53.097500
34.746054 6.826379 -54.215458
34.645725 8.423305 -27.777479
34.886990 4.583105 -44.368502
34.824515 5.577517 -56.939841
34.763776 6.544302 -2.889350
34.832693 5.447354 -55.664817
34.805011 5.887960 -35.942550
34.461550 11.354812 -17.375481
34.502465 10.703574 3.845091
34.631051 8.656873 -0.900372
34.751170 6.744948 -54.822998
34.868487 4.877612 -14.795601
34.641464 8.491136 -53.226998
34.688454 7.743187 -23.811438
34.905798 4.283733 -16.615737
34.875281 4.769473 -25.830290
34.591018 9.294075 -48.380553
34.856645 5.066104 -9.948791
34.732249 7.046114 -58.063934
34.864975 4.933522 -50.296814
34.593999 9.246636 2.989485
34.904834 4.299075 -37.174121
34.850680 5.161048 -56.259428
34.471102 11.202772 -44.718473
34.464374 11.309872 -5.549282
34.797247 6.011537 -37.269946
34.722196 7.206123 -37.214347
34.660341 8.190669 -26.367391
34.769203 6.457913 -34.267666
34.811277 5.788227 -6.253841
34.487854 10.936138 -23.704507
34.906174 4.277754 -28.459134
34.872838 4.808367 -19.937698
34.742016 6.890648 -48.965326
34.648264 8.382892 1.129217
34.622046 8.800210 -30.989165
34.752132 6.729637 -16.812975
34.699185 7.572387 -29.847365
34.462735 11.335953 -31.360785
34.454693 11.463953 -24.826237
34.875071 4.772812 -22.162601
34.854574 5.099068 -6.075734
34.798920 5.984915 -53.152435
34.865615 4.923327 2.787702
34.574185 9.562011 -52.119769
34.837003 5.378740 -18.926408
34.465336 11.294548 -38.767842
34.692465 7.679347 -43.685621
34.520609 10.414784 -47.933393
34.454289 11.470388 -49.991682
34.494894 10.824076 -48.435124
34.798616 5.989746 -54.628971
34.899350 4.386371 -41.810834
34.694860 7.641235 -30.697601
34.494686 10.827394 -0.611519
34.512035 10.551250 -31.366541
34.668534 8.060254 -47.985918
34.682132 7.843821 -56.354454
34.717043 7.288148 -27.467864
34.566429 9.685461 -57.298604
34.665796 8.103849 -54.238016
34.613225 8.940605 -17.242588
34.817522 5.688825 -16.269089
34.546755 9.998609 -37.316212
34.502176 10.708182 -26.746959
34.732711 7.038763 -47.718067
34.614411 8.921732 -38.980944
34.768848 6.463566 -30.344784
34.601079 9.133932 -43.836974
34.542924 10.059587 -21.685729
34.810912 5.794028 -50.843253
34.636069 8.577005 -19.575375
34.488893 10.919607 -18.726950
34.813048 5.760034 -38.240115
34.766406 6.502437 -57.587577
34.465597 11.290407 -51.490327
34.792772 6.082770 -3.317458
34.854043 5.107525 -24.606942
34.896597 4.430198 -34.048081
34.730117 7.080046 -40.674848
34.779976 6.286438 -48.774290
34.675153 7.954903 -48.849501
34.861609 4.987095 -29.774417
34.484727 10.985906 -7.735280
34.459861 11.381697 -37.886202
34.772556 6.404540 -26.007811
34.652091 8.321976 -49.328525
34.719032 7.256492 -16.561559
34.465845 11.286451 -1.686190
34.603653 9.092970 -12.702208
34.767710 6.481675 -1.686958
34.631696 8.646617 -1.954874
34.545846 10.013086 -49.557271
34.591441 9.287343 -7.237940
34.726181 7.142690 -20.793981
34.536447 10.162678 -43.023689
34.628380 8.699397 -28.482651
34.539979 10.106472 -25.114834
34.634291 8.605302 -22.310363
34.453586 11.481582 -54.399818
34.753329 6.710587 -24.338294
34.803389 5.913781 -0.147078
34.798832 5.986314 -24.002827
34.507448 10.624254 -53.990600
34.517898 10.457923 -10.006232
34.606423 9.048884 -7.867118
34.456321 11.438053 -39.750806
34.703871 7.497805 -9.205070
34.540412 10.099570 -22.981633
34.571123 9.610755 -17.577381
34.823907 5.587200 -30.158799
34.688088 7.749019 -1.091480
34.856287 5.071796 -33.907387
34.564156 9.721646 -5.168722
34.631760 8.645598 -5.362250
34.624484 8.761397 -14.935313
34.548508 9.970709 -39.068639
34.641216 8.495086 -43.907092
34.588642 9.331905 -51.171807
34.651399 8.332999 -17.961342
34.622181 8.798052 -60.463355
34.536321 10.164696 -46.321251
34.727737 7.117923 -26.653700
34.904445 4.305275 -59.436820
34.864621 4.939149 -41.405084
34.536816 10.156806 -45.760816
34.709461 7.408819 -56.046091
34.837762 5.366659 -40.811218
34.656952 8.244605 -9.128477
34.556912 9.836949 -3.145922
34.894719 4.460089 -49.529913
34.864319 4.943953 -31.685770
34.458636 11.401205 -23.162266
34.509330 10.594301 -35.050857
34.667017 8.084411 -34.716426
34.664769 8.120186 -52.782745
34.622827 8.787774 -56.806242
34.521902 10.394202 -10.706149
34.533487 10.209804 -46.947580
34.634429 8.603107 -36.988791
34.481202 11.042023 -36.376794
34.456552 11.434376 -32.971964
34.496241 10.802640 -59.044030
34.746880 6.813223 -13.380031
34.859755 5.016609 -32.563955
34.779435 6.295047 -12.772499
34.668032 8.068253 -8.117420
34.909000 4.232777 1.167588
34.504605 10.669508 -53.388927
34.791548 6.102245 -10.074569
34.801066 5.950749 -45.073561
34.598497 9.175040 -10.012421
34.498338 10.769267 -42.405565
34.897626 4.413811 -29.942107
34.846668 5.224910 -13.462655
34.719263 7.252815 -33.563209
34.463520 11.323460 2.244639
34.520225 10.420895 -24.164775
34.614765 8.916098 -58.340410
34.726051 7.144767 -52.508006
34.701972 7.528036 -55.205182
34.502996 10.695122 -5.702269
34.657644 8.233597 -29.869147
34.489373 10.911956 -33.541074
34.593869 9.248700 -36.679003
34.650812 8.342346 -33.450225
34.546022 10.010284 -4.683108
34.804568 5.895014 -30.628883
34.543640 10.048193 -29.701790
34.690871 7.704727 -13.673781
34.538729 10.126356 -41.364053
34.705172 7.477092 -40.056423
34.618172 8.861871 -26.867714
34.495716 10.810999 -8.541469
34.907492 4.256771 -10.279806
34.454275 11.470605 -4.051184
34.657914 8.229293 0.521463
34.630252 8.669587 -59.865532
34.463160 11.329197 -41.394534
34.653316 8.302485 -17.025065
34.631349 8.652133 3.150568
34.492524 10.861798 -58.302399
34.702366 7.521760 -12.468603
34.830242 5.486368 -60.215029
34.614221 8.924762 -8.857473
34.693677 7.660059 0.593580
34.516121 10.486209 -11.336938
34.457576 11.418069 -8.518959
34.857619 5.050603 1.243855
34.665749 8.104595 -46.421630
34.759039 6.619689 -60.985356
34.739797 6.925967 -3.727731
34.876224 4.754471 -43.804226
34.902261 4.340043 -50.518298
34.704477 7.488161 -10.018456
34.697564 7.598186 -35.938671
34.563904 9.725645 -11.685138
34.848077 5.202488 -38.341113
34.794439 6.056234 -51.417142
34.571283 9.608201 -4.333854
34.907819 4.251573 -5.016661
34.617690 8.869538 -25.240334
34.469171 11.233521 -13.229458
34.561919 9.757254 -2.554942
34.562180 9.753087 -19.876900
34.845042 5.250784 -0.756635
34.909996 4.216917 -55.391827
34.765464 6.517429 -58.356667
34.514375 10.514003 2.101902
34.574120 9.563041 -15.351464
34.801571 5.942720 -43.987608
34.648794 8.374467 -21.419459
34.729049 7.097053 -53.072437
34.615879 8.898365 2.458063
34.698055 7.590377 -41.320980
34.471295 11.199701 -34.931140
34.755728 6.672404 -40.055492
34.531955 10.234185 -55.177459
34.704945 7.480708 -13.112855
34.891030 4.518805 -3.752487
34.576609 9.523425 -16.336522
34.770011 6.445061 -1.115090
34.734484 7.010533 -23.084626
34.778311 6.312943 -21.836634
34.667730 8.073059 -5.253477
34.791022 6.110622 -17.798272
34.520744 10.412635 0.872210
34.783374 6.232354 -17.248033
34.765364 6.519023 -38.190903
34.631747 8.645797 -32.389352
34.845015 5.251214 3.832474
34.760199 6.601239 -26.938792
34.695501 7.631025 -44.822470
34.733911 7.019651 -48.372184
34.638928 8.531500 -11.259059
34.821048 5.632701 -50.239579
34.582177 9.434797 -60.542625
34.730413 7.075334 -25.065639
34.660596 8.186603 -61.082188
34.859204 5.025369 -30.357591
34.684082 7.812778 -54.747259
34.495759 10.810320 -3.324330
34.691754 7.690667 -33.117472
34.767390 6.486779 -6.488664
34.900304 4.371184 -47.082781
34.580139 9.467241 -33.351256
34.708536 7.423550 -38.810071
34.837747 5.366896 -43.786702
34.897512 4.415625 -10.937458
34.564483 9.716443 -28.744360
34.907129 4.262546 -32.197444
34.785053 6.205637 2.290391
34.526346 10.323459 -50.496413
34.706378 7.457903 -58.571472
34.718652 7.262541 -8.054583
34.873687 4.794853 -1.318505
34.681631 7.851800 -38.409769
34.743069 6.873888 -31.856218
34.855838 5.078950 -40.181850
34.593305 9.257670 -34.587966
34.460049 11.378710 -25.644523
34.492817 10.857137 -25.289566
34.860970 4.997272 -23.372050
34.822980 5.601942 -17.250256
34.859873 5.014721 -0.169090
34.826458 5.546586 -29.602641
34.870392 4.847298 -12.265740
34.716203 7.301510 -45.588893
34.617443 8.873475 1.583372
34.648711 8.375777 -50.282825
34.597763 9.186724 -2.702153
34.764733 6.529064 -47.428280
34.822779 5.605149 -52.664072
34.784637 6.212250 -20.056148
34.850368 5.166014 -45.376581
34.900191 4.372979 -11.895114
34.455421 11.452369 -11.324447
34.457124 11.425267 3.875508
34.571841 9.599326 -16.948851
34.455641 11.448871 -30.072982
34.527845 10.299606 -22.379321
34.588884 9.328040 -18.962359
34.870137 4.851355 -3.288421
34.730919 7.067279 -22.387136
34.588822 9.329030 -21.616046
34.753214 6.712418 -4.545834
34.786682 6.179710 -41.703975
34.878044 4.725492 -7.474302
34.872536 4.813168 -43.140916
34.700656 7.548972 -0.456633
34.747140 6.809091 3.357836
34.474417 11.150017 3.275493
34.712459 7.361105 -28.973110
34.798833 5.986297 -11.821734
34.779213 6.298583 -59.819383
34.779843 6.288556 -21.121224
34.766181 6.506009 -45.435758
34.641399 8.492160 -56.138432
34.586210 9.370603 -29.854590
34.504608 10.669460 -54.627793
34.787006 6.174554 -15.900893
34.579051 9.484561 -23.538442
34.790565 6.117903 -58.805326
34.789102 6.141185 -15.009343
34.646357 8.413244 -23.560571
34.785522 6.198169 -50.050393
34.601201 9.131991 -22.320879
34.833387 5.436294 -32.045651
34.672300 8.000310 -7.049490
34.725077 7.160261 -47.096573
34.697110 7.605411 -19.734698
34.461222 11.360035 -26.587097
34.581060 9.452575 -42.187954
34.491137 10.883884 -45.906606
34.607876 9.025755 -45.057537
34.791631 6.100936 -2.486600
34.547414 9.988121 -9.505604
34.710818 7.387221 -18.235598
34.874753 4.777875 -8.687276
34.511152 10.565311 -27.439069
34.802932 5.921046 -4.851334
34.669287 8.048271 -42.717886
34.873256 4.801709 -34.650721
34.698866 7.577464 -44.208790
34.551053 9.930203 -24.534504
34.899025 4.391550 -15.103006
34.481614 11.035462 -49.653835
34.456223 11.439606 -7.371935
34.631529 8.649270 -34.418571
34.783673 6.227599 -60.532277
34.813701 5.749650 -49.354579
34.701805 7.530683 -3.412003
34.491196 10.882945 -29.445242
34.460392 11.373242 -48.749284
34.497178 10.787730 -12.598483
34.463711 11.320426 -60.690277
34.736632 6.976340 -18.748365
34.744491 6.851262 -50.097429
34.678003 7.909546 -53.570720
34.815869 5.715135 -8.880383
34.755801 6.671236 -52.161599
34.544276 10.038068 0.377164
34.494669 10.827670 -2.410874
34.567142 9.674113 -43.636051
34.458785 11.398825 -59.662007
34.694994 7.639100 -17.043545
34.728615 7.103946 -14.014487
34.620506 8.824719 -11.783444
34.885612 4.605037 -40.512481
34.514828 10.506793 -41.910182
34.887000 4.582950 -58.934825
34.768668 6.466436 -55.965395
34.884090 4.629268 -16.140431
34.866746 4.905332 -42.555056
34.501969 10.711467 -46.483566
34.835885 5.396543 -15.701874
34.529308 10.276322 -23.611376
34.701747 7.531610 -46.369068
34.499292 10.754074 -55.406276
34.849099 5.186209 -58.441840
34.576731 9.521478 -39.422563
34.742664 6.880328 -8.749230
34.901043 4.359421 -14.020259
34.906582 4.271254 -39.946967
34.826880 5.539874 -10.287199
34.676774 7.929112 -6.288701
34.826578 5.544683 -14.393369
34.557508 9.827453 -7.724365
34.894026 4.471110 -23.020077
34.496600 10.796933 -11.783125
34.679437 7.886722 -17.568383
34.814232 5.741198 -20.425838
34.573390 9.574668 -1.751004
34.673480 7.981543 -24.538838
34.807669 5.845660 -23.010118
34.785077 6.205255 -11.245621
34.698643 7.581010 -8.601087
34.652948 8.308342 -45.527231
34.694268 7.650655 -57.807383
34.624161 8.766542 -39.794021
34.758032 6.635722 -7.072420
34.873281 4.801308 -59.720132
34.818064 5.680195 -34.276276
34.801980 5.936212 -40.976459
34.499967 10.743330 -21.767395
34.641199 8.495349 -24.788696
34.598651 9.172586 -19.617589
34.910293 4.212197 -58.371895
34.613102 8.942563 -15.539568
34.905805 4.283619 -8.406913
34.856284 5.071853 -16.513994
34.685328 7.792950 1.147592
34.841687 5.304186 -46.272636
34.907453 4.257396 -17.340532
34.749977 6.763931 -9.440458
34.554577 9.874114 -57.849687
34.647806 8.390194 -43.351460
34.737897 6.956219 -12.737819
34.694977 7.639362 -59.271983
34.908800 4.235960 -18.044284
34.881816 4.665461 -35.970252
34.719909 7.242520 -43.201350
34.691674 7.691935 -21.437163
34.909540 4.224185 -20.548817
34.909057 4.231861 2.230319
34.525164 10.342270 -18.756366
34.516795 10.475485 -19.558051
34.456414 11.436565 -12.419587
34.789802 6.130049 -36.583982
34.640433 8.507543 -31.717686
34.657385 8.237715 -60.469944
34.619188 8.845700 -46.730962
34.511322 10.562605 -60.371676
34.771139 6.427104 -23.698330
34.673490 7.981368 -9.599750
34.892270 4.499064 -19.000689
34.683574 7.820862 -41.828466
34.906177 4.277705 -57.611187
34.895678 4.444818 -31.090738
34.599034 9.166490 -30.361552
34.835697 5.399540 -21.829279
34.658106 8.226237 -40.086806
34.607485 9.031977 -44.446026
34.640773 8.502131 -7.776601
34.616993 8.880635 -40.446692
34.459617 11.385589 -22.203000
34.669323 8.047701 -40.972035
34.622418 8.794282 -4.293283
34.841468 5.307672 -7.226920
34.529228 10.277592 -13.462651
34.908592 4.239259 -3.175405
34.783363 6.232530 -40.468367
34.884189 4.627695 -26.473480
34.675357 7.951654 -2.489683
34.487844 10.936297 -9.659082
34.713091 7.351044 -17.605439
34.850697 5.160781 -18.129626
34.559714 9.792349 -36.443179
34.730932 7.067080 2.168515
34.506867 10.633500 -43.945420
34.580146 9.467130 -50.291405
34.767444 6.485908 -22.568002
34.768337 6.471701 -18.269167
34.893218 4.483976 -41.142584
34.709233 7.412463 -49.818504
34.561847 9.758389 -10.745987
34.529149 10.278853 -2.360110
34.547083 9.993392 -18.123052
34.625666 8.742582 -54.075096
34.861119 4.994886 -28.593057
34.693830 7.657621 -15.075385
34.510199 10.580473 -28.813168
34.835892 5.396428 -34.761242
34.562767 9.743743 -34.184560
34.580637 9.459306 -14.687644
34.701039 7.542884 -51.363586
34.625891 8.739003 -55.408197
34.721058 7.224235 1.048285
34.764206 6.537448 -7.752098
34.709187 7.413185 -32.068415
34.515229 10.500406 -32.564443
34.728379 7.107713 -10.650158
34.518232 10.452611 -16.721696
34.698102 7.589634 -36.737345
34.460759 11.367406 -58.732119
34.872303 4.816882 2.030112
34.736183 6.983496 -0.788902
34.666635 8.090493 -58.776968
34.603567 9.094331 -1.334075
34.592255 9.274394 -20.366346
34.555168 9.864704 -52.748548
34.898091 4.406406 -29.145765
34.826554 5.545063 -36.816597
34.739720 6.927199 -10.035940
34.779391 6.295749 -31.813060
34.801249 5.947844 -7.932634
34.504546 10.670459 -56.640660
34.458157 11.408827 -2.265788
34.746699 6.816115 -42.763915
34.459802 11.382636 -36.911385
34.460893 11.365269 -53.766634
34.455338 11.453691 -28.711963
34.611989 8.960287 -21.031469
34.904992 4.296568 -37.725286
34.494146 10.835992 2.629199
34.502715 10.699596 1.396188
34.816651 5.702694 -24.502955
34.861087 4.995407 -47.701198
34.682936 7.831023 -25.085599
34.545549 10.017816 -25.744597
34.735325 6.997147 -25.860962
34.642788 8.470060 -54.835864
34.567086 9.675010 -21.085077
34.794381 6.057163 -26.693656
34.637157 8.559695 -35.395916
34.633118 8.623973 -42.603390
34.863734 4.953271 -17.558666
34.478239 11.089171 -20.197756
34.549672 9.952185 -35.353328
34.614999 8.912371 -52.880228
34.602594 9.109825 -3.761263
34.839849 5.333448 -33.291471
34.799981 5.968019 -19.447214
34.738503 6.946562 -33.087275
34.684853 7.800510 -50.781530
34.732214 7.046668 -23.868093
34.901476 4.352528 -2.126341
34.744499 6.851121 -60.321731
34.690935 7.703706 3.745120
34.824973 5.570226 -41.450667
34.580984 9.453783 -26.254202
34.660916 8.181522 -0.502477
34.765435 6.517892 -43.636021
34.615098 8.910805 -23.319782
34.706897 7.449638 2.769663
34.837042 5.378131 -43.069597
34.688979 7.734839 -10.608308
34.784907 6.207956 -33.658769
34.598529 9.174529 -43.237240
34.789093 6.141322 -5.816881
34.677725 7.913972 -0.021987
34.797115 6.013637 1.425870
34.761471 6.580987 -25.462274
34.861775 4.984455 -19.395390
34.587587 9.348689 -18.144941
34.555166 9.864737 -19.140873
34.457834 11.413968 1.608853
34.577175 9.514413 -38.152170
34.822366 5.611727 -11.250106
34.804999 5.888159 -42.285566
34.846465 5.228143 -11.809730
34.573000 9.580871 -41.627051
34.537884 10.139811 -20.560455
34.646232 8.415233 -24.190973
34.515229 10.500406 -24.703813
34.895268 4.451350 -23.643691
34.750457 6.756303 -36.843268
34.535407 10.179238 -30.859557
34.640209 8.511115 -57.502568
34.554195 9.880186 -7.013387
34.540384 10.100017 -38.500997
34.752786 6.719224 1.708065
34.790227 6.123274 -56.421363
34.618370 8.858714 -38.089598
34.696015 7.622840 -47.404339
34.726031 7.145078 -41.628078
34.648695 8.376038 -10.302434
34.881869 4.664617 -38.164536
34.493594 10.844779 -57.287662
34.595138 9.228510 -32.795159
34.607630 9.029660 -6.582167
34.494892 10.824112 -22.594744
34.619040 8.848049 -18.376175
34.508941 10.600489 -4.494814
34.761247 6.584552 -31.255324
34.663291 8.143720 -59.823495
34.720982 7.225446 -39.429050
34.897696 4.412694 0.356717
34.838725 5.351332 -8.424271
34.707373 7.442069 -4.079634
34.540074 10.104951 -8.931341
34.742530 6.882467 -55.451623
34.621499 8.808914 -29.706323
34.896759 4.427617 -13.262233
34.758927 6.621480 -12.279027
34.630394 8.667338 -59.106520
34.565515 9.700011 -10.171193
34.901100 4.358524 -47.995756
34.690797 7.705906 -52.275012
34.855125 5.090305 -6.691920
34.567804 9.663576 -8.557926
34.471299 11.199642 -34.036222
34.461806 11.350737 -27.198031
34.896986 4.423997 -33.213263
34.698477 7.583662 -22.114321
34.859620 5.018748 -13.986102
34.631207 8.654390 -8.345540
34.467799 11.255356 -47.794816
34.680329 7.872513 -31.298448
34.531526 10.241015 -12.006403
34.465805 11.287091 -9.122681
34.477398 11.102558 -17.943233
34.817040 5.696496 -38.845252
34.775854 6.352056 -24.899638
34.808163 5.837786 -52.040347
34.864660 4.938529 -57.842502
34.499803 10.745941 -39.710859
34.501302 10.722087 -9.077010
34.897571 4.414695 -38.774403
34.556110 9.849713 -31.321755
34.524002 10.360776 -15.876003
34.480867 11.047342 -26.121078
34.780573 6.276941 -52.620166
34.480185 11.058208 -43.373068
34.544116 10.040623 -54.466347
34.532457 10.226185 -3.751308
34.470654 11.209911 -30.752651
34.611622 8.966121 -41.752195
34.774395 6.375271 -48.201600
34.720234 7.237359 -38.294473
34.568958 9.645207 -6.230830
34.490186 10.899021 -56.079589
34.741322 6.901698 -2.321101
34.495563 10.813438 -30.216580
34.901658 4.349639 -53.338062
34.601859 9.121524 -48.979622
34.611330 8.970779 -49.872207
34.531121 10.247451 -35.913014
34.574460 9.557640 -42.762136
34.761492 6.580658 -42.175927
34.455974 11.443565 -3.109517
34.792177 6.092246 -34.741378
34.649046 8.370458 -38.617418
34.609628 8.997857 -41.049374
34.576853 9.519536 -58.387938
34.846828 5.222361 -26.500749
34.639916 8.515769 -12.271418
34.515984 10.488385 -14.062634
34.457463 11.419863 -45.647695
34.563080 9.738775 -61.026789
34.813987 5.745085 -31.468891
34.906500 4.272557 -60.026780
34.869730 4.857824 -46.808615
34.685931 7.783358 -39.454483
34.907049 4.263833 -51.157249
34.497349 10.785000 -28.314817
34.820362 5.643622 -27.108040
34.579788 9.472833 -53.174851
34.605808 9.058674 -55.853484
34.554267 9.879037 -28.007574
34.765283 6.520303 -41.206420
34.530186 10.262336 -34.591026
34.604950 9.072324 -35.704842
34.669329 8.047603 -19.228664
34.595787 9.218165 -25.706499
34.680810 7.864865 -37.492461
34.868163 4.882776 -51.395787
34.682194 7.842840 -45.844097
34.849478 5.180184 -49.710420
34.752109 6.729997 -46.611504
34.899672 4.381248 -35.278045
34.612215 8.956682 -24.045427
34.663086 8.146983 -56.827675
34.486459 10.958343 -7.103150
34.722001 7.209235 -42.295933
34.656103 8.258122 -3.551933
34.696789 7.610523 -11.524115
34.657381 8.237777 -33.999951
34.454054 11.474128 -42.671687
34.588004 9.342048 2.052944
34.823652 5.591253 -15.098901
34.469210 11.232886 -31.957387
34.852635 5.129931 -12.922937
34.497821 10.777492 -17.268768
34.665938 8.101580 1.689895
34.578014 9.501062 -56.436908
34.455682 11.448213 -42.022062
34.770186 6.442272 -53.533831
34.656354 8.254131 -4.607918
34.557131 9.833464 -60.008015
34.626730 8.725655 -14.219733
34.499496 10.750827 -35.603422
34.719590 7.247600 -2.864987
34.888011 4.566858 -4.367033
34.625014 8.752962 -26.117276
34.640698 8.503326 -6.455066
34.664526 8.124061 -21.930037
34.652054 8.322580 -25.705553
34.776558 6.340850 -13.770322
34.579482 9.477705 -54.283035
34.726436 7.138638 -35.398533
34.633218 8.622391 -50.851545
34.778577 6.308708 -3.874612
34.515157 10.501550 -59.568535
34.526575 10.319811 -8.052445
34.769338 6.455765 -50.586821
34.633796 8.613182 -9.601394
34.604142 9.085185 0.697880
34.841477 5.307539 -54.960626
34.907129 4.262560 -30.510701
34.577584 9.507909 -25.023686
34.555248 9.863436 1.680141
34.890526 4.526822 -56.365260
34.813383 5.754703 -35.322871
34.853162 5.121538 -49.011583
34.892512 4.495208 -39.400616
34.562854 9.742367 -0.589917
34.868875 4.871440 -55.636180
34.460831 11.366257 -19.335458
34.574325 9.559783 -46.563573
34.503133 10.692935 -15.193089
34.756190 6.665040 -16.201034
34.459502 11.387414 -14.969799
34.836135 5.392557 -25.695984
34.668978 8.053196 -27.360985
34.656257 8.255678 -51.324634
34.533020 10.217234 -1.679042
34.745204 6.839914 -15.156403
34.691326 7.697483 -26.668909
34.859121 5.026697 -9.384434
34.685131 7.796088 -32.509650
34.869093 4.867975 -15.583053
34.728354 7.108104 -50.971620
34.781842 6.256745 -46.929077
34.902810 4.331295 -27.037424
34.672141 8.002855 -49.761658
34.539139 10.119834 -59.188853
34.776716 6.338337 -18.870743
34.696922 7.608416 -4.858320
34.734213 7.014845 -46.050946
34.701611 7.533780 -54.006734
34.758785 6.623736 -35.990927
34.653746 8.295645 -22.969735
34.515042 10.503383 -51.689959
34.801965 5.936450 -55.305689
34.655418 8.269032 -47.405716
34.910143 4.214574 -36.429309
34.888228 4.563406 -46.010699
34.792952 6.079901 -27.613643
34.888463 4.559651 -5.898162
34.666670 8.089934 2.316756
34.724705 7.166191 -5.970422
34.561041 9.771227 0.885755
34.644564 8.441793 -41.423944
34.710677 7.389477 -34.095785
34.605768 9.059300 -57.782059
34.715412 7.314111 -14.504675
34.829976 5.490595 -28.877780
34.488306 10.928937 -50.335342
34.750671 6.752888 -56.727393
34.677080 7.924231 -29.111283
34.562273 9.751611 -31.999283
34.545840 10.013180 -12.995143
34.775121 6.363726 -8.357654
34.595056 9.229807 -53.716566
34.750617 6.753754 -28.667864
34.506816 10.634315 -39.103288
34.907027 4.264174 -0.296671
34.782940 6.239272 3.066397
34.654869 8.277771 3.714047
34.800954 5.952533 -61.055869
34.731063 7.064996 -19.406080
34.907392 4.258360 -44.876658
34.566364 9.686502 -22.641939
34.642896 8.468342 -48.649584
34.738688 6.943629 -34.600530
34.793419 6.072466 -28.451181
34.745254 6.839105 -44.616457
34.555376 9.861393 -32.792264
34.648702 8.375930 -20.561758
34.575223 9.545487 -54.835480
34.798725 5.988013 0.629847
34.861917 4.982185 -44.858591
34.815746 5.717088 -21.274393
34.828325 5.516874 -57.679220
34.862710 4.969573 -37.114614
34.546014 10.010407 -51.357009
34.842699 5.288078 -31.046199
34.594956 9.231399 -4.794386
34.689838 7.721165 -35.234726
34.570439 9.621631 -47.188398
34.606702 9.044437 -51.771745
34.734571 7.009149 -1.730473
34.745404 6.836726 -29.818299
34.571845 9.599255 -55.523854
34.517740 10.460450 -36.414041
34.723891 7.179143 0.048284
34.814246 5.740972 2.831091
34.908164 4.246077 -42.597188
34.623148 8.782673 -18.924939
34.728423 7.107013 3.873752
34.661188 8.177193 -55.414584
34.519231 10.436703 -40.719430
34.455602 11.449497 -0.923190
34.466021 11.283658 -55.718642
34.688340 7.745011 -25.668127
34.865164 4.930508 -2.360321
34.559566 9.794700 -40.646871
34.574291 9.560320 -45.215256
34.763496 6.548760 -5.058651
34.465932 11.285073 -0.035800
34.482672 11.018624 -51.973130
34.457894 11.413015 -56.479241
34.548337 9.973439 -48.373948
34.644371 8.444855 -12.892278
34.823361 5.595877 -59.184066
34.737351 6.964908 -37.756142
34.735911 6.987817 -44.035788
34.507232 10.627690 -44.607706
34.714583 7.327300 -6.802869
34.456235 11.439423 -46.357166
34.811963 5.777306 -13.319678
34.659377 8.206015 -44.529551
34.595261 9.226536 -13.434441
34.738283 6.950070 -30.845850
34.496209 10.803145 -45.167321
34.594374 9.240656 -27.773778
34.790295 6.122198 -14.451885
34.803788 5.907426 -32.981939
34.607180 9.036825 -33.928423
34.895155 4.453145 -9.509884
34.842221 5.295692 -22.856436
34.490166 10.899339 -6.275288
34.633126 8.623852 -29.045345
34.657655 8.233425 -11.757870
34.657637 8.233704 -18.668519
34.776393 6.343481 -49.315056
34.504947 10.664068 -37.061253
34.637754 8.550185 -13.646925
34.616116 8.894596 3.866602
34.654931 8.276783 -58.045280
34.809029 5.824012 -22.306720
34.905028 4.295999 -1.559466
34.505964 10.647888 -5.074578
34.528821 10.284075 -0.994685
34.503744 10.683220 -20.942398
34.757370 6.646257 -35.074428
34.545188 10.023550 -53.625733
34.622501 8.792967 -10.737242
34.765611 6.515090 -10.559533
34.532321 10.228360 -17.566916
34.556430 9.844611 -47.796450
34.858061 5.043572 -60.734499
34.773500 6.389524 -32.675066
34.688862 7.736707 -20.608223
34.644923 8.436083 -37.680551
34.802685 5.924990 -39.427247
34.790037 6.126310 3.813135
34.904585 4.303049 -52.034465
34.549088 9.961482 -14.182088
34.676233 7.937708 -15.945572
34.724872 7.163525 -51.783828
34.587738 9.346283 -11.261355
34.771505 6.421274 -23.134054
34.585603 9.380273 -14.098740
34.720678 7.230291 -54.579534
34.905637 4.286294 -12.519439
34.846245 5.231638 -48.357040
34.813741 5.749000 -1.320593
34.751377 6.741647 -19.904931
34.537225 10.150306 -45.192639
34.551877 9.917091 -27.357565
34.662970 8.148826 -28.475768
34.810910 5.794067 -48.116002
34.460003 11.379442 -21.486344
34.810246 5.804639 -0.771159
34.856417 5.069738 -3.992430
34.623886 8.770914 -16.145830
34.887944 4.567915 -48.611685
34.801414 5.945210 -46.329750
34.526871 10.315105 -33.975308
34.840107 5.329338 -23.862754
34.837485 5.371073 -36.315636
34.457658 11.416771 -57.837764
34.886900 4.584537 -54.865528
34.743425 6.868217 -21.322201
34.666840 8.087218 2.909708
34.843730 5.271675 -53.201311
34.644168 8.448090 -51.882735
34.589917 9.311602 -0.118910
34.893156 4.484963 -57.013590
34.737956 6.955274 -49.506105
34.647825 8.389892 -15.609997
34.818674 5.670491 -5.520682
34.713337 7.347131 1.661314
34.669054 8.051987 -36.270725
34.599504 9.159010 -24.597802
34.564950 9.709007 3.262285
34.826344 5.548411 0.954069
34.465027 11.299474 -10.176416
34.586895 9.359698 -29.295249
34.517040 10.471591 -14.653952
34.557951 9.820399 -30.305621
34.627951 8.706215 0.086646
34.495031 10.821905 -41.245292
34.850190 5.168851 -20.419997
34.834502 5.418548 -3.478630
34.806209 5.868893 -1.977534
34.455558 11.450199 -16.713696
34.525551 10.336110 -33.278443
34.816807 5.700204 -26.139738
34.470440 11.213312 -43.968418
34.543165 10.055758 -56.873838
34.795574 6.038168 -7.298504
34.909925 4.218047 -26.018472
34.546039 10.010007 -42.182932
34.857310 5.055514 -25.234522
34.908089 4.247270 -34.623146
34.902744 4.332344 -52.784890
34.584067 9.404723 -38.673455
34.597733 9.187197 -5.947223
34.735058 7.001405 -57.255904
34.842539 5.290630 -4.977302
34.852161 5.137478 -52.007590
34.759955 6.605117 -28.103663
34.836267 5.390456 -2.773438
34.611329 8.970794 -61.069979
34.830952 5.475062 -46.869502
34.895964 4.440261 -60.719312
34.904928 4.297582 -19.692272
34.456458 11.435866 -15.554175
34.579822 9.472280 -26.799819
34.523680 10.365899 -37.865956
34.485287 10.977002 -10.694800
34.761340 6.583063 0.680587
34.631293 8.653028 -36.299231
34.517040 10.471590 -52.814975
34.585074 9.388682 -12.195919
34.726844 7.132150 -11.998641
34.454744 11.463142 -33.560714
34.838367 5.357030 -19.899077
34.465866 11.286112 -35.891282
34.860377 5.006709 -38.966513
34.827255 5.533899 2.212543
34.588145 9.339802 -31.098506
34.514362 10.514210 -49.939735
34.684535 7.805580 -46.895759
34.488519 10.925556 -15.763475
34.466717 11.272568 -4.661809
34.457963 11.411907 -52.580779
34.805077 5.886912 -4.217050
34.819071 5.664171 -45.725487
34.901090 4.358672 -31.667513
34.528043 10.296447 -52.254249
34.763660 6.546136 -39.538551
34.807331 5.851031 -40.014435
34.618778 8.852222 -33.197251
34.857758 5.048386 -37.721483
34.527890 10.298882 -6.430333
34.810285 5.804013 -53.867264
34.540556 10.097288 -26.713920
34.673666 7.978573 -3.022944
34.892975 4.487847 -25.327556
34.505036 10.662656 -60.940546
34.877543 4.733468 -16.987982
34.700366 7.553597 -57.148671
34.753202 6.712598 -17.669794
34.856174 5.073608 -21.151941
34.514373 10.514041 -0.049656
34.464235 11.312073 -6.658945
34.902619 4.334334 -0.991444
34.721682 7.214307 -7.458843
34.568264 9.656256 -3.701856
34.657054 8.242990 -30.564574
34.670230 8.033271 -14.232287
34.687227 7.762727 -27.882994
