7.420118 34.243472 -34.048843
6.177477 34.157146 -6.912108
2.970033 33.934327 3.864466
2.987082 33.935512 -11.415981
6.270499 34.163608 -30.730720
5.631384 34.119209 -4.782593
7.979660 34.282342 -18.168728
1.593775 33.838720 -3.679576
7.881595 34.275530 -53.157025
1.037883 33.800102 -45.092574
4.220483 34.021195 -10.985271
7.388326 34.241263 -29.560447
5.970916 34.142797 -55.552312
3.529690 33.973206 -38.424543
0.954192 33.794288 -33.950677
3.432034 33.966422 -54.903799
2.556246 33.905582 -38.596428
6.124463 34.153463 -19.750299
3.611855 33.978914 -4.128505
7.138779 34.223927 -2.212707
4.401894 34.033798 -44.591232
1.656527 33.843079 -22.610557
2.056664 33.870876 -59.003305
3.473297 33.969289 -58.910248
4.286305 34.025768 -12.704942
2.938123 33.932111 -13.903190
3.324905 33.958980 -20.037092
4.174867 34.018026 -30.005861
8.125479 34.292472 -49.878781
8.473411 34.316643 -41.547887
8.320701 34.306034 -1.879512
4.715160 34.055560 3.616065
5.365179 34.100716 -44.240132
0.951380 33.794093 -58.423682
2.005435 33.867318 -34.943019
6.374570 34.170838 -53.683120
2.878050 33.927937 -53.804082
4.163011 34.017203 -25.954310
1.551255 33.835766 -28.201335
7.242897 34.231160 -34.022997
0.923505 33.792157 -5.786724
7.023514 34.215920 -56.465042
3.791192 33.991373 -13.626347
1.527124 33.834090 -24.980449
5.067256 34.080020 -34.078888
3.967394 34.003613 -3.597822
5.905337 34.138241 -41.298112
7.292997 34.234641 -24.803858
2.991419 33.935813 -3.832452
7.413042 34.242980 -0.490892
6.726315 34.195273 -59.329920
5.272809 34.094300 -50.207965
2.998141 33.936280 -9.404250
5.581551 34.115748 -41.721612
3.939454 34.001672 -25.497930
3.243609 33.953333 -41.589115
2.881720 33.928192 -58.406446
4.624634 34.049271 -14.103876
4.779102 34.060002 -4.134524
2.570448 33.906568 -2.629310
7.900506 34.276844 -27.267161
2.270407 33.885725 -56.611807
3.192107 33.949755 -51.769197
3.037593 33.939021 -55.467075
3.215966 33.951412 -4.545166
4.030724 34.008013 -36.415363
6.832045 34.202619 -35.038110
7.514050 34.249997 -18.512845
6.206838 34.159186 -5.744468
8.106432 34.291149 -55.333118
8.543401 34.321505 -39.525078
4.409144 34.034301 -53.345691
3.347291 33.960535 -14.345759
2.560922 33.905907 -15.936452
6.923543 34.208975 -29.324500
2.591739 33.908048 -33.350575
4.446376 34.036888 -58.171636
3.865489 33.996534 1.694860
6.706548 34.193900 -40.353378
1.450898 33.828794 -16.902394
5.590384 34.116361 -33.621019
8.055893 34.287638 -58.097881
6.685253 34.192421 -18.378063
5.789589 34.130200 -56.452637
8.570881 34.323414 -27.967250
6.737908 34.196079 -49.538238
2.943376 33.932476 -37.491150
2.011332 33.867727 -26.221149
2.711096 33.916339 -12.300217
4.605519 34.047943 -36.719030
5.774768 34.129170 -54.843687
7.546900 34.252279 -7.122764
1.384195 33.824160 -43.182676
7.890971 34.276181 -44.427549
7.836753 34.272415 -32.178567
1.051199 33.801027 -5.267882
3.810009 33.992680 -20.097160
6.042061 34.147739 -15.712872
7.738877 34.265615 -32.007331
1.207386 33.811878 -13.300093
1.434487 33.827654 -57.725783
5.482215 34.108847 -52.712980
1.765619 33.850658 -19.803075
4.872382 34.066482 -11.741914
5.901408 34.137968 -1.993482
7.375969 34.240404 -32.904103
4.288395 34.025913 -30.585049
8.057896 34.287777 -41.929538
6.021434 34.146306 -50.223615
3.733095 33.987337 -8.823454
4.784287 34.060362 -41.812552
2.346660 33.891022 -28.844964
3.017739 33.937642 -44.160066
4.140225 34.015620 -44.348619
2.473927 33.899863 -34.448952
6.730253 34.195547 -55.497666
1.926250 33.861817 -38.445326
3.260066 33.954476 0.719506
6.885813 34.206354 -20.942218
6.989550 34.213560 -55.675972
5.420325 34.104547 -33.727108
2.733657 33.917907 1.134424
6.110397 34.152486 2.160804
4.896458 34.068155 -11.337045
3.198707 33.950213 -50.397368
3.317372 33.958457 -49.703966
2.846536 33.925748 -0.483803
5.779471 34.129497 -29.410924
6.387211 34.171716 -18.205868
2.434384 33.897116 -46.954015
3.132783 33.945634 2.259747
5.734117 34.126346 -29.237078
3.530005 33.973228 -58.701826
3.764693 33.989532 -27.845767
4.198319 34.019656 -42.480425
7.632895 34.258253 -59.994603
8.225763 34.299439 -14.636574
6.679301 34.192007 -5.188345
5.653069 34.120716 -6.802395
7.374181 34.240280 -43.591472
8.069274 34.288568 -18.467816
7.416355 34.243210 -56.710252
5.366842 34.100832 -12.164305
4.267827 34.024484 -36.522139
6.090149 34.151080 -9.554819
1.181465 33.810077 -43.785520
2.790620 33.921864 -29.509879
4.023700 34.007525 -50.895802
7.374429 34.240298 -23.627035
7.331198 34.237294 -42.617614
8.310919 34.305355 -30.824401
7.796980 34.269652 -26.466054
5.275345 34.094476 -44.045945
4.422482 34.035228 -36.196304
2.267192 33.885502 -58.348019
5.130273 34.084398 -4.392939
2.185930 33.879856 -22.104905
8.520160 34.319891 -53.154292
6.070794 34.149735 -25.688203
1.590614 33.838500 -10.727377
7.555985 34.252910 -37.953851
6.508553 34.180146 -37.248571
4.818266 34.062723 -5.338733
3.234512 33.952701 -32.920128
2.211906 33.881661 -43.404126
2.302573 33.887959 -55.142491
3.133227 33.945664 -50.099351
5.594241 34.116629 -53.068142
2.270081 33.885702 -31.599224
3.881578 33.997652 -13.838083
7.270553 34.233081 0.566521
2.139909 33.876659 -23.181696
5.864498 34.135404 -48.538524
2.142611 33.876847 -14.873857
6.407389 34.173118 -40.640812
0.915830 33.791623 -60.455291
2.304805 33.888115 -7.136294
6.389476 34.171874 -34.730474
1.349534 33.821753 -20.959806
4.777535 34.059893 -46.466228
5.964849 34.142375 -29.790929
1.723955 33.847763 -32.617332
7.581901 34.254710 -10.529497
4.844290 34.064531 -48.663681
6.562665 34.183905 -55.621314
3.649749 33.981547 -39.619864
0.967570 33.795218 -58.167468
6.187274 34.157827 -5.413152
5.581803 34.115765 -19.706096
3.443944 33.967250 -52.529716
5.676213 34.122324 -58.158020
4.750283 34.058000 -34.403967
4.953937 34.072148 -45.194688
4.562865 34.044980 -32.418856
4.178637 34.018288 -48.674810
1.535919 33.834701 -50.929151
5.210618 34.089979 -31.724288
6.871196 34.205338 -38.028633
3.169225 33.948165 -7.693836
3.893959 33.998512 -9.956534
3.386447 33.963255 -60.506224
7.070300 34.219170 -11.889240
4.857151 34.065424 -24.162582
5.110338 34.083013 -20.293006
7.053454 34.218000 -45.945072
8.562812 34.322854 -16.211466
5.307549 34.096713 0.804686
2.996071 33.936136 -39.305744
6.860133 34.204570 -29.504270
1.487347 33.831326 -14.051591
3.927355 34.000832 -18.384865
5.481370 34.108788 -21.249862
6.732280 34.195688 -50.602300
4.975587 34.073652 -14.981463
6.951627 34.210926 -57.474251
3.518177 33.972407 1.061859
2.890746 33.928819 -7.740863
4.380363 34.032302 -29.666393
4.012501 34.006747 -46.380024
1.626793 33.841014 -56.601323
2.163427 33.878293 -14.091431
3.505009 33.971492 2.836560
4.341085 34.029573 -40.383453
4.392685 34.033158 -41.895925
6.639483 34.189241 -50.755207
5.286683 34.095263 -21.092683
6.188244 34.157894 -52.205334
6.796711 34.200164 -25.193994
8.493688 34.318052 -44.287273
4.547070 34.043883 -42.472385
8.354122 34.308356 -33.225815
1.954557 33.863783 -58.146452
6.550153 34.183036 -45.468813
7.731284 34.265088 -60.722097
8.547639 34.321800 -40.393456
1.799331 33.853000 -20.772058
4.311785 34.027538 -35.534340
1.047363 33.800761 -55.015553
7.597943 34.255825 -9.004768
7.789386 34.269124 -24.629677
1.252165 33.814988 -45.756473
7.149158 34.224648 -16.144657
8.358585 34.308666 -57.754322
4.503398 34.040849 -17.403138
7.532819 34.251301 -59.831197
4.590742 34.046917 0.597488
5.130541 34.084416 -48.607724
8.309115 34.305229 -57.572473
3.017972 33.937658 -34.540348
6.931970 34.209560 -51.021289
8.051808 34.287355 -43.419575
1.322904 33.819903 -0.140304
7.710658 34.263655 -39.673536
0.963462 33.794932 -44.422828
5.469084 34.107935 -48.150844
2.738273 33.918227 -30.291586
7.873806 34.274989 -29.838047
8.447066 34.314813 -16.392991
3.306334 33.957690 1.535254
4.999555 34.075317 -29.985689
7.146470 34.224461 -28.607157
6.391732 34.172030 -4.278257
5.430473 34.105252 -16.168100
8.471279 34.316495 -27.795862
6.393668 34.172165 -14.722931
6.675131 34.191718 -35.169982
1.924568 33.861700 -24.048228
7.821731 34.271371 0.415760
3.861847 33.996281 -15.269793
3.429806 33.966267 0.550476
4.103083 34.013040 -4.258818
3.733226 33.987346 -23.016685
4.313370 34.027648 -55.169886
1.091042 33.803795 -8.483204
6.955032 34.211162 -59.525567
5.846009 34.134119 -30.594584
6.392721 34.172099 -6.757469
8.421766 34.313055 -25.102600
7.866858 34.274506 -8.571912
7.555748 34.252894 -45.370661
4.718004 34.055758 -42.630526
2.426225 33.896549 -0.223906
3.599068 33.978026 -10.455070
1.873856 33.858177 -41.986521
7.159814 34.225388 -53.928039
5.411360 34.103925 -19.608902
6.729882 34.195521 -31.519700
5.556594 34.114014 -21.025757
4.672138 34.052571 -28.034733
1.919224 33.861329 -0.643561
7.837004 34.272432 -40.643540
4.634134 34.049931 -3.549792
1.896007 33.859716 -2.113695
8.137629 34.293316 -28.044663
7.895857 34.276521 -54.319832
6.431786 34.174813 -11.364063
1.640768 33.841984 -19.949400
2.813482 33.923452 -4.685234
5.702588 34.124156 -48.700841
4.087258 34.011940 -6.976727
7.210892 34.228937 0.836046
5.109246 34.082937 -33.424103
1.592479 33.838630 -20.334304
6.836795 34.202948 -23.518019
6.208468 34.159299 -59.269656
3.864427 33.996460 -53.329328
1.737383 33.848696 -14.992040
7.445034 34.245202 -5.032381
0.909686 33.791197 -1.561702
2.609544 33.909284 -59.598211
3.388274 33.963382 -39.846926
3.099125 33.943295 -42.609748
2.511151 33.902449 -37.333646
2.787559 33.921651 -57.934867
0.917890 33.791767 -30.708785
3.010855 33.937163 -7.576446
7.934519 34.279207 -45.704152
0.929190 33.792552 -57.550421
8.258378 34.301705 2.904930
4.113630 34.013772 -28.105720
7.645182 34.259107 1.080709
5.837016 34.133495 -23.581809
0.914394 33.791524 -43.610748
4.160101 34.017001 0.864233
3.235121 33.952743 0.439599
2.365869 33.892357 -8.144972
2.587807 33.907774 -45.535387
8.269105 34.302450 3.255990
2.326270 33.889606 -13.759325
2.731513 33.917758 -28.099215
8.290986 34.303970 -56.724693
3.413073 33.965105 -29.273221
2.462546 33.899073 -6.296452
2.975538 33.934710 -17.577295
8.578707 34.323958 -20.178105
6.837420 34.202992 -41.487290
7.098257 34.221112 -27.140001
2.396150 33.894460 -3.672229
5.814186 34.131909 -45.495566
8.018150 34.285016 -60.428979
2.206869 33.881311 -61.117637
6.404474 34.172915 -40.112742
7.881128 34.275497 -18.357592
3.692823 33.984539 1.240472
5.151252 34.085855 -23.455775
8.520436 34.319910 -37.008179
6.524540 34.181256 -45.688665
4.868549 34.066216 -34.188628
1.169950 33.809277 -44.080758
8.217456 34.298862 -53.669179
6.032133 34.147049 -37.308671
8.060560 34.287962 1.146516
6.374643 34.170843 -53.461196
5.246333 34.092460 -9.006532
4.034028 34.008242 -19.849609
5.888263 34.137055 -27.132871
2.562108 33.905989 -25.904658
3.737365 33.987633 -57.606743
7.421522 34.243569 -37.522594
2.970730 33.934376 -53.245794
6.565691 34.184115 -34.087198
7.395741 34.241778 -26.124476
6.451731 34.176198 -37.643140
5.440520 34.105950 -41.262636
4.271040 34.024707 -59.378865
2.992200 33.935867 -10.234566
1.786085 33.852079 -11.679055
7.738434 34.265585 -12.135479
4.632925 34.049847 -40.422303
2.431354 33.896906 -52.046566
0.913168 33.791439 -7.619024
3.358084 33.961285 -31.075198
3.907173 33.999430 -34.781294
3.683042 33.983860 -15.503947
7.111729 34.222048 -45.309519
5.850168 34.134408 -53.863597
1.830508 33.855165 -7.987795
1.745051 33.849229 -47.109891
7.832430 34.272115 -32.443911
0.916458 33.791667 -36.615923
3.885466 33.997922 -56.466493
4.756368 34.058423 -33.462650
4.309885 34.027406 -19.674886
6.250672 34.162231 -38.983758
2.239995 33.883612 -38.492706
8.554585 34.322282 -57.684559
7.891836 34.276241 -12.278152
8.306164 34.305024 -12.857827
6.917784 34.208575 -49.326142
3.627213 33.979981 -2.968694
3.422675 33.965772 -41.440598
8.346266 34.307810 -2.247810
5.381288 34.101835 -57.378527
5.881477 34.136583 -45.730960
5.615494 34.118106 -28.205589
4.770962 34.059437 -35.192358
5.266199 34.093840 -15.602204
2.845386 33.925668 -32.711510
8.056184 34.287659 -58.731235
4.013230 34.006798 -21.529200
1.053764 33.801206 -8.188361
1.100089 33.804424 -53.800081
4.456098 34.037563 -56.566925
1.795172 33.852711 3.099450
1.527497 33.834115 -56.177476
7.062456 34.218625 -24.249997
7.789676 34.269144 -18.745512
8.053574 34.287477 -51.407360
8.572629 34.323536 2.935161
1.542358 33.835148 -6.049798
2.666479 33.913240 -31.438905
6.502146 34.179701 -33.390455
4.098006 34.012687 -37.201575
4.916595 34.069554 0.388514
4.586464 34.046620 -23.513095
1.871635 33.858022 -19.986181
8.016938 34.284932 -56.378576
7.124523 34.222937 1.311541
7.489074 34.248262 -13.633375
8.311064 34.305365 -44.297844
2.419223 33.896063 -46.606846
5.188865 34.088468 3.611626
4.299057 34.026654 -17.579376
2.652371 33.912260 -25.390671
1.850410 33.856548 -17.506940
5.588095 34.116202 -5.711796
4.683664 34.053372 -53.598327
7.127045 34.223112 -10.710851
7.631554 34.258160 -6.241961
4.151494 34.016403 -17.218944
8.257030 34.301611 -28.262609
0.995259 33.797141 -55.340256
7.351698 34.238718 -41.075322
4.862087 34.065767 -17.770871
8.317815 34.305834 -8.071975
3.211383 33.951094 -56.750936
1.192873 33.810869 -9.978257
7.967463 34.281495 -8.756897
4.484024 34.039503 -58.976976
2.557424 33.905664 -55.113200
4.928912 34.070409 -28.511799
8.205965 34.298064 -25.544724
4.685930 34.053529 -33.661653
6.488281 34.178737 -57.247248
4.961755 34.072691 -30.768452
3.817352 33.993190 -28.574989
4.047095 34.009150 -15.487134
6.620337 34.187911 -17.773959
5.317288 34.097389 -16.849373
7.481478 34.247734 -24.808218
1.127531 33.806330 0.232633
1.651453 33.842727 -29.098635
6.547259 34.182835 -31.287932
6.778342 34.198888 -13.711241
2.855134 33.926345 -24.618457
5.940035 34.140651 -50.505364
8.142343 34.293644 -12.103745
4.893355 34.067939 -57.494151
3.677329 33.983463 -46.823531
1.199619 33.811338 -3.319099
6.567681 34.184253 -15.128525
1.433216 33.827566 -52.447564
8.157650 34.294707 -20.595074
7.068422 34.219039 -17.607310
7.391541 34.241486 2.496987
7.373785 34.240253 -14.126604
2.864474 33.926994 -9.039303
4.842696 34.064420 -1.141282
8.242744 34.300619 0.718091
8.539938 34.321265 -60.308202
6.884892 34.206290 -21.154802
3.648202 33.981439 -14.161479
8.372035 34.309600 1.401923
5.262964 34.093616 -17.957252
1.575740 33.837467 -9.406676
2.125648 33.875669 -5.846356
1.627493 33.841062 -18.545625
4.371228 34.031667 -51.117252
8.233144 34.299952 -34.049467
5.279372 34.094755 -58.296027
3.144588 33.946454 -43.204755
4.728311 34.056474 -10.024195
6.799639 34.200367 -24.979048
6.658200 34.190542 -13.905435
6.602745 34.186689 -35.748236
0.978539 33.795980 -43.768274
6.575324 34.184784 -25.468374
3.304245 33.957545 -61.032435
8.458940 34.315638 -9.472671
2.113392 33.874817 -56.045300
7.824421 34.271558 -58.049219
3.261926 33.954605 -6.941431
5.025532 34.077121 -31.792038
2.908080 33.930024 -35.382289
3.459277 33.968315 -49.339452
3.537175 33.973726 -1.937238
8.028704 34.285749 -39.421687
7.632041 34.258194 -7.859609
1.799785 33.853031 -9.953622
6.971349 34.212296 -46.774551
8.560547 34.322696 -9.325750
3.681158 33.983729 1.945292
3.029841 33.938482 -32.115957
4.624000 34.049227 -9.602244
8.571431 34.323452 -34.182924
6.945505 34.210500 -37.753901
4.320307 34.028130 2.354270
4.385240 34.032641 -3.990408
1.732002 33.848322 -4.051940
6.002036 34.144958 -3.658903
7.965750 34.281376 -50.982710
7.602247 34.256124 2.009511
4.165501 34.017376 -0.148739
1.765898 33.850677 -14.708873
2.765765 33.920137 -20.357432
7.220154 34.229580 -9.410313
5.650071 34.120508 -12.789221
3.497121 33.970944 0.384787
1.984012 33.865829 -57.208749
7.464435 34.246550 -46.252025
4.313383 34.027649 -7.716411
6.856020 34.204284 -21.628068
1.088636 33.803628 -12.187116
6.709848 34.194130 -8.648323
2.594338 33.908228 -44.078594
2.502953 33.901880 3.508705
1.571717 33.837187 -26.302159
8.249133 34.301063 -14.112278
4.716433 34.055649 -38.154070
7.711186 34.263692 -55.697022
1.291300 33.817707 -53.931030
8.386961 34.310637 -28.079618
3.031897 33.938625 -16.288319
7.040069 34.217070 -1.772154
6.021643 34.146320 -34.307948
7.858319 34.273913 -14.556548
2.530266 33.903777 -17.513783
6.810384 34.201114 -43.934698
4.437727 34.036287 -55.046697
5.657808 34.121045 -39.434595
4.427481 34.035575 -55.699314
7.187212 34.227292 -0.629588
7.038184 34.216939 2.595533
5.733820 34.126326 -9.043427
4.972880 34.073464 -20.862891
1.874943 33.858252 -58.841853
2.137137 33.876467 -21.323876
1.196617 33.811130 -47.128955
1.594499 33.838770 -42.701614
7.013407 34.215218 -41.974337
3.835679 33.994463 3.123019
7.144975 34.224358 -12.959101
7.606469 34.256417 -33.137388
3.830594 33.994110 2.324478
3.664421 33.982566 -7.484733
0.913909 33.791490 -16.422923
5.137505 34.084900 3.383141
4.951619 34.071987 -33.118908
6.648070 34.189838 -36.405564
5.519723 34.111452 -0.299883
1.684183 33.845000 -15.504405
5.261335 34.093502 -61.097789
2.461115 33.898973 -35.757378
3.026633 33.938259 -8.700752
8.471532 34.316512 -41.964586
4.626623 34.049409 -53.389536
5.057456 34.079339 -4.739916
6.439808 34.175370 -27.193578
6.082013 34.150514 -7.975421
2.567086 33.906335 -60.018680
2.255261 33.884673 -58.990658
3.964171 34.003389 -30.606024
6.448155 34.175950 -29.777105
7.198558 34.228080 -8.943597
7.253327 34.231885 -11.979248
4.478740 34.039136 -4.411390
4.235038 34.022206 -35.076831
3.843371 33.994998 -7.531914
2.210599 33.881570 -51.056833
2.923140 33.931070 -45.105080
2.855999 33.926406 -8.635816
7.166961 34.225885 -2.818850
3.094107 33.942947 -7.042451
1.193985 33.810947 -47.357742
3.274006 33.955444 -54.062661
2.731787 33.917777 0.951289
5.300884 34.096250 -3.290272
8.341230 34.307460 -21.884098
3.171530 33.948325 -13.571473
6.139796 34.154528 -1.729305
6.892580 34.206824 -15.300585
5.281947 34.094934 -40.373684
2.219293 33.882174 -44.752259
7.037578 34.216897 3.556047
6.900092 34.207346 -20.298364
8.254621 34.301444 -40.586481
0.970421 33.795416 -39.171300
2.351881 33.891385 -29.431838
7.029271 34.216320 -14.395264
2.952618 33.933118 -0.643046
7.411539 34.242876 -14.837059
1.087834 33.803572 -6.619459
2.618035 33.909874 -5.581121
1.338440 33.820982 -4.406604
5.696150 34.123709 -45.684004
6.111250 34.152545 -45.638733
4.282451 34.025500 -30.793628
5.349867 34.099653 -24.519105
3.885031 33.997892 -36.234878
3.447254 33.967480 -53.148436
3.257577 33.954303 -57.293591
2.741587 33.918457 0.140901
1.870539 33.857946 -61.052019
6.711031 34.194212 -35.933645
1.870511 33.857944 2.506887
5.762467 34.128316 -59.477583
2.744102 33.918632 -60.044256
2.366317 33.892388 -11.605850
1.843310 33.856055 -19.257988
1.753288 33.849801 -6.724597
3.904903 33.999272 -47.031008
4.864069 34.065905 -37.969353
2.116997 33.875068 -47.163074
4.316515 34.027866 -58.028870
6.111467 34.152560 -21.815690
7.554449 34.252803 -23.054253
5.048210 34.078697 -26.724684
2.543531 33.904699 -10.480450
5.000127 34.075357 -16.638576
3.536712 33.973694 -14.013940
2.969653 33.934301 -27.817011
4.339124 34.029437 -46.637012
3.805855 33.992391 -0.066724
4.181912 34.018516 -22.801655
7.752858 34.266587 -3.523727
1.323437 33.819940 -11.110188
4.146126 34.016030 -43.975208
4.069870 34.010732 -7.242031
7.980749 34.282418 -34.241168
5.493391 34.109623 -50.808826
3.905779 33.999333 -19.535456
7.277316 34.233551 -7.943546
5.161595 34.086574 -28.723948
4.377771 34.032122 -28.553989
2.917748 33.930695 -1.437270
7.702164 34.263065 -44.420107
7.863706 34.274287 -2.093262
8.160525 34.294907 -2.724025
2.719539 33.916926 -37.447632
7.097809 34.221081 -35.149969
3.426308 33.966025 -31.860463
2.951814 33.933062 -2.929888
7.593743 34.255533 -49.552514
0.974612 33.795707 -1.051970
5.368183 34.100925 -39.741494
3.459822 33.968353 -2.379602
3.275933 33.955578 -44.683161
3.862022 33.996293 -50.110282
3.225406 33.952068 1.278930
7.590115 34.255281 -44.702888
6.310133 34.166362 -49.930865
3.071077 33.941347 -43.376946
5.121092 34.083760 -41.086104
5.895001 34.137523 -7.986736
1.926867 33.861859 -25.748842
2.752358 33.919206 -40.611367
0.925997 33.792330 -29.240234
8.173467 34.295806 -52.806765
2.675943 33.913897 -20.160115
6.038605 34.147499 -40.956200
6.078670 34.150282 -32.319811
6.592292 34.185963 -44.109734
1.254696 33.815164 -45.020157
2.073541 33.872049 -16.406194
5.177188 34.087657 -5.909615
7.933388 34.279128 -28.057499
2.958093 33.933498 -20.456061
2.869748 33.927361 -23.893009
2.087844 33.873042 -21.098228
2.678782 33.914094 -54.787277
7.753729 34.266647 -6.976864
2.656701 33.912560 -47.475488
4.527255 34.042506 -17.729766
6.738987 34.196154 -14.316654
3.312881 33.958145 -36.607731
1.324713 33.820028 -47.962891
2.691360 33.914968 -0.609851
2.646550 33.911855 -1.630130
5.580180 34.115652 -34.666439
1.768301 33.850844 -2.891838
7.316118 34.236247 -35.388190
2.453108 33.898417 -20.859744
8.313152 34.305510 -3.904651
1.488409 33.831400 -16.440088
8.291253 34.303989 -29.866231
8.373616 34.309710 -10.416952
7.611855 34.256791 -11.982445
6.781536 34.199110 -12.992618
6.340110 34.168444 -10.994145
4.360399 34.030915 -23.275368
1.300174 33.818324 -53.492822
4.807619 34.061983 -27.354131
4.681815 34.053244 -7.775483
3.893724 33.998496 -14.350067
6.097994 34.151625 -12.023515
6.953875 34.211082 -28.644614
6.598852 34.186419 -42.610715
2.025273 33.868696 -37.288588
7.560722 34.253239 -11.617303
3.641473 33.980972 -35.951446
7.576351 34.254325 -26.517652
8.519977 34.319878 -50.359921
6.765801 34.198017 -37.429345
5.583797 34.115904 -46.515582
6.888543 34.206543 -22.694637
6.566664 34.184183 -5.741644
5.694730 34.123610 -57.172864
0.935423 33.792985 -17.377626
5.672844 34.122090 -13.663415
3.395474 33.963882 -10.433396
8.362317 34.308925 -45.262620
6.200854 34.158770 2.455546
1.439475 33.828001 2.822116
6.075513 34.150063 -46.616824
4.884297 34.067310 -25.890068
1.236526 33.813902 -58.716261
5.230879 34.091387 -42.291978
4.193964 34.019353 -15.316129
1.150154 33.807902 -36.983050
6.821623 34.201894 -19.553757
4.286526 34.025783 -34.409912
2.975349 33.934697 -22.292749
4.014398 34.006879 -10.152509
1.476336 33.830561 -57.530728
7.136226 34.223750 -1.590999
0.937071 33.793099 -52.227864
3.441428 33.967075 -36.853587
7.411773 34.242892 -50.716829
3.751816 33.988637 -21.212658
2.853854 33.926257 -11.815162
1.803979 33.853322 -28.831023
2.348150 33.891126 -27.309899
1.732027 33.848324 -10.166137
5.502241 34.110238 -52.893804
3.744568 33.988134 -11.508437
5.952435 34.141513 -4.596800
2.726787 33.917429 -42.377868
8.563564 34.322906 -39.768857
3.439348 33.966930 -15.840101
4.392884 34.033172 -1.468570
6.611413 34.187291 -12.904080
2.847574 33.925820 -48.919047
4.370004 34.031582 -15.638753
1.120550 33.805845 -29.601209
7.026756 34.216145 -19.860232
8.347618 34.307904 -26.855837
3.405710 33.964594 -13.241972
2.229328 33.882871 -39.616716
6.661501 34.190771 -49.792478
7.352374 34.238765 -36.537967
4.969347 34.073218 -22.040778
3.658535 33.982157 -33.148270
1.905981 33.860409 -3.129642
8.344835 34.307711 -46.781402
5.086023 34.081324 -11.151871
1.645425 33.842308 -1.192581
2.835388 33.924974 -25.427702
6.330799 34.167797 -19.077713
5.158458 34.086356 -27.338614
7.449928 34.245542 -43.958468
1.736563 33.848639 -6.960946
4.687060 34.053608 -49.421981
6.980951 34.212963 -12.843583
6.525930 34.181353 -49.209314
4.171950 34.017824 -15.689391
6.722746 34.195026 -22.767646
5.360668 34.100403 -5.987825
1.819325 33.854389 -26.307060
2.164195 33.878346 -29.792974
7.670529 34.260867 -19.345195
5.048246 34.078699 -39.904110
7.790549 34.269205 -9.081752
7.278970 34.233666 -10.036213
7.897413 34.276629 -19.639835
7.175911 34.226507 -38.443173
5.723912 34.125637 -52.809997
7.374511 34.240303 -15.968460
1.517093 33.833393 -8.379834
3.573433 33.976245 -47.741627
7.551100 34.252571 -51.752805
1.827632 33.854966 -5.612736
7.027302 34.216183 -32.862988
1.771754 33.851084 -4.265494
4.974550 34.073580 -56.272991
3.740104 33.987824 -40.931522
6.852490 34.204039 -39.299328
0.912222 33.791373 -10.839825
7.253716 34.231912 -2.476181
6.574138 34.184702 -10.653644
1.593141 33.838676 -31.471142
1.674278 33.844312 -47.715202
2.275337 33.886067 -15.564078
3.791684 33.991407 -25.650131
0.938366 33.793189 -57.740049
6.552294 34.183184 -14.301505
2.886174 33.928502 -27.043370
7.916285 34.277940 -47.992860
4.432990 34.035958 -61.067576
7.736472 34.265448 -56.854214
5.879473 34.136444 -55.163469
2.402715 33.894916 -40.303371
7.125383 34.222996 -31.823163
5.531143 34.112246 -17.558934
3.512605 33.972019 2.133294
5.945163 34.141007 0.590791
7.120745 34.222674 -20.041742
5.743663 34.127009 -36.897471
5.375995 34.101468 -27.633657
6.722631 34.195018 -57.230207
4.319364 34.028064 -47.505786
5.044486 34.078438 -59.701538
2.387505 33.893860 0.821916
6.669337 34.191315 -26.551929
8.062412 34.288091 -19.066587
3.427737 33.966124 -40.428377
1.597505 33.838979 -55.284782
5.293186 34.095715 -38.955179
7.168299 34.225978 -29.615447
4.542020 34.043532 -8.856341
4.576653 34.045938 -39.228270
2.223336 33.882455 3.421415
5.161638 34.086577 -20.920381
4.609083 34.048191 -22.242059
8.420063 34.312937 -24.365618
5.737531 34.126583 -49.131306
5.294602 34.095813 -8.409490
4.424909 34.035397 -22.290562
6.662005 34.190806 -36.862923
1.339651 33.821066 -21.711430
5.283748 34.095059 -59.079437
2.900982 33.929531 -5.358269
4.539181 34.043335 -52.289367
6.487059 34.178653 -33.007748
6.786231 34.199436 -55.850030
5.284567 34.095116 -37.746344
1.263750 33.815793 -6.029537
5.557048 34.114045 -12.633443
2.314497 33.888788 -57.324169
8.291547 34.304009 -1.192274
5.822339 34.132475 -2.423094
4.647782 34.050879 -56.004377
2.607149 33.909118 -46.294998
8.535563 34.320961 -33.963725
1.714592 33.847113 -29.560177
4.135825 34.015314 -25.388096
7.827956 34.271804 -44.633461
7.004361 34.214589 -25.266506
3.308151 33.957816 -9.493391
0.909923 33.791213 -50.623550
6.245763 34.161890 -7.152226
8.325972 34.306401 -60.189094
3.013212 33.937327 -14.838090
4.779681 34.060042 -45.091532
5.995922 34.144534 -1.076759
7.991155 34.283141 -0.587745
3.636806 33.980648 -1.120557
7.317381 34.236334 -23.895203
4.161027 34.017065 -47.642858
2.009366 33.867591 -10.823413
5.996043 34.144542 -19.999517
4.024004 34.007546 2.520495
3.743500 33.988060 -58.658637
2.870613 33.927421 -14.964263
1.136216 33.806933 -40.092264
2.276464 33.886146 -23.392826
2.562787 33.906036 -58.205736
5.446928 34.106395 -47.396248
5.384617 34.102067 -0.441675
6.564939 34.184063 -47.357828
1.228379 33.813336 -58.539665
5.729665 34.126037 -42.370515
1.927469 33.861901 -23.274662
1.067544 33.802163 -2.845758
4.165891 34.017403 -23.440168
7.932648 34.279077 -59.677867
1.398434 33.825150 -28.056679
1.138791 33.807112 -33.477836
2.371646 33.892758 -15.255408
2.265392 33.885377 -9.806031
1.610403 33.839875 -12.801321
7.878176 34.275292 -40.422151
3.028870 33.938415 -8.531614
5.812637 34.131801 -7.079143
2.835738 33.924998 -19.467358
1.619590 33.840513 -58.061304
2.303592 33.888030 -10.811804
2.963768 33.933892 -42.752679
8.336493 34.307131 -20.497024
4.065330 34.010417 -23.767741
4.533157 34.042916 -5.827710
8.332976 34.306887 -47.840822
5.661698 34.121315 -46.714058
6.342891 34.168637 -58.347501
5.799598 34.130895 -5.639985
7.838277 34.272521 -33.270784
5.122436 34.083853 -47.954501
1.308899 33.818930 -25.572672
7.390922 34.241443 -11.090864
2.882218 33.928227 -16.510012
8.454473 34.315327 -37.185575
2.075409 33.872179 -2.752942
2.006078 33.867362 -15.276359
3.147681 33.946668 1.626987
5.141676 34.085190 -23.650868
6.003696 34.145074 -47.959085
3.522673 33.972719 -13.004960
7.831884 34.272077 -55.039652
1.858555 33.857114 -7.126937
1.647851 33.842476 -43.144897
8.102093 34.290848 -57.707181
8.426118 34.313358 -6.992222
6.587440 34.185626 -18.007094
4.248335 34.023130 -53.721850
6.029925 34.146896 -42.528235
7.020512 34.215711 -4.669501
4.855432 34.065305 -60.095710
2.800369 33.922541 -43.825922
7.283533 34.233983 -4.910449
3.837793 33.994610 -0.417944
7.890917 34.276178 -39.701151
3.606583 33.978548 -48.429400
7.160356 34.225426 -46.838275
5.700233 34.123992 -4.267302
2.398043 33.894592 -4.411991
4.815741 34.062547 -50.262500
1.696219 33.845836 -33.495603
8.049887 34.287221 -36.616152
1.615206 33.840209 -42.187232
7.821183 34.271333 -29.035331
7.282763 34.233930 -44.056122
3.251588 33.953887 3.786657
2.861571 33.926793 -15.698586
4.417397 34.034875 -50.329229
5.810047 34.131621 -51.473036
7.793748 34.269427 -41.959682
4.401657 34.033781 1.526769
8.144573 34.293799 -35.608368
6.801679 34.200509 -4.136116
5.149359 34.085724 -7.149030
4.566022 34.045200 -15.600517
5.198323 34.089125 -21.734586
2.782448 33.921296 -28.767202
7.880582 34.275460 -13.735197
1.502535 33.832381 -16.188430
6.163270 34.156159 -26.153434
2.803567 33.922763 -19.243625
1.411201 33.826037 -33.241901
0.953606 33.794248 -39.605350
5.814619 34.131939 -4.720219
1.825809 33.854839 -60.143289
3.811221 33.992764 -6.304871
8.578025 34.323910 -49.214771
4.895021 34.068055 -47.493638
2.414166 33.895712 -15.050592
8.108409 34.291287 -45.610783
8.089089 34.289944 -11.654801
1.838469 33.855718 -2.362583
2.892724 33.928957 -4.161197
1.678334 33.844594 -60.293664
1.443499 33.828280 -19.364133
3.428448 33.966173 -35.012057
1.460451 33.829458 -45.371024
7.354255 34.238896 -54.137904
5.166202 34.086894 -36.803257
2.027236 33.868832 -24.200603
2.349016 33.891186 -34.679211
7.993390 34.283296 -32.553228
6.438777 34.175298 -9.539293
4.031779 34.008086 -20.940907
2.646644 33.911862 -19.419062
4.190838 34.019136 3.174529
6.101025 34.151835 -17.883354
8.553559 34.322211 -60.837580
6.662640 34.190850 -32.288497
4.462363 34.037998 1.287455
7.181972 34.226928 -6.647429
7.784121 34.268759 -21.778268
5.841973 34.133839 -39.343400
8.201913 34.297782 -40.909567
3.890527 33.998273 -59.726758
5.003550 34.075594 -54.540682
5.520321 34.111494 -17.220333
4.076483 34.011192 -17.055626
6.135210 34.154210 -28.927091
7.250851 34.231713 -11.264801
1.483273 33.831043 -39.976707
1.550207 33.835693 -44.943608
8.081087 34.289389 -42.124276
1.548067 33.835544 -43.961122
5.128887 34.084301 -16.389359
1.249962 33.814835 -3.120482
1.125802 33.806210 -7.978175
7.993260 34.283287 -59.233782
8.369533 34.309427 2.348285
1.040698 33.800298 -40.295496
4.893309 34.067936 -20.705556
3.217033 33.951486 -51.280885
6.618340 34.187773 -58.936254
7.717090 34.264102 -43.974670
8.149361 34.294131 -33.094994
8.059141 34.287864 -42.430944
5.766645 34.128606 -58.375536
2.878163 33.927945 -51.509522
4.226852 34.021638 -55.742265
4.366192 34.031318 -26.091083
2.176979 33.879235 -20.309271
2.615127 33.909672 -16.168604
5.993257 34.144348 -56.041500
2.977488 33.934845 -54.575408
3.276380 33.955609 -29.093818
5.308589 34.096785 -32.543512
2.062834 33.871305 0.542930
4.127535 34.014738 -50.451713
3.382230 33.962962 -46.736340
3.812523 33.992855 -2.403383
4.573277 34.045704 -20.588640
5.324481 34.097889 -7.330582
3.294656 33.956879 -25.111702
2.845522 33.925678 -6.051888
3.263934 33.954744 -34.937190
4.228735 34.021768 -16.834175
1.390709 33.824613 -16.714944
8.486205 34.317532 -44.522936
6.788526 34.199595 -20.724225
4.024242 34.007563 -7.563387
4.855261 34.065293 -39.055136
6.670648 34.191406 -46.053916
3.977865 34.004341 -18.635825
4.355972 34.030608 -1.967592
6.560974 34.183787 -5.543267
4.933622 34.070736 -41.368207
4.887544 34.067535 -53.503678
7.410887 34.242830 -6.514420
6.165330 34.156302 -6.084503
2.559627 33.905817 -0.765491
6.700441 34.193476 -59.538557
2.873358 33.927611 -54.787622
2.956621 33.933396 -33.930462
4.824237 34.063138 -21.518180
7.383863 34.240953 -12.449775
1.450340 33.828755 -34.206851
6.085418 34.150751 -55.029102
2.173924 33.879022 -7.701437
6.926989 34.209214 -33.051900
7.800183 34.269874 -48.827403
1.393830 33.824830 -46.175067
3.248296 33.953658 -2.673675
5.757154 34.127947 -27.290030
4.414279 34.034658 -38.335426
8.558689 34.322567 -39.309868
6.773325 34.198539 -58.000085
8.567301 34.323165 -51.589544
5.356727 34.100129 -26.193452
2.607504 33.909143 -0.029652
3.345341 33.960400 -28.009929
6.326412 34.167493 -57.877584
6.090744 34.151121 -52.403243
2.846486 33.925745 -27.392510
5.218480 34.090525 -17.664873
2.279537 33.886359 -31.171737
7.899140 34.276749 -11.375495
6.062152 34.149135 -16.794052
3.935193 34.001376 -1.357598
6.552644 34.183209 -16.800617
3.007801 33.936951 -39.921262
8.440164 34.314333 1.972173
1.862456 33.857385 -39.756768
8.332589 34.306860 -5.051050
7.076442 34.219597 -13.875121
3.379054 33.962742 -51.654901
5.869504 34.135751 -50.323175
8.545431 34.321646 -48.147464
6.212568 34.159584 -0.442643
4.485484 34.039605 -26.714106
7.662678 34.260322 -3.221903
6.277304 34.164081 -24.923660
8.084064 34.289595 -52.121717
7.515840 34.250121 -49.784622
7.812469 34.270728 -37.238648
6.904299 34.207638 -33.297218
1.255779 33.815239 -19.035467
4.328298 34.028685 -44.051578
3.521590 33.972644 -9.414235
5.579006 34.115571 -60.569844
7.163427 34.225639 -24.663461
5.595807 34.116738 -25.267740
6.369486 34.170485 -0.927942
1.195706 33.811066 -55.443257
5.708183 34.124545 -58.576416
2.012184 33.867786 -60.242356
3.928540 34.000914 -7.920356
4.490621 34.039962 -16.264308
8.510372 34.319211 -24.670202
6.738066 34.196090 -60.248656
3.623993 33.979758 -5.325781
7.873228 34.274949 -13.555856
6.674937 34.191704 -2.905760
5.375994 34.101468 -53.295454
5.491488 34.109491 -36.889405
5.978116 34.143297 -36.118862
1.086367 33.803471 -11.418709
6.894298 34.206943 -51.480413
6.496019 34.179275 -50.560571
2.856811 33.926462 -14.483037
6.624998 34.188235 -31.948073
5.810741 34.131669 -43.835988
7.086740 34.220312 -19.467814
5.503163 34.110302 -4.183647
1.302209 33.818465 -9.466739
4.640750 34.050391 -13.259433
2.944990 33.932588 -47.444968
4.951102 34.071951 -16.406553
1.440725 33.828087 -34.992217
6.045333 34.147966 -17.319757
1.873607 33.858160 -46.690340
4.163780 34.017256 -51.450892
4.093411 34.012368 -35.564124
4.816061 34.062570 -19.938106
3.012386 33.937270 -40.520351
3.940976 34.001778 -58.445835
1.966853 33.864637 -29.873454
8.143564 34.293729 -19.645896
8.313175 34.305511 -51.324443
2.742707 33.918535 -54.581035
4.193158 34.019297 -42.302800
4.894538 34.068021 -42.602157
2.663443 33.913029 -50.412497
8.207504 34.298171 -32.441943
6.296967 34.165447 -30.290410
4.497999 34.040474 -60.117649
5.903476 34.138111 -41.958886
2.173930 33.879023 -0.365873
6.404189 34.172896 -60.521605
8.562321 34.322819 -31.274523
4.801169 34.061535 -32.474669
2.833942 33.924873 -31.291373
5.656779 34.120974 -11.277870
5.431400 34.105317 -29.428572
7.063864 34.218723 -51.552136
1.229173 33.813391 -50.703005
2.769860 33.920422 -49.766237
5.919351 34.139214 -10.981340
5.042944 34.078331 -59.315578
7.324928 34.236859 -15.257935
3.401497 33.964301 -17.780522
3.955541 34.002790 -16.045237
1.743392 33.849114 -44.943987
8.531630 34.320687 -26.561462
2.405752 33.895127 -43.436286
3.844662 33.995087 -4.449882
5.816399 34.132062 -49.304310
8.570019 34.323354 -60.625682
6.748368 34.196805 -22.191218
7.158799 34.225318 -37.331942
7.003730 34.214545 -38.735446
1.412469 33.826125 1.810173
8.202811 34.297845 -35.067029
4.288871 34.025946 -12.266882
1.010051 33.798169 -37.465334
5.393250 34.102666 -31.185715
1.901231 33.860079 0.973031
6.261417 34.162977 -8.735764
7.616915 34.257143 -9.209118
7.548700 34.252404 3.863441
8.447246 34.314825 -13.036306
8.228013 34.299595 -60.443329
7.529416 34.251064 -48.943297
3.564417 33.975619 -33.592431
7.056984 34.218245 -34.396862
5.562297 34.114410 -33.915837
5.223411 34.090868 -42.872679
6.019003 34.146137 -28.607034
6.348421 34.169022 -51.754546
8.224123 34.299325 -59.499992
1.784779 33.851989 -46.875071
6.318804 34.166964 -31.444280
4.832155 34.063688 -29.454166
1.077366 33.802845 -57.858550
6.172293 34.156786 -24.159222
8.260624 34.301861 -56.933083
4.734255 34.056887 -19.166910
2.372412 33.892811 -50.888096
5.696665 34.123745 -32.766863
6.467672 34.177306 -27.008282
8.518618 34.319783 -58.478680
4.678055 34.052982 -60.909916
7.362827 34.239492 -25.824582
1.731004 33.848253 -34.160162
2.438967 33.897435 -12.690602
7.256837 34.232128 -49.759084
8.249356 34.301078 -14.287198
4.204999 34.020120 -15.860644
5.418849 34.104445 -41.942115
6.313580 34.166601 -12.549382
6.276009 34.163991 -31.122778
1.146862 33.807673 -59.815837
6.013875 34.145781 -0.431766
5.939306 34.140601 -26.065513
8.518255 34.319758 -31.106665
4.153452 34.016539 -3.838453
7.228461 34.230157 0.377190
5.972990 34.142941 -51.328391
4.193936 34.019351 -5.456379
4.841692 34.064350 -26.110804
4.227056 34.021652 -8.185635
7.370541 34.240027 -19.717581
0.965183 33.795052 -38.238580
2.181689 33.879562 -11.713840
5.398699 34.103045 -56.004023
5.409112 34.103768 -48.458723
6.485193 34.178523 -36.880921
0.918016 33.791775 -40.909040
5.670997 34.121961 -23.906686
1.223926 33.813027 -60.467055
4.651957 34.051169 -24.296474
5.861070 34.135166 -38.910887
5.098995 34.082225 1.520077
6.366125 34.170251 -0.354687
2.216484 33.881979 -44.186716
5.661416 34.121296 -22.589838
2.782151 33.921275 -13.098862
1.766587 33.850725 -13.452782
3.792213 33.991444 -3.447614
4.984487 34.074270 -3.609555
4.865206 34.065984 -23.989742
4.695724 34.054210 -33.030918
8.259300 34.301769 -54.576445
4.749595 34.057952 -44.672203
5.821245 34.132399 -22.410127
4.647563 34.050864 -7.177108
8.097232 34.290510 -34.599665
5.409948 34.103827 -42.668871
7.595919 34.255684 -34.442918
2.156753 33.877829 -35.107435
2.475604 33.899980 -8.449994
1.866159 33.857642 -20.290590
7.745785 34.266095 -47.258458
8.299898 34.304589 -55.343876
8.574038 34.323633 -27.102160
5.726816 34.125839 -9.868405
5.752319 34.127611 -30.735322
2.474180 33.899881 -50.407924
7.925647 34.278590 2.533694
2.071780 33.871926 -60.740327
6.982742 34.213087 -1.296506
3.940965 34.001777 -60.867924
6.289244 34.164911 -3.406644
2.127318 33.875785 -6.570710
5.354094 34.099946 -40.970050
1.203784 33.811627 -49.015396
5.922795 34.139454 -54.969535
6.209167 34.159348 -34.739452
7.423313 34.243693 -8.112100
5.842447 34.133872 -47.193578
5.583255 34.115866 -44.519855
3.262939 33.954675 -29.455417
5.342960 34.099173 -36.566422
8.048850 34.287149 -25.390546
5.532219 34.112321 -58.552696
5.723043 34.125577 -27.924253
2.953875 33.933205 -12.993920
8.577010 34.323840 -11.051956
3.931435 34.001115 -11.484198
3.966806 34.003572 -23.386053
6.920405 34.208757 -19.300065
5.361223 34.100442 -53.718359
2.911110 33.930234 -10.723943
4.115503 34.013902 -32.895725
6.103067 34.151977 -50.945323
6.313839 34.166619 -33.477375
3.024830 33.938134 -20.964995
3.138813 33.946052 -49.688822
5.494660 34.109711 -60.095509
6.739019 34.196156 -22.552856
4.325869 34.028516 -37.233790
8.520671 34.319926 -55.966380
2.108239 33.874459 -22.717000
4.644695 34.050665 -47.124499
2.407067 33.895219 -52.659243
1.630431 33.841266 -17.452202
7.509483 34.249680 1.841995
7.659702 34.260115 -47.621294
6.860489 34.204594 -56.908559
4.345349 34.029870 -18.192406
0.965620 33.795082 -16.255363
8.319387 34.305943 -54.357556
8.571210 34.323437 -42.782639
1.158214 33.808462 -46.053307
2.972019 33.934465 1.672634
2.120937 33.875341 -29.349348
3.617279 33.979291 -5.687955
7.692296 34.262379 1.801407
7.623024 34.257567 -33.398908
1.844907 33.856166 -16.764708
4.522172 34.042153 -3.794115
7.771663 34.267893 -40.160857
4.865380 34.065996 -40.200337
7.657633 34.259972 -31.019711
8.266328 34.302257 0.896333
0.918684 33.791822 -27.395741
6.392915 34.172112 -24.775385
6.355145 34.169489 -47.820629
7.389026 34.241312 -10.591162
3.732757 33.987313 -13.039571
7.465000 34.246589 -37.025269
1.222837 33.812951 -23.838918
1.240084 33.814149 3.645779
2.275710 33.886093 -28.394126
2.466984 33.899381 -31.668382
8.226610 34.299498 -38.455781
6.061173 34.149067 -10.625620
4.165893 34.017403 -37.825637
5.342673 34.099153 -21.910292
2.644534 33.911715 -17.162226
5.943330 34.140880 -41.105778
3.663098 33.982474 -0.840817
3.800380 33.992011 -8.622445
5.590272 34.116353 -15.742260
5.368717 34.100962 3.334905
3.365084 33.961771 -56.201962
3.210268 33.951016 -7.407482
6.440167 34.175395 -31.846382
6.728442 34.195421 -35.615535
8.242405 34.300595 -43.707415
7.372016 34.240130 -26.970372
3.469033 33.968993 -57.400649
1.582125 33.837910 -46.186619
8.539268 34.321218 -12.806055
5.154337 34.086069 -4.579566
3.204359 33.950606 -1.359381
2.016446 33.868082 -29.178841
7.688948 34.262147 -30.374155
8.383955 34.310429 -46.218620
3.422079 33.965731 -47.614062
3.324696 33.958966 -45.946272
5.750511 34.127485 -39.889078
4.766385 34.059119 -38.872348
3.357279 33.961229 -5.141116
4.031689 34.008080 -40.460708
5.554572 34.113873 -5.353793
4.937338 34.070995 -19.033649
7.325454 34.236895 -54.577517
2.916561 33.930613 -29.362722
4.539772 34.043376 2.337431
6.356598 34.169590 -18.550961
6.952873 34.211012 -24.402390
3.814235 33.992973 -44.187888
7.091839 34.220666 -43.623826
3.968852 34.003715 -17.499088
1.456397 33.829176 0.516332
6.909632 34.208008 -34.772820
7.876767 34.275195 -25.928018
2.799837 33.922504 -11.037834
3.342010 33.960168 -60.826209
7.796172 34.269596 -7.659666
3.233545 33.952633 -42.976528
7.044817 34.217400 -36.874504
8.149598 34.294148 -47.085729
3.038727 33.939100 -23.024318
4.967897 34.073118 -25.484524
5.595058 34.116686 -30.573033
4.929591 34.070456 -35.493822
4.065367 34.010419 -42.706239
5.780757 34.129586 -56.222666
3.288632 33.956460 -31.689867
8.565495 34.323040 -0.840351
6.393245 34.172135 -44.128205
7.353395 34.238836 -25.466861
0.983234 33.796306 -18.168421
1.135343 33.806873 -46.922657
1.897311 33.859806 -45.945352
2.181485 33.879548 -54.507659
8.485334 34.317471 -25.888753
7.014770 34.215312 -54.570377
1.303523 33.818556 -26.335579
1.058555 33.801538 -17.223673
5.195955 34.088961 -28.277776
4.388736 34.032884 -51.929283
8.358786 34.308680 -16.651629
6.151913 34.155370 -61.119921
2.797495 33.922341 -13.489012
1.952705 33.863654 -52.776040
5.838864 34.133623 -43.201439
2.099140 33.873827 -15.592492
7.796431 34.269614 -56.424330
6.218010 34.159962 -44.629613
4.020485 34.007302 -39.211728
5.550858 34.113615 -32.672782
1.864009 33.857493 -51.875997
7.248729 34.231565 -27.313654
3.316999 33.958431 -58.608345
6.254566 34.162501 -26.908912
3.081570 33.942076 -16.477835
6.374531 34.170835 -6.079441
2.318950 33.889097 -23.951208
3.373073 33.962326 -24.226571
7.430271 34.244177 -32.663840
2.824149 33.924193 -47.797370
1.933372 33.862311 -11.867606
1.867734 33.857752 -55.524268
5.959034 34.141971 -40.303392
7.023018 34.215885 -43.828438
1.393039 33.824775 -1.049359
0.931572 33.792717 -27.622531
8.271957 34.302648 -23.548836
1.546506 33.835436 -37.659251
6.309382 34.166309 -48.631871
7.123689 34.222879 -42.699365
1.548054 33.835544 -33.103081
6.193807 34.158281 -44.435041
3.839308 33.994715 3.356289
2.212678 33.881715 -12.353073
8.467260 34.316216 -45.625910
8.518312 34.319762 -15.207339
8.338692 34.307284 -19.061953
8.277506 34.303034 -29.274029
5.038529 34.078024 -21.076792
5.558461 34.114144 -9.170235
7.751928 34.266522 -60.972170
8.332077 34.306825 -45.853100
3.298204 33.957125 -25.475751
5.072118 34.080358 -9.813152
5.228075 34.091192 -16.643778
1.229070 33.813384 -59.160861
4.364875 34.031226 -27.106660
7.492698 34.248514 -8.593412
1.742902 33.849080 -53.699521
8.542536 34.321445 -49.753833
7.795039 34.269517 -57.343585
8.029847 34.285829 -47.282039
5.332147 34.098422 -14.021151
7.003840 34.214553 -13.420397
3.055647 33.940275 -15.037502
1.453693 33.828988 -49.727279
4.797631 34.061289 -53.296820
2.685518 33.914562 -9.196575
1.450859 33.828792 -37.510473
3.433737 33.966541 -51.240624
4.226460 34.021610 -29.519808
5.320290 34.097598 -40.716223
3.975724 34.004192 -33.413091
2.725638 33.917349 -3.298016
4.281779 34.025453 -12.033043
8.283641 34.303460 -45.539956
2.746801 33.918820 2.437390
8.103267 34.290929 -29.258302
5.330755 34.098325 -24.299056
3.394485 33.963814 -54.672325
1.254839 33.815174 -27.226878
7.217123 34.229370 -22.813089
2.138914 33.876590 -46.516101
7.010861 34.215041 -37.143556
6.847519 34.203693 -18.922037
4.105237 34.013189 -61.119212
2.098872 33.873808 -32.719937
3.227012 33.952180 -28.877493
3.767260 33.989710 -48.536792
1.540256 33.835002 -34.414746
7.638905 34.258670 -47.390576
7.126337 34.223063 -34.571389
3.671795 33.983078 -31.170014
4.752300 34.058140 0.850830
3.184307 33.949213 -52.056356
3.783052 33.990807 -30.060587
5.744672 34.127079 -7.868475
5.585903 34.116050 -47.864981
6.866199 34.204991 2.980556
4.048563 34.009252 -56.570228
2.367633 33.892479 -41.186371
6.256098 34.162608 -40.527414
1.265674 33.815927 -40.477265
2.521971 33.903201 -61.073266
1.417557 33.826478 -10.098817
7.733087 34.265213 -23.005724
6.482026 34.178303 -43.881786
3.413205 33.965114 -50.718544
3.343174 33.960249 -9.000805
3.821233 33.993460 -37.835936
4.792493 34.060932 -17.132064
5.049168 34.078763 -15.508094
6.402510 34.172779 -59.626183
3.082621 33.942149 -31.750555
7.976867 34.282148 -57.869568
7.380974 34.240752 -6.336128
7.507552 34.249545 0.704518
2.784451 33.921435 -33.881865
3.100178 33.943368 0.257180
4.004102 34.006163 -11.069759
3.744676 33.988141 -19.720281
4.847817 34.064776 -44.886430
1.026380 33.799303 -27.914281
8.471989 34.316544 -40.572242
2.791421 33.921919 -50.616175
8.319394 34.305944 0.474882
4.179295 34.018334 -20.664428
6.598399 34.186387 -16.475960
2.946347 33.932682 -32.369628
4.969261 34.073212 -21.632751
1.675852 33.844422 -40.374226
1.946058 33.863193 -12.096322
5.868062 34.135651 -0.552232
3.798917 33.991909 -22.788115
1.327003 33.820187 -30.400093
1.048312 33.800827 -41.439490
1.692606 33.845586 -51.959954
1.044601 33.800569 -60.339299
8.507433 34.319006 -47.406023
3.537959 33.973781 -18.552242
1.907175 33.860491 -53.543370
6.909128 34.207973 -27.677874
2.724118 33.917244 -30.806069
6.824048 34.202063 -40.225721
3.009723 33.937085 -2.368681
2.828432 33.924490 -54.381166
5.297675 34.096027 -17.478881
1.845124 33.856181 -37.402481
8.236992 34.300219 -25.126121
0.943689 33.793559 -37.040627
2.086645 33.872959 -55.669270
4.621331 34.049042 -13.050974
4.988903 34.074577 -10.996876
6.988251 34.213470 -18.725908
7.271137 34.233122 2.249292
3.596082 33.977819 -36.219249
6.071319 34.149771 -26.899853
7.543226 34.252024 -20.988915
1.330592 33.820437 -0.335118
1.676426 33.844461 -26.049137
3.397144 33.963998 -20.243389
3.877387 33.997361 -10.328687
2.041928 33.869853 -22.949878
4.865773 34.066023 -31.323410
0.983341 33.796313 -59.081843
8.337289 34.307187 -42.438978
5.523064 34.111685 -26.411247
3.180883 33.948975 -54.686747
5.735611 34.126450 -8.255932
3.437451 33.966799 -7.108796
2.508891 33.902292 -11.748391
2.012380 33.867800 -3.643951
5.755259 34.127815 -41.189598
2.605954 33.909035 -27.918168
8.571005 34.323423 -50.740154
6.109829 34.152447 0.163090
6.804616 34.200713 -7.197133
8.053002 34.287437 3.627777
4.104374 34.013129 -23.102274
3.784041 33.990876 -28.364756
5.158272 34.086343 -32.738346
3.790128 33.991299 -15.791786
3.956226 34.002838 -28.461618
6.338401 34.168325 -5.901428
5.487104 34.109186 -22.092766
2.818924 33.923830 -3.885037
1.302230 33.818466 -32.351618
1.455118 33.829087 -27.101617
1.253721 33.815096 -44.832358
2.436210 33.897243 -48.144973
2.026175 33.868758 -8.617228
3.036429 33.938940 -40.276778
6.991786 34.213716 -17.111596
8.117189 34.291897 -36.844057
1.515004 33.833248 -33.593055
4.555992 34.044503 -2.434869
4.850110 34.064935 -37.150354
7.693269 34.262447 -43.302105
1.560011 33.836374 -18.864764
3.401150 33.964277 -6.786366
5.413145 34.104049 -15.202635
8.191922 34.297088 -37.991209
4.280937 34.025395 -50.180499
5.085965 34.081320 -58.194514
5.842678 34.133888 -35.525136
6.382010 34.171355 -26.684438
8.238920 34.300353 -20.016914
1.071632 33.802447 -43.271904
1.154161 33.808180 -32.730129
4.982267 34.074116 -42.756085
6.708092 34.194008 -6.058215
7.399387 34.242031 -57.520541
5.017385 34.076555 -50.925410
8.226524 34.299492 -32.885201
4.222908 34.021364 -29.345933
4.420852 34.035115 -15.866419
6.750840 34.196977 -21.801404
5.229962 34.091323 -35.198892
4.592329 34.047027 -48.991850
4.312219 34.027568 -10.530618
4.320041 34.028111 -1.769200
3.063044 33.940789 -36.522103
6.227043 34.160589 -23.709601
7.741211 34.265778 -18.126056
1.027070 33.799351 -32.359383
4.315222 34.027777 -8.496124
1.108609 33.805016 -56.086939
7.057726 34.218296 -34.894176
3.354733 33.961052 -1.539237
3.180024 33.948915 -20.264664
3.064630 33.940899 -46.898913
3.827118 33.993868 -42.224955
7.518616 34.250314 -22.465617
4.935915 34.070896 -60.747148
8.048016 34.287091 -15.586439
