1.518707 33.833505 -17.032625
-21.433739 9.279814 -58.048195
-16.043335 -10.757101 -4.088680
-13.351105 -13.890643 -11.900502
8.191221 -21.913007 -42.281620
16.885324 -20.291936 -7.476405
-20.304510 14.598077 -9.602724
13.354977 -21.391542 -33.169689
-6.222981 -19.089741 -43.127889
10.306569 -21.780100 -44.543248
23.384464 28.938462 -32.687085
-15.468597 23.712434 -19.693274
34.905942 4.281447 -54.883999
9.163080 34.286038 -21.637500
-16.223719 22.703454 -11.293673
11.001091 34.066884 0.811585
33.828936 14.081172 -8.157066
-15.112295 -11.939993 -9.136437
5.441887 -22.085747 -11.651521
-18.532099 18.946327 3.366172
-21.224306 3.867470 -60.136766
2.222741 33.882414 -38.420004
24.294904 -16.049398 -9.630604
20.043715 31.044830 -33.053816
33.220807 -3.750944 -17.480663
6.340719 -22.029273 -8.840433
-2.866694 32.740758 -55.625376
22.048241 -17.664027 -52.592319
-17.665577 20.522411 -60.794091
13.766047 -21.282977 -59.272401
27.579739 -12.987067 1.857832
12.734520 -21.541475 1.272570
27.738894 25.004979 -40.463329
-12.007502 27.349757 -60.333009
-18.012565 -7.709273 -21.442558
-19.992381 15.537353 3.251657
16.621931 -20.394186 -4.758096
15.266516 33.061548 -0.107310
16.093424 -20.599203 -56.689461
-21.389457 9.612503 -21.689111
-18.483636 19.047557 -47.706593
-4.897847 31.914021 -16.203325
18.723718 31.703799 -12.119059
-9.229692 -17.304514 -28.695403
-1.208162 33.265636 -5.898570
7.024784 -21.986294 -5.556071
-13.978587 -13.227810 -29.040011
34.814889 5.730736 -48.426122
-6.977063 -18.677442 -30.455948
-14.337099 25.049618 -57.358406
10.722798 -21.753948 -58.622153
9.731100 34.235956 -26.650980
5.249599 34.092687 -44.343694
28.393751 24.247033 -48.039413
-21.514159 7.657077 -11.148783
31.681363 -7.170423 -36.141922
-15.453388 -11.522031 -23.544994
30.041789 -9.889298 -51.175370
23.216177 -16.863011 -5.608698
15.827499 32.875128 -48.429137
34.601675 9.124446 -58.970111
31.880799 18.987606 -50.791578
12.138929 33.863647 -14.454106
30.704883 21.050977 -22.652928
-14.200541 25.193104 -2.920021
-20.720516 13.083271 -2.397859
34.560371 1.213324 -12.061492
-2.388022 -20.700510 -9.058755
32.886383 16.787218 0.871554
34.172674 -0.564298 -58.008268
-11.206125 -15.822347 -11.587441
32.735195 -4.953931 -45.278630
18.486918 31.817164 -29.261898
29.837685 -10.176256 -6.218331
32.644286 -5.179136 -22.804433
26.733377 -13.876344 -9.467281
19.143175 -19.312291 -54.939322
-21.433736 6.605606 -58.873294
-15.907044 -10.947350 -53.558802
34.021685 13.351391 1.531407
-7.841473 30.384053 -37.064082
-13.071642 -14.156613 -8.909735
22.574106 -17.322965 -46.227603
-8.066848 -18.053395 -45.801959
-14.316435 -12.863185 0.831174
-21.456218 6.899543 -53.920333
23.705192 -16.512700 -60.210349
3.434067 33.966564 -7.938368
-19.642075 -4.263609 -52.300936
30.815678 20.873793 -42.668351
30.099180 -9.800182 -2.191482
-16.764766 21.940811 -35.365126
-19.710464 16.293646 -24.288110
-0.434154 -21.273214 -47.567964
-12.872590 26.548200 -9.283490
22.887509 29.304631 -15.119837
21.408249 -18.064211 -48.684777
15.672311 -20.738590 -40.280128
10.586707 34.122069 -60.345563
34.442132 11.541553 -51.615200
33.443780 15.324144 -40.084709
-19.762780 16.164052 -27.174458
27.933618 24.794817 -10.390260
-1.337954 -21.045042 -2.016395
21.683571 30.092517 -6.770120
17.236339 -20.155671 -26.989424
23.522151 28.837010 -1.251045
-21.428940 6.542904 -21.908558
-13.571027 -13.667672 -60.360525
-12.192222 27.178603 -33.224476
21.787064 -17.827340 -33.333500
-11.032786 -15.967704 -8.377979
0.390026 33.687751 -35.848502
16.855759 32.504602 -41.550270
-5.150007 -19.603465 0.266864
12.429206 33.815911 -29.129419
-7.285818 30.708339 -51.076836
33.864580 -1.784689 -3.550483
12.249539 -21.634664 -51.735424
34.829005 3.100095 -20.883480
34.433211 11.587982 -7.006269
27.775078 -12.781823 -18.424018
26.202533 -14.388800 -34.051936
-3.203837 -20.420627 -39.267867
2.701448 33.915669 -43.824295
34.596673 9.204064 -5.435920
-11.090994 -15.918892 -50.831636
28.924833 -11.413334 0.125986
-14.806641 -12.314529 -6.060868
34.610707 8.980697 -46.936931
-21.538596 8.010714 -0.205870
-20.603300 13.547575 -19.122686
-20.932682 0.054701 -36.425110
5.245494 34.092402 -37.063770
19.442423 31.359728 -8.905352
-3.310006 -20.377770 -36.455384
-13.772915 -13.449783 -54.086076
-21.356518 5.596044 -1.828160
15.075593 33.124993 -12.948027
-7.095667 -18.611206 -48.377343
34.463450 11.324577 -37.164218
-21.435483 6.628448 -49.399885
-11.220378 -15.810395 -16.603701
9.163259 -21.851934 -35.871750
33.930963 -1.521740 -34.091062
34.902559 4.335289 -40.458005
17.374496 32.295202 -56.319926
23.873004 28.578492 -28.403842
-9.681129 -16.985972 -48.492288
-2.505038 -20.661624 3.682573
32.155193 -6.222312 -1.851703
-18.179259 19.602622 -35.414333
21.540548 30.184625 -30.968475
-20.653845 -1.142233 -56.114883
21.514058 -17.998049 -2.707076
-13.577502 25.847751 -31.081298
-10.230253 -16.581372 -37.322374
-4.444597 32.123618 -28.339562
-15.902700 23.139157 -39.116017
-13.412100 26.021544 -35.829863
4.317179 34.027913 -41.314950
0.953507 -21.620455 2.676466
34.815628 5.718976 0.391247
33.638578 -2.511713 -42.839456
-19.058508 17.846774 -5.430880
11.660568 33.955818 -36.585156
32.879479 -4.596503 -51.722725
0.677835 33.746851 -30.988061
27.444086 -13.129599 -2.952701
2.612121 -21.901751 -13.662549
-1.718810 33.128793 -26.792564
34.889393 4.544860 -44.656789
33.404822 -3.215105 -58.771185
34.657835 1.814196 3.555638
26.337022 26.454483 -19.189697
-5.542325 -19.415629 -50.864398
30.398299 21.541269 -38.278903
23.113349 29.138226 -61.040711
-20.453704 14.140140 -33.906017
-13.537133 -13.704252 -25.407106
-7.594796 -18.332459 -55.624985
28.228125 24.449984 -17.670815
-15.505004 23.669019 2.201302
30.583627 21.244890 -60.288580
-21.458824 6.933614 -37.365003
-4.051299 -20.078537 -3.118351
25.303268 27.410767 -23.417947
19.481723 -19.146777 -32.253942
25.929557 26.842265 -52.235613
-5.169616 -19.594077 -56.001554
8.536309 -21.891325 0.136996
-19.212182 -5.306579 -32.540345
23.625443 28.760902 -11.981451
28.836335 -11.518869 -60.740738
15.863368 -20.675351 -15.353122
-11.859808 27.483035 -12.097781
32.500092 -5.501891 -38.210906
34.687904 7.751953 -21.918044
22.090512 -17.637595 -42.295603
2.310109 -21.861534 -26.518234
28.155957 24.538416 -0.066900
33.762157 -2.139855 -55.502048
31.707944 19.307062 -11.148484
29.201187 -11.040118 2.955380
3.389694 -22.005268 3.512062
-18.308066 -7.163152 -37.743593
29.730640 -10.321539 -17.519625
18.704270 31.713110 3.625597
-18.377533 19.247596 -39.711314
20.683670 30.687411 -50.448480
-6.668513 31.042370 -41.672052
30.711211 -8.849828 -39.262252
21.943893 29.924867 -41.889187
10.913385 -21.741974 -4.662329
-5.908705 31.446568 -0.546354
-0.755423 33.385214 -23.969536
21.230613 30.381940 -24.492218
32.948295 -4.426028 -31.603863
-3.961764 32.315640 1.382119
6.168029 34.156490 -11.567033
16.354262 -20.498096 -12.066170
-0.421855 -21.276319 -12.463507
2.304462 -21.860782 -52.686085
-9.148806 29.559293 2.239011
13.885022 -21.251556 -13.095486
20.765206 -18.452269 0.523730
24.711649 27.906879 -36.552963
-20.325447 -2.363504 -8.978833
-1.730119 -20.919140 1.178079
-5.613648 -19.381481 -24.488653
19.748726 -19.002299 -51.423183
-21.524980 7.798558 -46.793335
-19.023609 -5.714364 -29.698282
-6.671454 -18.848114 -21.877855
25.799762 26.965791 -40.118619
-20.188109 14.948358 -5.256170
15.628244 -20.753176 -1.364852
-20.977137 0.635915 -46.755865
-11.913716 27.436655 -38.198156
-14.208624 25.184611 -6.791858
-20.923884 -0.060328 -39.446768
4.513263 34.041534 -60.237345
-3.594320 -20.263003 -33.638129
7.103733 34.221492 -25.902256
-14.708209 24.619180 -28.732704
13.613734 -21.323203 -46.863630
34.755176 2.545422 -33.857338
30.143206 21.936972 -12.592383
7.921320 34.278290 -35.815500
1.612568 -21.739097 -61.076929
18.486422 31.817402 -22.966642
-9.988509 28.957763 -36.066381
25.697420 27.063189 -2.825164
0.458962 33.704788 -41.778696
-16.946358 -9.473417 -11.811109
-7.591012 30.540666 -15.246645
-12.943346 26.482640 -24.777337
-13.227963 -14.007839 3.578897
-5.971936 -19.209938 -15.168656
23.731991 28.682394 -58.460391
-18.801173 18.384291 -50.698040
31.907875 -6.738906 -30.699725
9.463860 34.266504 -32.740237
-21.470134 9.006379 -50.839326
33.665018 14.655685 -11.159971
33.447997 -3.085190 -47.024900
0.333123 33.672722 -50.872330
-17.082381 21.447637 -21.247126
-19.171734 -5.394046 -0.044746
-19.976304 -3.402646 -49.401442
18.694194 31.717934 -60.868195
-8.315465 30.087668 -1.377988
-14.090082 25.309167 -44.281174
-18.972477 18.026473 -32.843933
-5.866990 31.465859 -34.258994
26.593065 26.210808 -8.316299
-20.266648 14.712013 -45.358327
13.806728 -21.272233 -18.059905
-7.641992 -18.306101 -8.342832
28.954399 23.560036 -56.343301
14.351115 -21.128460 -6.538207
23.716414 -16.504661 -21.870885
-21.270535 10.505842 -37.645380
23.054387 -16.978911 -38.258736
-8.832685 29.764252 -7.150309
-6.874856 30.930715 -26.866369
-21.155632 2.969610 -10.385801
3.907482 33.999451 -27.101737
8.367636 34.309295 -43.598753
-7.772756 30.427022 -21.580696
18.058604 32.019047 -6.247974
17.705567 -19.973515 -42.230740
8.663906 34.318457 -49.649085
-21.517995 8.327882 -27.400494
-16.704849 22.033846 -29.485012
17.380943 -20.099535 -18.739010
24.290629 28.259932 -54.212386
27.620915 25.132313 -21.835056
21.641319 -17.918473 -30.241133
-14.245003 -12.940279 -21.078414
33.624960 14.776717 -3.717873
25.742400 27.020382 -33.131415
10.145735 -21.790205 3.795398
14.250702 33.358107 -23.310778
34.084631 -0.913046 -45.304647
33.110358 16.210292 -22.573651
-14.845193 24.455830 -14.354103
34.555299 9.862618 -42.671898
23.788257 -16.453195 -35.265842
-17.010507 -9.370830 -47.062452
33.478823 15.218263 -35.330628
34.879213 4.706890 3.310794
-8.396288 -17.841233 -11.379545
34.736512 6.978262 -41.626867
11.962522 -21.676057 -36.792640
-17.969574 -7.788724 -27.692383
1.549247 -21.726581 -57.185617
3.156597 -21.974241 -34.338910
30.257314 21.766734 -16.809547
24.402526 28.166099 1.872941
-21.031530 1.347069 -43.630413
19.666026 31.252681 -40.706842
7.729550 -21.942013 -13.911517
-17.208444 -9.054286 -51.565458
4.653821 -22.117620 -56.748409
-11.841607 27.497889 1.679782
27.890379 24.841484 -51.314085
-12.208724 -14.977867 -57.136473
25.765396 26.998496 -61.028576
19.605975 31.281429 -57.606152
28.743639 23.818294 -26.149084
-21.481882 8.883880 -7.357966
-3.198552 32.611927 -18.622633
-18.406042 19.196549 -22.822147
-9.492506 -17.124952 -34.449065
14.045776 33.409842 -60.646753
34.505704 10.652017 -31.211902
-16.551785 22.258186 0.022556
6.840155 34.203182 -22.738423
-8.067786 30.242541 -18.007535
3.098758 33.943270 -49.573180
6.280044 -22.033085 -20.074171
34.547024 9.994330 -25.520389
-14.003652 25.399982 -41.055235
-3.268359 32.584827 -45.428783
4.302524 -22.094802 -6.314688
-19.643171 -4.260786 3.057448
0.560564 -21.524339 -39.965640
17.307017 32.322442 -37.987996
-17.699590 20.461509 -1.477659
28.608492 -11.790574 -28.408168
-21.412030 6.321824 -13.605583
15.191850 -20.897621 -9.470315
-20.934136 0.073719 -53.323834
30.920698 -8.524539 2.904556
17.522439 -20.044606 -35.052705
-6.257732 -19.073103 -61.058203
7.764477 -21.939819 -17.698956
12.825977 33.717795 3.738175
-20.569407 -1.461940 3.474232
33.748780 14.384655 -13.918533
21.950545 29.920584 -56.618046
-4.069855 32.273678 -50.705135
-20.620285 13.480298 -40.568539
3.656215 33.981996 -21.078874
-9.916453 29.009381 -13.296954
32.388583 17.924656 -36.357919
-19.600989 16.564832 -43.386763
31.960746 -6.628468 -6.222548
-0.206797 33.530118 -45.177134
34.150096 -0.653732 -40.487419
3.465945 33.968778 -29.783759
26.964225 25.841068 -56.672298
-6.771525 30.986629 -60.620651
7.052520 34.217935 -28.548197
-7.496439 -18.387388 -33.231554
-10.336870 -16.502815 2.896101
32.353981 17.999481 -33.393451
33.490401 15.183282 -51.979295
34.650075 1.755905 -0.738309
-20.364132 -2.239161 -26.588679
21.335619 30.316601 -17.385200
34.005852 13.411337 -21.108401
-20.773908 12.871784 -47.732773
18.239653 -19.730116 -21.773980
32.689660 -5.066734 -56.212337
-21.040593 1.465559 -24.636048
21.533464 -17.985915 -10.489805
21.472237 -18.024200 -56.277838
14.371442 33.327624 -57.939395
-20.613116 -1.296445 -24.025483
-13.251766 -13.985186 -49.479758
-13.884267 -13.329606 -38.711321
-5.642776 31.569542 -10.231585
28.062690 -12.441449 -15.671616
-7.008405 30.858450 -55.827497
1.048509 33.800841 -27.031817
27.548897 -13.019473 -12.889539
-17.479840 20.830488 -18.643144
30.187715 21.874843 -50.015943
-20.309446 -2.411847 -40.929072
1.808172 -21.777762 -1.218775
8.645517 34.319651 -18.055601
34.650538 1.759380 -39.066693
-10.796456 28.350845 -22.173390
-0.586618 -21.234723 -15.291425
-1.617722 -20.956492 -41.867315
-19.449257 -4.760301 -39.006570
-13.867397 25.543148 -11.533731
30.706228 21.048826 -57.037325
11.958920 -21.676283 -27.519829
-2.986933 32.694080 -35.694579
23.601504 28.778540 -20.252574
11.974858 33.893688 -42.475240
34.198474 -0.462103 -52.367756
-20.927221 -0.016692 -60.998303
-0.902386 -21.155005 -30.856112
11.110102 34.052367 -3.467329
-19.627033 -4.302356 -36.261381
11.236140 34.035582 -24.215967
19.059139 -19.351153 -28.734701
-16.569318 22.234389 -14.298824
-9.262533 29.477824 -52.779347
18.095227 -19.796904 -0.103216
-20.723507 -0.878476 -50.784160
-3.922446 32.330904 -60.906466
-21.385885 5.979995 -43.082864
26.000047 -14.576415 -56.334680
-20.423147 -2.015717 -34.250596
14.158231 33.381452 -10.147095
-5.261547 31.745835 -23.873331
-17.790616 20.298520 -12.264798
-9.728585 29.143962 -4.044552
-21.348450 5.490562 -19.349140
-17.169215 -9.117022 -58.166942
33.244604 -3.691994 -0.215410
28.895060 -11.448839 -21.115031
34.122241 12.970670 -53.850480
34.518367 10.450455 -22.698746
7.407647 -21.962238 -47.513697
-10.057967 -16.708314 -0.244756
3.205279 -21.980721 -40.965093
2.386231 33.893771 -0.143928
9.654727 34.246121 -40.822731
1.855658 33.856913 -5.152367
34.125165 -0.752488 -22.480482
-21.205584 3.622697 -41.541847
20.529773 -18.579664 -22.078950
28.689956 -11.693427 -43.454948
31.297044 -7.858553 -52.571398
6.083358 34.150608 -51.185781
23.350022 -16.767130 -26.632328
23.859184 -16.402386 -1.282187
28.584335 -11.819381 -34.297701
34.356152 11.989031 -58.558714
-21.175004 3.222880 -57.416242
-12.846597 -14.370792 -41.751613
-10.363049 -16.483527 -4.510723
-21.327675 5.218936 -45.640361
5.558264 -22.078435 -31.811169
-16.004434 -10.811403 -38.439995
8.649681 34.319381 -52.287810
6.328937 -22.030013 -34.704510
33.050225 -4.173520 2.883222
-0.999903 -21.130386 -5.316223
17.208118 32.362364 -34.021486
-9.074613 -17.404386 -14.101541
3.229366 33.952343 -56.413024
-16.223655 -10.505392 -0.458282
6.747361 -22.003724 2.622262
13.178059 33.628908 -32.589342
29.188773 -11.056967 -46.581918
34.454407 11.468506 -2.761181
-11.954312 27.399041 -6.298403
7.704347 -21.943597 -57.573413
-21.104584 2.302196 -50.355393
-21.175845 11.052664 -14.050405
-20.407653 -2.074380 -19.982730
-14.719613 24.605582 -46.939795
16.407933 32.682245 2.809310
-18.286628 19.410370 -57.916714
19.213812 -19.279626 -45.682897
30.742288 -8.801572 -45.380816
20.627611 30.718720 -21.417891
-9.932858 -16.800496 -54.283377
-2.487416 32.874395 -2.614588
6.976507 -21.989327 -44.860425
2.816516 33.923663 -13.741773
34.557850 1.200573 -54.346380
16.844228 -20.307890 -51.548345
-21.201326 10.923761 -0.465439
29.277414 -10.936662 -55.065969
13.761515 33.481608 -26.030332
25.579252 27.175648 -30.040472
-21.153727 11.164556 -17.969937
22.870333 -17.110760 -13.022090
8.925571 -21.866868 -10.215737
8.028377 34.285727 -14.562267
-21.093231 2.153757 -20.141571
27.047474 25.751219 -14.855842
-9.882505 -16.837596 -23.252800
-0.380534 33.484230 0.207408
-12.168762 27.200340 -3.710545
20.811286 30.616137 -37.996691
-21.512350 8.414791 -32.793605
34.637625 1.662386 -48.984273
34.317229 0.008300 -8.808997
-12.108340 27.256324 -51.232933
-19.680739 16.367280 -18.359455
8.563002 -21.889648 -60.453107
15.088692 -20.931765 -36.780682
33.766834 14.316301 -1.074771
-3.806777 -20.177241 -26.452770
34.629321 1.600016 -14.862284
-2.678566 32.811127 -31.846752
14.553403 33.281686 -54.904967
8.437966 -21.897504 -39.180862
25.501396 27.244623 -44.839207
6.894592 34.206964 -54.370335
-20.805168 12.747959 -59.927207
-11.307317 27.933927 -28.124297
-19.027939 17.910626 -15.233586
5.476369 -22.083580 -37.713212
13.203465 -21.431556 -39.251314
-21.535884 8.052462 -24.206745
17.192472 32.368681 -2.496287
-13.708084 25.710545 -19.676878
-17.480653 -8.618967 -35.731000
34.899288 4.387363 -60.893068
14.640302 33.259747 -51.450680
2.751785 33.919166 3.850549
16.510608 32.643930 -27.368303
4.052459 34.009523 -3.210615
3.168272 -21.975794 -44.044874
18.530632 -19.595556 2.847916
32.299234 -5.921440 -59.666134
-19.806249 16.056373 -21.448000
11.487389 33.990053 -50.932850
-19.789973 -3.882628 -55.246800
9.642987 34.247684 -5.928745
5.010996 -22.112819 -60.242198
29.371901 -10.808424 -37.512730
33.462908 -3.040322 -39.482480
-20.251227 14.758419 -15.811656
28.936235 -11.399714 -40.138398
-11.012105 28.174853 -18.963988
25.192231 -15.317083 -4.232921
-17.785319 -8.129248 -2.147167
-0.423928 33.472769 -12.155264
-19.849750 -3.728644 -11.564658
-12.559414 -14.644109 -35.690240
-8.493528 29.976326 -34.045255
-0.771093 33.381076 -38.650349
-21.247884 4.175738 -23.687683
23.469326 -16.681665 -17.655038
-21.505690 8.517335 -3.412584
-14.379914 -12.794675 -57.498918
4.362223 -22.098680 -28.678850
34.611474 8.968487 -53.055114
-11.781436 -15.339911 -32.593210
-12.608496 26.792899 -0.982836
27.558141 25.200064 -32.315186
26.652853 26.153908 3.803336
-11.405268 -15.655353 -19.572639
27.531765 25.228531 -44.965763
34.350251 12.019744 -15.714393
-3.236098 -20.407604 -45.617166
-21.283186 10.410814 -46.218102
-4.049055 -20.079443 -20.495122
12.026157 -21.672059 -23.119279
33.913618 -1.590443 -49.652629
27.220557 -13.364462 -46.463653
2.129212 33.875916 -53.160237
34.752297 6.727013 -8.380923
-1.020687 -21.125139 -57.724139
28.227360 24.450922 -29.325371
-19.924236 -3.536771 -60.551830
-0.061028 33.568618 -20.667298
-20.992277 0.833862 -14.146045
-15.832401 -11.051545 -61.061808
24.168262 -16.152752 -32.556201
9.862704 34.218440 -55.192267
33.574954 14.927807 -59.788443
34.350256 0.139121 -5.529412
-5.154437 -19.601344 3.699245
32.357781 17.991263 -20.190165
-15.381834 -11.609711 -41.720047
-12.888378 -14.331028 -46.402506
17.290774 -20.134539 -48.567069
-21.087956 2.084793 -29.856677
15.692093 -20.732042 2.342690
34.556322 9.846331 -28.741044
31.941530 -6.668608 -41.276597
13.284360 -21.410192 -3.047265
-18.011103 -7.711974 1.154967
-17.226282 -9.025759 -8.508108
28.019333 24.702306 -5.518589
-19.021753 17.923546 -54.060965
-7.142115 30.786098 -29.701838
-16.428145 -10.219942 -14.706775
34.744616 2.466083 -30.454977
21.758407 30.044322 -46.057039
-18.628411 -6.568973 -57.691894
-18.203014 -7.357302 -24.074661
31.803479 -6.951771 -25.404401
34.311306 12.222430 -33.490987
7.307546 -21.968528 -22.609151
-20.486215 14.011362 -12.121762
29.570357 22.736614 -7.252596
34.067408 -0.981267 3.582930
27.684774 25.063391 -37.520447
-21.194113 3.472717 -48.059624
31.933987 18.889310 -24.601985
26.644970 -13.969234 -28.246419
-17.201592 -9.065244 -40.276145
28.029896 24.690905 -60.696561
10.797887 -21.749230 -12.556873
15.190278 -20.898141 -20.944046
0.712898 -21.562798 -50.235827
-16.231877 -10.493914 -27.630991
-20.931774 0.042833 -10.816868
32.518767 17.643136 -14.271978
-1.155139 -21.091195 -34.656047
-2.550808 32.853413 -22.033140
-20.795322 12.786958 -22.778715
-3.204304 32.609694 -48.139769
4.029830 -22.077090 0.531630
-19.563284 16.658235 -3.060905
32.299513 -5.920859 -15.743603
11.827831 33.922753 -57.433154
23.044589 29.188890 -22.845863
-19.138427 17.679839 -11.111470
25.825973 -14.737705 -19.467493
11.342196 34.018755 -18.926614
32.449452 -5.607667 -12.167727
19.833798 -18.956265 -18.151631
11.610449 33.965726 -47.743472
34.091198 -0.887032 -19.343965
3.698161 -22.046329 -50.108660
15.500092 32.983929 -29.786373
34.702824 7.514463 -32.626086
32.419283 17.858266 -47.787824
23.684821 28.717151 -47.100784
25.084756 -15.404794 -12.138058
31.035187 20.522751 -5.409128
23.655555 -16.548258 -48.678735
-0.147238 -21.345649 -44.477849
0.178192 33.631801 -2.961856
28.695642 -11.686647 -49.262494
-11.421877 -15.641425 -29.030901
3.400428 33.964227 -46.464979
9.839776 34.221491 -12.633443
24.202310 -16.124965 -42.587287
5.821254 34.132400 -19.256786
-14.463602 24.910869 -52.739767
31.226417 20.196978 -47.318355
-1.134071 33.285206 -16.420182
19.870819 31.141393 -14.979356
0.705221 33.752114 -9.123404
-5.151078 -19.602953 -6.561163
-7.106648 -18.605073 -52.817467
26.093987 -14.489374 -48.641106
21.395166 30.278253 -10.853457
-19.863821 -3.692397 -46.252365
-15.432769 23.755157 -26.350161
-5.677435 31.553515 -19.536891
-21.213796 3.730065 -35.531740
-21.149909 2.894784 -53.537034
20.286370 30.909305 -2.972025
2.435702 -21.878258 -37.984968
8.189835 -21.913094 -54.712262
21.920243 29.940099 3.842951
34.469539 11.227659 -61.073880
6.751027 34.196990 -1.853516
33.155391 -3.912998 -6.619236
27.483485 -13.088202 -25.416802
25.075596 27.601685 -15.889669
34.801226 5.948205 -19.522050
9.223160 34.282136 3.257725
-9.610688 29.228420 -55.461289
34.806235 2.929027 -3.132428
18.007875 32.039525 -17.017124
5.879191 34.136424 -47.405566
9.547864 -21.827769 -7.360411
-7.574442 -18.343825 -26.578162
29.791076 22.428512 -45.825507
32.479706 -5.544474 -20.052385
-20.995519 0.876250 -33.807026
-12.514647 -14.686715 -4.534097
32.771377 17.083455 -2.115464
-6.175818 -19.112322 -35.633721
-17.009748 21.560417 -24.392707
-6.763003 -18.796987 -38.649538
24.700544 -15.718352 -51.664658
-21.131162 11.278709 -43.369153
29.502051 -10.631782 -12.761253
23.785183 -16.455397 -54.386437
-13.712286 -13.515218 -17.989008
14.429324 33.313011 -35.491767
33.309240 -3.502721 -28.734757
-9.488892 29.315670 -49.573624
34.625262 8.749020 -10.634129
-20.995446 0.875292 -17.332273
15.899336 32.851256 -18.835719
1.793282 -21.774819 -4.498567
-9.363897 -17.218085 -20.274849
-18.572433 18.862079 -25.721180
-21.246810 10.684048 -40.639070
21.345326 -18.103556 -24.966501
-7.428807 30.630966 -12.374261
22.078582 -17.645055 -19.908117
-20.545128 13.778003 -37.826194
-1.427426 33.207724 -58.301730
-11.367084 -15.687373 -39.716692
19.186998 -19.292025 -5.154608
-21.319629 5.113744 3.718700
34.835723 3.150566 -6.077477
-19.694710 16.332671 -0.256019
33.299386 15.723385 -16.416981
12.417304 -21.602428 -8.626048
10.035998 34.195374 -9.910732
-21.187976 3.392476 -32.658820
-11.762871 27.562146 -44.202373
-17.880530 -7.953287 -5.411414
-20.270490 14.700452 -29.726000
-20.986177 12.030963 -31.625826
15.528863 32.974368 -15.755569
30.771117 -8.756807 -58.107996
-21.093685 11.468297 -9.978270
24.920670 -15.538705 -29.516237
34.578800 9.488549 -39.249128
-1.455509 33.200307 2.738388
-0.537612 -21.247096 -24.491743
-20.064126 15.321455 -51.363073
31.804739 -6.949516 -48.896693
-20.753871 -0.763509 -0.170807
34.864801 4.936279 -27.950086
-18.167368 19.623915 -29.651254
-14.719639 24.605551 -0.229297
-9.546474 29.274420 -39.274869
19.281567 -19.248293 -37.217580
-21.534693 8.070801 -39.696584
13.665207 33.505922 -39.031850
-12.641265 26.762537 -54.732027
3.814872 -22.061864 -21.152662
30.428843 21.492423 -29.260799
34.690357 7.712906 -13.602021
23.225788 -16.856126 3.472086
34.892334 3.921678 -16.778086
5.738427 34.126646 3.530276
1.265810 -21.671822 -7.622977
31.078671 20.453211 -19.728481
-16.814588 -9.680506 -17.326962
-14.025987 -13.176653 -15.099041
-4.911510 -19.717654 -12.382865
34.864254 4.944988 -31.691965
-15.914104 23.123679 -55.397414
13.459562 -21.363921 -42.377077
9.359327 -21.839615 -51.645623
5.053395 34.079057 -33.182281
-14.883719 -12.220081 -46.322918
26.184517 -14.405493 -43.941491
26.805818 -13.800230 -6.580410
25.512898 -15.027789 -39.923401
28.678588 -11.706983 -8.975445
-4.429372 32.130658 -53.353463
15.602264 -20.761775 -43.921914
7.238989 -21.972835 -28.161762
-19.528976 16.743221 -60.944944
-2.139842 32.989437 -9.241902
-18.876230 18.227513 -20.323043
30.498854 -9.179573 -34.221262
-21.331411 10.048574 1.982190
-19.388725 -4.916230 -5.840476
-15.214412 24.015544 -33.641187
4.371027 -22.099252 -2.237400
-8.026551 -18.079347 2.939483
29.153667 23.315860 -53.634548
33.977096 13.520216 -48.249831
7.858842 -21.933890 -2.633296
21.351346 -18.099792 -59.802122
6.819423 34.201742 -4.955233
-15.197215 -11.835936 -50.200136
18.865430 -19.440731 -14.468954
-20.930867 0.030973 -7.969387
-9.336265 29.425006 -9.954124
-7.558880 -18.352516 -5.474567
7.400400 34.242102 -60.935572
33.915525 -1.582889 -15.452099
34.122337 12.970309 -27.220097
24.615907 27.987164 -49.775092
28.981269 23.527111 -15.011224
-5.183938 31.781723 -58.201721
31.292083 20.075620 -34.790676
-10.488332 -16.391217 -43.552433
-20.762927 12.915280 -56.028131
-16.831216 21.837631 -46.666006
34.015217 -1.188000 0.350595
-8.914944 29.712816 -25.219390
34.830146 5.487894 -12.212471
-19.696656 16.327851 -38.796724
-18.304498 -7.169747 -12.182627
-8.571589 -17.728338 -16.990197
24.912725 27.738263 -6.368157
-14.624453 24.719058 -16.998896
13.336052 33.589021 -6.982764
25.740390 -14.817003 -16.045036
-21.534711 7.925778 3.769869
34.254195 -0.241385 -29.778472
33.116916 16.193400 -56.357945
34.722674 7.198515 -2.096631
16.546433 -20.423495 -31.338117
34.898300 4.403077 -37.480860
-4.192161 -20.021676 -53.333307
33.837721 -1.891081 -12.200998
29.554714 22.758451 -4.282917
3.273986 -21.989866 -16.783116
10.167695 -21.788825 -16.191445
32.772628 -4.861201 -34.741752
-3.232390 32.598791 -12.405104
31.909459 18.934640 -58.278871
19.390783 31.384450 0.924883
4.190010 34.019078 -24.316024
-10.342183 28.704405 -0.568163
34.618145 8.862301 3.615525
31.771214 19.190131 -39.717350
34.855133 5.090176 -25.121500
-16.036123 -10.767169 3.636779
29.647139 22.629434 -19.757774
-4.485596 -19.903226 -59.312402
30.261953 -9.547430 -27.642421
-20.477048 -1.811631 -29.804930
31.039115 -8.320379 -55.283499
20.538521 -18.574931 -40.124166
-8.332110 -17.882565 -41.397522
26.748776 26.062618 -27.382202
34.244232 -0.280852 -26.641518
34.815246 5.725054 -5.051389
-21.209880 10.880490 -25.658736
-21.053662 1.636424 -2.754075
-17.860048 -7.991141 -44.614397
31.363674 -7.739252 -21.831518
13.540400 -21.342571 -29.610291
9.408771 34.270081 -46.020692
32.663849 17.329397 -45.081371
-16.176554 -10.571139 -34.013276
-15.474628 23.705241 -50.091391
30.939896 20.675142 -0.692550
-20.436865 -1.963775 -3.226241
34.505099 10.661643 0.627912
-21.094394 11.464709 -53.135163
-21.514346 8.384058 -16.745317
26.179719 -14.409938 -22.155711
-15.487512 23.689878 -42.248532
9.266307 -21.845459 -25.496509
34.445566 11.523681 -18.769098
-17.450615 20.875867 -6.205256
-4.038274 -20.083794 -17.019223
33.113248 16.202848 -6.251039
31.768247 19.195615 -7.654053
-19.878620 15.877101 -56.811799
31.507134 19.678181 3.585997
32.107643 -6.321634 1.514375
-17.417698 -8.719645 -60.724736
29.381587 23.000119 -35.861327
-20.612995 -1.296903 -44.296439
-17.328326 21.065749 -9.189410
-17.459126 20.862651 -41.559894
-9.291583 29.457014 -61.048343
-18.642420 -6.538679 -41.594468
-11.134153 28.075248 -41.629722
34.377401 11.878441 -45.477155
1.461024 -21.709142 -29.160471
34.858937 5.029621 -51.943194
-15.632594 23.505759 -59.737574
-15.400707 23.793391 -8.824472
27.917956 -12.614046 -31.122322
-16.072595 22.908567 -3.570212
31.103960 20.412769 -31.946879
6.015897 34.145921 -57.559944
25.596871 -14.949982 0.362241
-20.058049 -3.171365 -16.899466
25.882976 26.886596 -12.002555
29.324262 23.080140 -32.687699
18.787928 -19.476572 -60.846592
25.973538 -14.600978 -59.784497
-6.205507 31.292908 -47.820286
34.648525 8.378743 -36.671119
-0.165027 33.541150 -48.047854
-3.694614 -20.222518 -48.488334
-15.334226 -11.668048 -12.626754
33.065495 -4.135692 -9.384561
-18.516630 -6.777704 -47.455266
21.597528 -17.945855 -15.460914
13.384639 33.576755 -20.773840
-1.836591 -20.883758 -18.649170
-15.503061 23.671336 -22.499424
-3.976642 32.309864 -42.853101
30.347347 -9.414831 -31.426048
-21.117322 2.468735 -38.970655
34.221093 12.596402 -41.368236
34.597320 9.193773 -15.861244
-11.902209 27.447317 -15.126884
-8.657176 -17.673219 -60.650050
0.612237 33.734244 -55.573826
-8.637682 29.886187 -43.262497
33.522869 -2.859891 -25.034826
30.905986 -8.547384 -15.124581
-21.159276 3.017247 0.669094
-19.217830 -5.294364 -20.184318
33.643291 14.721331 -43.367400
-17.836026 20.217209 -44.510027
30.114549 -9.776318 -41.807373
27.018251 25.782759 -24.556255
-10.489690 28.598737 -58.187400
-4.637768 32.034289 -7.279615
6.710148 34.194150 -39.355427
-18.865274 -6.056760 -8.977366
13.249694 33.610823 -17.130447
30.360360 21.601942 -25.315883
10.965427 -21.738704 -1.601217
-8.619556 -17.697447 -2.874074
34.644298 8.446031 -50.378933
-4.923669 -19.711833 -28.768071
34.510745 10.571775 -55.964766
2.421840 -21.876412 -46.526938
-21.419044 9.390221 -55.389635
7.801468 34.269964 -8.345827
-20.783475 12.833886 2.310267
31.374207 19.923845 -53.567715
18.537386 31.793004 -19.611421
34.654903 1.792172 -60.282633
-0.942921 -21.144772 -52.911295
20.518524 30.779646 -27.744255
18.874451 31.631638 -53.452749
33.106220 16.220950 3.698563
7.987291 34.282873 0.762868
4.603516 -22.114353 -24.260387
-19.424692 -4.823579 -14.193521
-1.902539 -20.861843 -60.508701
15.848285 32.868221 -44.763386
-17.621267 20.601753 -50.074549
-21.362893 9.812083 -30.120004
5.637589 34.119641 -16.168950
10.484410 -21.768926 -30.184683
33.286247 15.757229 -25.764768
-6.559441 31.101390 -4.659567
-9.897707 29.022811 -46.378024
-19.476365 16.873546 -7.861027
-17.584241 -8.453308 -30.448285
27.246204 -13.337514 -36.648733
30.932948 -8.505517 -8.171118
15.400952 33.016874 -4.793458
-14.272078 -12.911057 -2.462996
-20.990990 0.817036 -5.407636
-21.335473 5.320895 -30.862865
9.805470 -21.811584 -21.024380
-21.188805 10.987101 -34.258655
23.117585 29.135105 -9.031604
-13.880265 25.529628 3.797569
-21.335015 5.314903 -28.157025
28.303848 -12.153866 -52.412952
29.321608 23.083844 2.941952
-19.273471 -5.174041 -2.983805
20.868872 -18.396174 -7.574299
-18.209884 -7.344604 -15.604752
-5.131195 31.806113 -38.396059
6.246187 -22.035213 -51.934328
-11.045725 28.147415 -30.995266
30.866136 -8.609263 -60.837789
-15.470248 -11.501371 -18.817742
-14.250395 -12.934459 -33.250404
34.845098 3.221000 -9.824316
-21.198036 3.524013 -13.324671
25.983952 -14.591329 3.306584
32.506214 17.670280 -42.180831
34.781565 6.261149 -57.619814
34.711140 2.214592 -46.328893
34.687306 7.761467 -44.448551
-21.334167 5.303824 -7.219790
0.669729 -21.551899 -22.224947
22.071692 29.842564 -35.407250
-18.347632 -7.090031 -54.702113
32.676392 17.302274 -28.892913
-16.946137 21.659189 3.390575
13.075967 -21.465229 -55.504220
10.443892 -21.771472 -48.354122
16.046068 32.802496 -8.475711
-17.390789 20.968761 -54.325804
34.670186 1.906970 -24.125810
16.458098 -20.457787 -23.756551
34.379289 11.868613 -9.970917
1.567678 33.836907 -58.544303
-12.056423 -15.109316 -0.397725
-9.892301 -16.830379 -58.195401
29.811612 -10.211642 -23.916376
18.868271 31.634596 -43.842696
31.132517 -8.153142 -4.147665
-21.296106 4.806202 -51.697568
-3.007091 32.686254 -40.398268
