34.595801 9.217952 -38.549018
34.827730 5.526336 -60.087203
34.778079 6.316631 -35.388282
34.814233 5.741170 -61.023342
34.865851 4.919570 -42.610400
34.459159 11.392876 -51.555173
34.789709 6.131523 -37.586112
34.598131 9.180864 -58.835761
34.457125 11.425252 -13.159018
34.571475 9.605138 -31.729856
34.749107 6.777779 -10.755610
34.846969 5.220118 -14.061931
34.719454 7.249770 -37.113131
34.722565 7.200248 -44.717369
34.792433 6.088157 -39.444437
34.596783 9.202314 -55.080854
34.883895 4.632373 -13.098043
34.606079 9.054350 -60.876706
34.497621 10.780679 -54.106398
34.474800 11.143923 -55.195481
34.784343 6.216935 -50.200092
34.754561 6.690976 -51.423834
34.470003 11.220277 -32.188591
34.687745 7.754477 -6.529891
34.574895 9.550705 -22.465269
34.522470 10.385151 -11.847694
34.679622 7.883773 -9.357936
34.455789 11.446514 -32.222256
34.715862 7.306949 0.796391
34.725471 7.154001 -55.129569
34.626771 8.724998 -16.895139
34.511730 10.556100 -9.087391
34.674316 7.968236 -53.462572
34.598524 9.174611 -1.534105
34.629942 8.674532 -3.120585
34.568262 9.656284 -5.253182
34.676469 7.933954 -38.322378
34.498046 10.773906 3.734847
34.598122 9.181003 -18.483585
34.736137 6.984232 -2.452777
34.470740 11.208541 -33.080488
34.666908 8.086149 -30.920490
34.570524 9.620288 -23.996569
34.546011 10.010459 -0.392346
34.776319 6.344645 -12.232599
34.624076 8.767892 -31.970421
34.835159 5.408098 -0.649241
34.786396 6.184261 -7.541311
34.611605 8.966399 -2.855682
34.454615 11.465208 -1.038554
34.470201 11.217121 -24.845332
34.629681 8.678679 -49.901563
34.653260 8.303369 -31.370655
34.816877 5.699085 -58.806146
34.479483 11.069377 -33.806184
34.607299 9.034935 -35.091399
34.599003 9.166977 -34.811504
34.667950 8.069555 -33.020972
34.829307 5.501236 -5.786491
34.620031 8.832287 -1.584709
34.598001 9.182937 -57.565086
34.614771 8.916004 -35.676681
34.558183 9.816707 -48.420631
34.569048 9.643770 -48.797672
34.570243 9.624753 -6.856552
34.888067 4.565968 -20.980599
34.853638 5.113973 -13.145724
34.895004 4.455552 -59.784196
34.690580 7.709353 -45.260825
34.572104 9.595130 3.397420
34.552988 9.899401 -56.661938
34.519493 10.432545 -55.286443
34.719307 7.252106 -13.889656
34.722785 7.196742 -45.072878
34.564110 9.722376 -59.779673
34.570950 9.613502 -8.796671
34.669432 8.045969 -55.471042
34.747446 6.804215 3.661942
34.837338 5.373406 2.226185
34.588175 9.339333 -40.631744
34.653702 8.296340 -49.954938
34.486730 10.954029 -38.112109
34.740399 6.916383 -26.086116
34.688848 7.736918 -57.139444
34.619084 8.847350 -49.099305
34.622718 8.789514 -48.138718
34.778331 6.312633 -53.771366
34.551349 9.925497 -30.029198
34.907218 4.261132 -12.235650
34.479980 11.061459 -32.564975
34.456818 11.430130 -56.589322
34.846799 5.222815 -57.788632
34.668737 8.057026 -49.038953
34.840209 5.327720 -33.596832
34.754414 6.693313 -36.222703
34.705161 7.477271 -45.439952
34.690775 7.706251 -20.728652
34.773021 6.397143 -30.780742
34.597393 9.192606 -44.490931
34.877056 4.741217 -9.229628
34.643534 8.458183 -38.026286
34.831684 5.463402 -42.952760
34.564885 9.710032 -25.921668
34.882643 4.652295 -52.718741
34.518096 10.454769 -37.127044
34.851307 5.151073 -28.011630
34.695857 7.625367 -55.825395
34.821788 5.620918 -49.550097
34.553808 9.886352 -3.344186
34.867324 4.896133 -51.435487
34.536264 10.165601 -3.879520
34.729977 7.082274 -28.885900
34.856727 5.064805 -34.164177
34.684034 7.813549 -51.294405
34.759856 6.606696 3.822776
34.489134 10.915764 -14.391851
34.740494 6.914877 -57.822568
34.770537 6.436689 -54.636711
34.754403 6.693492 3.516672
34.667879 8.070694 -55.957010
34.648675 8.376354 -18.793518
34.765891 6.510639 -34.450840
34.540382 10.100048 -51.190582
34.865787 4.920588 -20.452898
34.542440 10.067292 -7.893053
34.537412 10.147323 -10.960993
34.664076 8.131225 3.098010
34.493415 10.847621 -28.578528
34.882656 4.652089 -13.505676
34.794674 6.052491 -28.260767
34.516369 10.482272 -30.151448
34.469020 11.235909 -26.521131
34.886615 4.589081 -29.795425
34.873591 4.796378 -41.451156
34.791998 6.095094 -22.835092
34.634678 8.599149 -48.112927
34.477113 11.107102 -16.725034
34.765045 6.524097 -51.019760
34.903881 4.314254 -28.521221
34.753969 6.700396 -28.312959
34.897559 4.414879 -25.747460
34.847556 5.210770 1.964213
34.852905 5.125637 -14.462581
34.625597 8.743682 -45.672404
34.873853 4.792207 -23.590925
34.684932 7.799255 -54.821673
34.481327 11.040033 -57.711198
34.628546 8.696740 -57.341785
34.848276 5.199310 -12.966212
34.776593 6.340283 -7.146950
34.641892 8.484325 -36.932637
34.652427 8.316641 0.952511
34.837362 5.373025 -38.516577
34.745643 6.832917 -10.594178
34.564531 9.715670 -12.915591
34.612538 8.951553 -3.120518
34.737118 6.968611 -33.720136
34.864834 4.935755 -47.016047
34.541372 10.084290 -59.258854
34.732523 7.041742 -19.551469
34.665645 8.106243 -34.999766
34.824086 5.584344 -50.090198
34.660691 8.185100 -19.444240
34.901466 4.352694 -23.098109
34.658091 8.226479 -12.213889
34.773364 6.391679 -57.981440
34.509115 10.597733 3.665026
34.601376 9.129216 -31.139088
34.547593 9.985277 -59.612459
34.757786 6.639635 -13.185350
34.487782 10.937287 -15.697205
34.770382 6.439154 -19.956457
34.900360 4.370293 -4.362716
34.671925 8.006285 -21.206494
34.458248 11.407380 -40.742459
34.550126 9.944949 -52.083322
34.509282 10.595070 3.310672
34.801529 5.943389 -52.957464
34.606750 9.043679 -36.350795
34.495541 10.813779 -57.420934
34.535658 10.175237 -10.743295
34.736943 6.971396 -50.885079
34.679167 7.891017 -45.296082
34.822250 5.613564 -47.718006
34.897737 4.412050 -4.581858
34.626749 8.725347 -38.552864
34.773319 6.392409 -26.817965
34.910435 4.209925 -27.844621
34.846525 5.227191 -27.584882
34.477401 11.102521 -60.456696
34.783921 6.223646 -5.560063
34.651568 8.330309 -37.105166
34.469316 11.231202 -35.198174
34.838720 5.351419 -49.157463
34.784016 6.222138 -7.874978
34.791542 6.102339 -44.840983
34.526697 10.317878 -39.189273
34.710212 7.396878 -27.569334
34.469750 11.224303 -21.954463
34.453875 11.476981 -57.082960
34.830387 5.484051 -58.226184
34.658793 8.215308 -48.309308
34.803615 5.910180 -14.998963
34.831675 5.463552 -43.801740
34.454085 11.473635 -33.639575
34.859021 5.028286 -59.309419
34.709653 7.405767 -5.026698
34.707660 7.437493 -1.830370
34.790223 6.123337 -23.881492
34.638019 8.545964 -48.958198
34.547264 9.990514 3.860255
34.752366 6.725916 -50.745225
34.471138 11.202213 -4.924855
34.543651 10.048025 -52.922490
34.894183 4.468617 -33.855659
34.728456 7.106476 -49.398234
34.517930 10.457418 -60.737578
34.797508 6.007382 -48.683360
34.756870 6.654218 -31.718398
34.543151 10.055983 -29.017860
34.817937 5.682226 -30.403952
34.865820 4.920072 -8.544273
34.708970 7.416642 -33.899391
34.509307 10.594675 -45.708278
34.618925 8.849890 -4.485219
34.739532 6.930181 -15.599674
34.522416 10.386019 -32.423746
34.798431 5.992697 -15.178504
34.533226 10.213959 -41.263438
34.597335 9.193532 -35.006268
34.573993 9.565064 -41.337165
34.765610 6.515109 -14.977517
34.597058 9.197933 -25.247071
34.855683 5.081423 -49.292473
34.667303 8.079851 -1.318493
34.908968 4.233289 -43.061744
34.498340 10.769234 -51.132776
34.678958 7.894342 -40.529378
34.877870 4.728261 -26.781228
34.609479 9.000240 -29.129420
34.829394 5.499858 -42.534491
34.728838 7.100397 -43.782187
34.814539 5.736304 -40.619189
34.551115 9.929207 -29.513617
34.822580 5.608315 -34.180920
34.707825 7.434867 3.172644
34.822457 5.610270 -14.705923
34.519486 10.432645 -12.042971
34.838268 5.358612 -19.141740
34.456707 11.431900 -51.338555
34.714493 7.328732 -50.394970
34.570541 9.620007 -29.867245
34.647857 8.389377 -15.175152
34.520618 10.414626 -8.558924
34.693112 7.669060 -19.978463
34.880231 4.690689 -46.358936
34.515662 10.493519 -50.684130
34.639632 8.520295 -41.051126
34.817906 5.682720 -15.195913
34.597104 9.197205 -58.415885
34.701262 7.539324 -15.238499
34.527627 10.303069 -0.743534
34.843049 5.282515 -37.424362
34.547063 9.993705 -34.982548
34.894319 4.466443 3.098579
34.510817 10.570636 -16.850491
34.745724 6.831636 -6.848368
34.736843 6.972982 -16.139958
34.763053 6.555803 -42.732019
34.790310 6.121953 -57.369168
34.622412 8.794390 -48.928709
34.579197 9.482234 -21.046896
34.521342 10.403102 -29.477161
34.521015 10.408314 -48.010271
34.780893 6.271839 -37.967926
34.885787 4.602249 -45.289827
34.567682 9.665517 -49.548661
34.584042 9.405118 -58.737271
34.468435 11.245226 -14.419621
34.483967 10.998012 -10.739304
34.897729 4.412166 -2.969754
34.580604 9.459834 -11.036289
34.572985 9.581103 -31.369123
34.582534 9.429122 -3.259980
34.547505 9.986670 -26.448229
34.459951 11.380263 1.288252
34.591592 9.284944 -33.170523
34.495306 10.817517 -9.860699
34.476018 11.124530 -59.906394
34.455023 11.458709 -8.409673
34.776657 6.339278 -33.502274
34.668582 8.059496 -38.480233
34.683870 7.816154 -25.320253
34.746315 6.822218 -43.990820
34.531087 10.247994 -15.030142
34.581788 9.440991 -47.688878
34.709870 7.402317 -13.322956
34.784609 6.212694 -18.839224
34.802041 5.935228 -44.949203
34.844430 5.260534 -15.208212
34.826852 5.540317 -53.679547
34.496122 10.804541 -54.573088
34.499624 10.748787 -55.959471
34.741690 6.895841 -25.247043
34.646077 8.417706 -25.659285
34.852258 5.135929 -0.652003
34.654535 8.283083 -42.887911
34.543293 10.053716 -15.553290
34.809768 5.812247 -39.121761
34.910612 4.207119 -45.079769
34.869098 4.867890 -53.233402
34.570915 9.614062 -13.438059
34.875587 4.764613 -9.988888
34.826080 5.552611 -38.821244
34.543724 10.046850 -55.556485
34.718487 7.265167 -14.085080
34.664445 8.125337 -2.333310
34.910619 4.207008 -57.926128
34.623844 8.771585 -52.491341
34.601651 9.124828 -46.173999
34.845026 5.251036 -24.787895
34.872256 4.817628 -14.714802
34.774989 6.365820 -24.934699
34.742812 6.877975 -57.009194
34.548961 9.963493 -3.846578
34.678838 7.896258 -16.493426
34.906773 4.268220 -10.463024
34.781152 6.267717 -31.831534
34.497004 10.790496 1.712072
34.458317 11.406277 -18.363350
34.763436 6.549705 -10.264278
34.619180 8.845821 -29.020350
34.547407 9.988238 -37.247307
34.822207 5.614260 -57.908800
34.826486 5.546143 -35.209830
34.887384 4.576839 -20.566117
34.631772 8.645396 -60.774584
34.814989 5.729140 -12.182174
34.878722 4.714712 -20.293087
34.500631 10.732762 -29.764054
34.775773 6.353334 -45.929737
34.488975 10.918294 1.848554
34.563491 9.732225 -60.094122
34.534779 10.189234 -47.311088
34.863041 4.964304 -39.835310
34.589029 9.325738 -45.172055
34.868116 4.883525 -27.197274
34.707652 7.437628 -51.813335
34.611292 8.971381 -13.974906
34.732358 7.044374 -45.511267
34.710772 7.387962 1.993939
34.620591 8.823360 -60.960702
34.706257 7.459825 -42.736394
34.862199 4.977697 -41.177825
34.599849 9.153519 -49.151889
34.520380 10.418417 -17.157978
34.732310 7.045134 -41.393469
34.726385 7.139452 -43.168813
34.510005 10.583556 -38.846737
34.615955 8.897159 -58.453348
34.877747 4.730222 -8.607560
34.458439 11.404335 -16.806294
34.620973 8.817287 -40.520122
34.685092 7.796704 -34.771721
34.680239 7.873946 -40.923292
34.495641 10.812191 -27.725744
34.468524 11.243810 -39.352309
34.810928 5.793781 2.244692
34.769561 6.452213 -9.542158
34.736292 6.981763 -6.000128
34.737600 6.960933 -36.514584
34.496521 10.798184 -25.334088
34.716195 7.301635 3.322866
34.795525 6.038952 -41.557188
34.663472 8.140828 -13.030682
34.727708 7.118394 -59.369914
34.779669 6.291326 -58.617463
34.546397 10.004311 -28.190163
34.719363 7.251213 -47.109074
34.521105 10.406876 -23.033164
34.716755 7.292728 -52.153345
34.564052 9.723303 -27.003260
34.686266 7.778018 -55.270055
34.656266 8.255535 -7.113233
34.665189 8.113510 -56.595981
34.847150 5.217237 -7.239253
34.783549 6.229579 -11.650426
34.540007 10.106019 -28.827167
34.552792 9.902515 -31.069255
34.587200 9.354844 -33.355882
34.683287 7.825432 2.883407
34.523372 10.370802 -47.560750
34.848907 5.189266 -36.856058
34.536742 10.157984 -0.050608
34.484302 10.992673 -18.545807
34.573084 9.579536 -26.061053
34.607815 9.026720 -23.235047
34.499985 10.743041 -16.845952
34.593059 9.261591 -29.642567
34.855813 5.079352 -37.386203
34.891498 4.511352 -19.132648
34.467484 11.260359 -9.571402
34.468708 11.240882 -57.564196
34.605743 9.059703 -28.440985
34.886752 4.586896 -59.603698
34.532226 10.229876 -25.276112
34.785452 6.199281 -19.496227
34.499413 10.752158 -42.533840
34.813660 5.750290 -29.816343
34.744645 6.848800 -27.231699
34.847647 5.209333 -48.490851
34.885743 4.602952 -5.724116
34.848542 5.195080 -59.510050
34.809478 5.816853 -10.982742
34.584690 9.394804 -23.413776
34.507308 10.626493 -22.333610
34.686955 7.767056 -24.942173
34.829071 5.504996 -54.720054
34.607801 9.026947 -51.522632
34.480633 11.051073 -37.188833
34.895452 4.448418 3.619884
34.817996 5.681273 -25.779172
34.477313 11.103917 -14.739180
34.462961 11.332364 -13.302243
34.620483 8.825085 -52.771184
34.636082 8.576791 -35.104313
34.581266 9.449309 -28.331981
34.690207 7.715292 -9.253859
34.668129 8.066712 -6.728001
34.697286 7.602614 -16.495952
34.874823 4.776769 -29.021682
34.808333 5.835084 -54.324219
34.577500 9.509241 -58.190107
34.898119 4.405968 -12.431883
34.690162 7.716003 -0.969150
34.456735 11.431458 -11.792384
34.885529 4.606367 -55.245379
34.818053 5.680374 -56.417271
34.838275 5.358503 -44.171733
34.576493 9.525276 -39.014510
34.478921 11.078318 -56.379677
34.774272 6.377232 -28.047511
34.618483 8.856915 -48.694874
34.802515 5.927692 -58.657416
34.835280 5.406166 2.550740
34.763822 6.543562 -2.367925
34.556703 9.840272 -52.371515
34.507811 10.618485 -20.244695
34.782834 6.240947 -5.110486
34.841526 5.306746 -59.973182
34.625263 8.749001 -51.018577
34.845247 5.247519 -22.253644
34.879780 4.697860 -33.871533
34.758298 6.631485 -3.057034
34.529119 10.279318 -20.711909
34.806491 5.864404 -38.548176
34.704634 7.485656 -42.032196
34.847906 5.205202 -45.902232
34.519306 10.435509 -30.851084
34.626543 8.728626 -28.361251
34.840999 5.315141 -20.225679
34.605525 9.063166 -40.751014
34.643867 8.452877 -8.513390
34.570199 9.625450 -17.608469
34.553356 9.893545 -17.871155
34.770482 6.437565 -47.920837
34.671758 8.008938 -43.386306
34.678726 7.898040 -23.367126
34.595236 9.226946 -2.413901
34.810099 5.806970 -59.883468
34.680020 7.877435 -26.315732
34.471156 11.201923 -43.539913
34.808404 5.833952 -46.129012
34.845194 5.248376 -57.093600
34.675836 7.944040 -46.484263
34.607201 9.036492 -11.888528
34.470281 11.215853 -43.272793
34.869429 4.862625 -35.581836
34.634028 8.609486 -52.086359
34.505827 10.650054 -53.754194
34.775404 6.359213 -20.232935
34.799742 5.971830 -22.489792
34.782316 6.249194 -35.573611
34.739041 6.938011 -1.480713
34.846077 5.234317 -58.978274
34.531765 10.237208 -29.842112
34.608190 9.020756 -0.647386
34.558697 9.808530 -13.847029
34.851194 5.152873 -37.678823
34.763727 6.545078 -33.970585
34.759924 6.605617 -33.539842
34.573348 9.575331 -26.703163
34.498380 10.768596 -10.522066
34.595425 9.223940 -3.713332
34.490161 10.899424 -22.863896
34.807272 5.851980 -28.048378
34.517961 10.456923 -1.604556
34.863592 4.955531 -9.883657
34.591968 9.278954 2.402043
34.809529 5.816052 -35.908208
34.871020 4.837295 -46.680376
34.513347 10.530360 -56.345428
34.845558 5.242570 -28.842347
34.766034 6.508357 -41.378377
34.593452 9.255340 -7.725041
34.841001 5.315116 -23.665057
34.464276 11.311431 -50.630332
34.454578 11.465785 -43.725127
34.752495 6.723864 -1.181536
34.859408 5.022128 -22.487007
34.730532 7.073441 -19.154388
34.598842 9.169539 -39.566102
34.629665 8.678931 -52.909729
34.466158 11.281471 -23.541832
34.751089 6.746241 -53.459512
34.651153 8.336914 -47.242120
34.904494 4.304495 -37.884994
34.701484 7.535795 -27.995958
34.805190 5.885111 -16.488109
34.671691 8.010011 -32.608589
34.575402 9.542632 -25.041813
34.474691 11.145644 -59.440510
34.747110 6.809576 -12.844161
34.460412 11.372931 -19.781818
34.461096 11.362037 -45.889692
34.601117 9.133327 -15.341039
34.893728 4.475858 -60.590800
34.637340 8.556781 -22.320413
34.790669 6.116242 -39.741549
34.581524 9.445201 -36.776305
34.455585 11.449756 -6.982873
34.524912 10.346282 -55.431479
34.566896 9.678023 -4.050306
34.553079 9.897961 -10.612275
34.731029 7.065525 -61.079323
34.563112 9.738257 -0.459248
34.883160 4.644064 -33.372151
34.861269 4.992500 -5.698577
34.909515 4.224581 -31.083131
34.684078 7.812851 -53.338735
34.638565 8.537281 -53.991839
34.702742 7.515769 -60.551930
34.525617 10.335068 -36.953919
34.557615 9.825749 -42.010391
34.474367 11.150809 -51.056747
34.537429 10.147056 -34.792165
34.456090 11.441722 -36.333445
34.885563 4.605825 -36.296669
34.572088 9.595386 -57.921653
34.462044 11.346951 -52.797423
34.485000 10.981567 -44.817925
34.832063 5.457370 -47.602527
34.701875 7.529568 -3.116514
34.905801 4.283688 0.334013
34.599292 9.162377 -9.663656
34.842188 5.296218 -20.017763
34.489171 10.915176 -46.226648
34.840867 5.317237 -53.857315
34.472685 11.177587 -28.415077
34.475414 11.134151 -12.847457
34.459301 11.390616 -61.097611
34.468265 11.247931 -49.465792
34.574535 9.556447 -54.754608
34.823715 5.590251 -40.117401
34.781173 6.267393 -27.438260
34.898319 4.402784 -28.957486
34.688466 7.743008 -49.854868
34.588005 9.342037 -12.758541
34.730748 7.070004 -29.262900
34.611902 8.961667 -24.615715
34.479780 11.064647 -49.463858
34.516781 10.475714 -27.354443
34.783635 6.228198 -39.611521
34.593712 9.251195 -28.796445
34.644051 8.449958 -53.796630
34.509879 10.585562 -11.796686
34.526332 10.323683 -58.720504
34.713955 7.337292 -27.822046
34.759597 6.610809 -55.633640
34.770999 6.429335 -3.948585
34.543296 10.053672 -8.450109
34.728806 7.100906 -17.635992
34.463446 11.324641 -19.050244
34.543356 10.052718 -4.091712
34.768674 6.466339 -3.269019
34.693652 7.660456 -6.105290
34.694033 7.654400 -4.442108
34.812101 5.775116 -42.138183
34.599286 9.162477 -24.883698
34.540339 10.100741 -7.611685
34.854644 5.097961 -10.997161
34.885970 4.599335 -59.335126
34.488109 10.932080 -54.339867
34.703582 7.502398 -16.270180
34.529844 10.267778 -0.240378
34.723742 7.181516 -58.956688
34.774657 6.371103 -53.212307
34.454315 11.469969 3.289503
34.797260 6.011338 -45.837441
34.864476 4.941455 -37.149271
34.906470 4.273040 -22.334082
34.609138 9.005663 -42.727950
34.712823 7.355316 -36.014653
34.909513 4.224607 -20.752846
34.528407 10.290657 -49.090870
34.695436 7.632064 3.608928
34.529973 10.265725 -45.017712
34.728781 7.101309 -15.267539
34.526794 10.316325 -10.083162
34.574557 9.556090 -14.674003
34.658598 8.218408 -54.077993
34.603240 9.099548 -16.926611
34.552816 9.902141 -27.083550
34.813947 5.745734 -15.561201
34.846056 5.234642 -53.159747
34.576999 9.517225 -24.419370
34.752084 6.730394 -14.292517
34.854139 5.105989 -50.217958
34.514535 10.511461 -46.529120
34.689231 7.730829 -14.947828
34.703144 7.509372 -31.800343
34.689574 7.725365 -1.443221
34.601942 9.120205 -40.984873
34.637089 8.560774 -32.310484
34.544754 10.030461 -15.050725
34.910685 4.205953 -14.452440
34.507753 10.619409 -51.609200
34.754338 6.694525 -31.936593
34.779568 6.292929 -40.358090
34.453594 11.481458 -26.960268
34.762132 6.570458 2.858718
34.612652 8.949738 1.290104
34.501339 10.721505 -41.528281
34.900067 4.374954 -45.244795
34.582520 9.429345 -6.561524
34.636674 8.567375 -54.326141
34.520426 10.417693 -31.071320
34.661725 8.168633 -16.259219
34.575108 9.547313 -26.506893
34.872346 4.816195 -41.871187
34.897783 4.411320 -11.437380
34.813183 5.757883 -9.321016
34.831500 5.466338 -40.340685
34.628690 8.694461 -29.585012
34.889527 4.542728 -11.980086
34.570971 9.613168 -24.183576
34.895037 4.455020 -24.143952
34.647524 8.394678 -21.612653
34.888396 4.560730 -34.439892
34.580999 9.453559 -19.164590
34.456374 11.437202 -25.348569
34.477276 11.104511 -7.143685
34.817936 5.682229 -40.352873
34.660015 8.195857 -11.166296
34.597246 9.194943 -48.875398
34.570655 9.618203 -12.171408
34.769647 6.450850 -23.666527
34.621733 8.805183 -31.366539
34.617945 8.865476 -55.418534
34.717200 7.285653 -34.523149
34.848231 5.200032 -54.384388
34.593133 9.260417 2.919720
34.824198 5.582566 -22.458442
34.611797 8.963336 -6.662932
34.756636 6.657939 -53.004731
34.692681 7.675912 -37.091992
34.521899 10.394238 -53.786357
34.910117 4.214988 -17.695317
34.551279 9.926604 -60.750726
34.872279 4.817262 -51.121838
34.673800 7.976445 -22.752297
34.589733 9.314536 -44.042444
34.909758 4.220704 -34.642895
34.575505 9.541001 -48.244110
34.613115 8.942365 -58.642877
34.523260 10.372575 3.656856
34.505616 10.653428 -25.926962
34.685027 7.797749 -59.289174
34.882833 4.649272 -19.325544
34.679202 7.890454 0.699300
34.865053 4.932281 -21.919929
34.564873 9.710226 3.872578
34.541204 10.086970 -5.450595
34.830588 5.480848 -19.525979
34.815119 5.727071 -44.594228
34.577986 9.501503 -43.322108
34.708898 7.417788 -21.109207
34.711374 7.378375 -22.612591
34.689729 7.722907 -40.559801
34.690126 7.716586 -1.148453
34.737225 6.966912 -48.935192
34.746616 6.817426 -58.932963
34.552293 9.910457 -36.694204
34.652426 8.316658 -52.071437
34.854461 5.100866 -56.980031
34.816403 5.706636 -31.961708
34.607856 9.026063 -27.563308
34.878665 4.715609 -58.957001
34.587910 9.343547 -22.886566
34.666127 8.098571 0.167519
34.566721 9.680818 -12.525421
34.808655 5.829965 -13.283436
34.761789 6.575918 -21.887802
34.759678 6.609533 2.575847
34.512971 10.536351 -23.542736
34.512988 10.536077 -57.747170
34.893428 4.480623 -39.611180
34.483044 11.012705 -9.869261
34.881598 4.668936 -36.485470
34.761911 6.573990 -35.124678
34.498099 10.773070 -48.390097
34.691878 7.688698 -37.756594
34.853935 5.109235 -19.545638
34.523201 10.373525 -44.240725
34.821874 5.619557 -24.426061
34.849973 5.172306 -19.087826
34.680325 7.872579 -29.642502
34.740522 6.914430 -46.607778
34.582064 9.436607 -15.618157
34.741621 6.896940 -52.304396
34.746606 6.817595 -6.103006
34.788853 6.145155 -23.494375
34.508181 10.612588 -21.745068
34.854019 5.107906 -30.937274
34.751447 6.740544 -54.127650
34.625736 8.741478 -56.585805
34.682575 7.836775 -31.428298
34.637470 8.554698 -33.244284
34.660122 8.194151 -53.834370
34.870315 4.848513 -18.256072
34.806462 5.864866 -58.928614
34.765765 6.512633 -6.669003
34.490079 10.900716 3.391687
34.656955 8.244562 -54.683798
34.596854 9.201185 -33.551153
34.559385 9.797575 -18.750563
34.630805 8.660785 -39.801762
34.818696 5.670130 -17.179069
34.455549 11.450336 -3.288476
34.685712 7.786843 -1.754182
34.788680 6.147905 -24.214182
34.585429 9.383045 -16.355124
34.871252 4.833612 -58.091505
34.750946 6.748517 -14.858401
34.460959 11.364225 2.032782
34.652514 8.315245 -17.760692
34.673764 7.977017 0.553157
34.620901 8.818436 -49.367177
34.897143 4.421497 -10.839857
34.817009 5.696988 -28.429921
34.455660 11.448562 -45.084893
34.453860 11.477225 -35.415904
34.769527 6.452763 -5.218905
34.665346 8.111007 -34.481047
34.599430 9.160179 -19.952879
34.593014 9.262305 -14.411510
34.726741 7.133780 -38.903244
34.510937 10.568722 -3.853732
34.659230 8.208358 -22.487731
34.771960 6.414035 -8.035485
34.599397 9.160705 -12.300617
34.604638 9.077287 -47.729538
34.504244 10.675260 -58.645772
34.866801 4.904452 -46.254890
34.838407 5.356394 -53.025555
34.629589 8.680150 -14.489175
34.854631 5.098157 -60.081421
34.887693 4.571922 -16.987990
34.835806 5.397805 -0.226052
34.517438 10.465246 -60.264226
34.617647 8.870223 -58.284775
34.786434 6.183644 -36.199936
34.544610 10.032753 -39.717752
34.876481 4.750376 -53.069765
34.665902 8.102157 -18.148401
34.888242 4.563182 -26.613167
34.825500 5.561846 -13.553200
34.503758 10.682998 -6.966981
34.467797 11.255387 -7.213537
34.734867 7.004437 -59.936300
34.734790 7.005663 -5.467467
34.603552 9.094582 -30.163630
34.688503 7.742421 -5.929483
34.831111 5.472524 -34.054764
34.566772 9.680002 -21.110705
34.829369 5.500250 -1.189078
34.603491 9.095554 -60.658840
34.606205 9.052345 -40.544880
34.464166 11.313179 -13.686680
34.905764 4.284287 -16.123381
34.610427 8.985152 -9.085823
34.628201 8.702232 -18.116858
34.508215 10.612046 -18.683161
34.525088 10.343485 -55.614908
34.722091 7.207798 -28.568776
34.779631 6.291935 -54.004779
34.726711 7.134267 -52.936642
34.526474 10.321423 -47.048295
34.472769 11.176249 -57.961730
34.512935 10.536923 -56.918178
34.858876 5.030595 -60.675410
34.500741 10.731011 -41.088866
34.478941 11.077997 -48.593042
34.736493 6.978562 -52.818975
34.744599 6.849534 -22.963392
34.893942 4.472453 -42.867386
34.850232 5.168173 -52.197452
34.858510 5.036424 2.503947
34.524474 10.353263 -15.344753
34.872655 4.811275 3.223759
34.500269 10.738533 -34.600889
34.660405 8.189647 -6.549137
34.699599 7.565793 -29.874339
34.664505 8.124383 -54.475641
34.833266 5.438225 -51.027743
34.798688 5.988609 -7.864240
34.688459 7.743118 -11.499367
34.868093 4.883893 0.792168
34.601790 9.122619 -43.193967
34.620770 8.820519 -47.281504
34.458967 11.395924 -54.875357
34.523321 10.371605 -30.598478
34.504556 10.670293 -35.022862
34.480261 11.057000 -47.038731
34.842943 5.284207 -54.212630
34.791075 6.109772 -50.337071
34.806316 5.867188 -37.410971
34.455004 11.459014 -45.297556
34.645058 8.433923 -46.782590
34.544118 10.040578 0.941538
34.580155 9.466985 -0.661723
34.694245 7.651018 -25.207277
34.495959 10.807126 -36.971747
34.834369 5.420677 -49.557149
34.644884 8.436695 -33.962434
34.781154 6.267689 3.471604
34.590583 9.301006 -5.313905
34.621783 8.804400 -54.467847
34.794880 6.049211 -37.286276
34.862293 4.976209 -36.029025
34.790425 6.120132 -25.470768
34.752148 6.729379 -11.035324
34.754641 6.689694 -34.818165
34.537743 10.142049 -27.080511
34.750689 6.752595 -20.125361
34.558100 9.818026 -37.775165
34.798275 5.995181 -50.168834
34.716395 7.298463 -16.281279
34.630173 8.670855 -57.542974
34.882025 4.662126 -40.879562
34.555877 9.853424 -4.237606
34.895234 4.451893 -57.853380
34.768717 6.465653 -33.083256
34.612017 8.959836 -44.696050
34.726225 7.141995 -55.555727
34.630640 8.663425 -42.879350
34.568046 9.659722 1.791541
34.820642 5.639159 -46.363098
34.830105 5.488535 -37.395014
34.589725 9.314659 -42.594154
34.896309 4.434775 -30.631472
34.849265 5.183571 -44.213344
34.617243 8.876651 -28.837387
34.898525 4.399510 -43.819302
34.490667 10.891363 -0.715966
34.751787 6.735119 -23.919283
34.864601 4.939473 -50.579018
34.803044 5.919266 -51.641676
34.597311 9.193916 -52.506831
34.491600 10.876513 -49.073024
34.716585 7.295435 -1.236727
34.672583 7.995818 3.264326
34.874590 4.780481 -31.264498
34.703429 7.504833 -57.308000
34.826395 5.547591 -0.788126
34.636422 8.571392 -47.435525
34.582381 9.431560 -20.648406
34.759698 6.609208 -59.736624
34.587539 9.349462 -25.167244
34.766253 6.504875 -23.301507
34.657583 8.234561 -23.518734
34.792466 6.087634 -16.483739
34.726528 7.137168 3.209631
34.551553 9.922243 -35.600164
34.607443 9.032643 -56.182844
34.591889 9.280222 -11.996893
34.716551 7.295971 -4.353554
34.535495 10.177844 -26.534855
34.472189 11.185479 1.939666
34.720777 7.228717 -40.354025
34.681906 7.847416 -36.940310
34.647166 8.400368 -17.912050
34.746117 6.825370 -4.128024
34.881704 4.667248 -49.430476
34.779843 6.288556 -18.423621
34.713525 7.344135 -32.664436
34.739822 6.925568 -33.987933
34.632472 8.634257 -53.091751
34.456853 11.429576 -55.054935
34.520967 10.409086 -45.891401
34.514503 10.511960 2.044214
34.802141 5.933638 -46.914659
34.565079 9.706954 -56.089044
34.673124 7.987205 -40.384642
34.808323 5.835242 -38.111618
34.839562 5.338021 -7.071770
34.669760 8.040738 -7.273506
34.652191 8.320395 -48.935857
34.672875 7.991171 -22.398184
34.882200 4.659341 -3.601040
34.538338 10.132580 -39.177971
34.549906 9.948455 -0.136769
34.813573 5.751676 -39.938015
34.790247 6.122962 -33.238237
34.608264 9.019568 -48.825298
34.860919 4.998082 -12.164251
34.682992 7.830132 -31.705923
34.872346 4.816195 -43.320164
34.658956 8.212708 -36.620617
34.686085 7.780903 -10.789098
34.474508 11.148569 3.876596
34.647865 8.389249 -19.002923
34.824535 5.577197 -51.633313
34.516905 10.473738 -3.672739
34.534844 10.188198 -52.016898
34.654520 8.283320 -40.143560
34.715737 7.308937 -55.991618
34.907347 4.259087 -13.740320
34.534186 10.198678 -34.248593
34.496743 10.794646 -58.269697
34.526236 10.325205 -57.391888
34.720607 7.231410 -37.375802
34.855225 5.088704 -4.921707
34.589768 9.313977 -22.268970
34.467507 11.259997 -26.333553
34.527764 10.300892 -16.379828
34.810832 5.795313 -52.055835
34.498605 10.765018 -9.645286
34.685631 7.788123 -0.798950
34.543431 10.051516 -26.243303
34.802436 5.928954 -22.670074
34.479319 11.071985 -8.129979
34.543333 10.053075 -49.761708
34.640488 8.506663 -19.216646
34.643686 8.455771 -21.353667
34.612059 8.959163 -9.726285
34.902785 4.331699 -19.637760
34.612600 8.950555 -31.071020
34.769874 6.447228 -37.153949
34.876847 4.744543 -1.800392
34.898280 4.403404 -28.094625
34.685323 7.793036 -5.772362
34.592649 9.268115 -46.507351
34.516506 10.480080 -10.509484
34.533831 10.204329 -34.980229
34.550765 9.934783 -15.675651
34.549584 9.953590 0.335265
34.730426 7.075123 -58.566346
34.663471 8.140840 -46.533400
34.793051 6.078333 -54.099894
34.804035 5.903503 -21.065655
34.693575 7.661687 -4.831436
34.870164 4.850923 -49.102349
34.786749 6.178631 -31.356733
34.533794 10.204913 -15.631581
34.559364 9.797912 -32.574713
34.621808 8.804000 -51.794289
34.595011 9.230517 -3.342019
34.503534 10.686562 -37.929827
34.652311 8.318477 -27.676496
34.782640 6.244047 0.331077
34.889276 4.546717 -31.199268
34.462953 11.332492 -30.147013
34.909894 4.218541 -48.351015
34.739963 6.923322 -18.958813
34.699225 7.571757 -30.354603
34.528969 10.281711 -59.318321
34.739116 6.936811 -3.187682
34.680562 7.868808 -48.364810
34.482447 11.022200 -28.630748
34.668309 8.063836 -19.840853
34.862910 4.966389 -42.425634
34.859080 5.027341 -20.239038
34.827423 5.531236 -44.591794
34.859017 5.028357 -3.532791
34.799309 5.978714 -19.089541
34.457957 11.412014 -38.283576
34.485917 10.966961 -57.145893
34.506252 10.643292 -47.383828
34.670007 8.036810 -50.689103
34.733885 7.020074 -35.822246
34.727624 7.119727 -47.738474
34.837065 5.377759 -4.309450
34.635870 8.580166 -21.109603
34.821767 5.621250 -25.050358
34.820443 5.642327 -54.599922
34.789077 6.141585 -20.548779
34.698800 7.578524 -44.819649
34.555196 9.864264 -60.258161
34.814353 5.739265 -3.619560
34.547388 9.988533 -47.396164
34.670706 8.025696 -24.862671
34.550745 9.935104 -28.854467
34.906990 4.264762 2.968946
34.455280 11.454615 -56.411377
34.560817 9.774783 -28.958284
34.642461 8.475261 -10.070778
34.596870 9.200929 -53.796033
34.534019 10.201331 -37.111073
34.538679 10.127160 -22.429279
34.771408 6.422821 -16.107567
34.831346 5.468796 -18.095527
34.463066 11.330684 -60.589805
34.673834 7.975908 -42.376963
34.899958 4.376695 -46.154829
34.894165 4.468906 -34.743010
34.574947 9.549882 -7.996078
34.560459 9.780489 -53.080070
34.750787 6.751037 -39.471653
34.896571 4.430599 -56.604088
34.575040 9.548397 -46.519141
34.723516 7.185121 -15.430236
34.696517 7.614856 -30.067861
34.804986 5.888353 -26.262423
34.559432 9.796839 -24.113982
34.594216 9.243179 -23.123876
34.824325 5.580539 -58.367183
34.646010 8.418771 -36.576944
34.884072 4.629557 -47.794778
34.519873 10.426489 -16.734022
34.770559 6.436336 -27.580091
34.663190 8.145324 -26.247263
34.897427 4.416987 -52.549537
34.688880 7.736411 -53.809532
34.473053 11.171730 -11.191294
34.899427 4.385139 -2.085507
34.801276 5.947405 -19.703543
34.468127 11.250137 -48.497276
34.684150 7.811701 -23.754519
34.796857 6.017750 -3.556396
34.491035 10.885498 -6.754763
34.529153 10.278783 -18.527357
34.629616 8.679723 -54.781580
34.629518 8.681278 -48.788114
34.651978 8.323780 -40.327260
34.739908 6.924208 -11.572226
34.631142 8.655420 -5.904310
34.764994 6.524917 -48.312132
34.836659 5.384228 -34.848896
34.861269 4.992508 -35.228572
34.770057 6.444324 -39.938676
34.581824 9.440422 -34.287687
34.591186 9.291413 -35.668461
34.556835 9.838175 -44.378918
34.627398 8.715017 -6.925859
34.770561 6.436301 -50.216094
34.507856 10.617774 -20.670875
34.840646 5.320757 -47.127987
34.670219 8.033445 -11.048218
34.554594 9.873846 -25.111164
34.858797 5.031848 -50.430056
34.472741 11.176695 -53.588226
34.765320 6.519725 -35.666092
34.522635 10.382528 -58.899225
34.783243 6.234445 -6.086426
34.629521 8.681233 -14.672399
34.761310 6.583541 -7.227043
34.460426 11.372711 -15.045235
34.658916 8.213348 -49.723364
34.655947 8.260615 -41.104634
34.899499 4.383992 -32.679667
34.600852 9.137554 -18.995013
34.546396 10.004324 -12.356629
34.810212 5.805175 -56.968016
34.848097 5.202164 -2.431211
34.873153 4.803344 -47.515809
34.654178 8.288766 -6.917244
34.700808 7.546550 -10.487821
34.571528 9.604308 -59.501033
34.877877 4.728153 -19.851473
34.519334 10.435076 -41.185790
34.885888 4.600644 -29.515338
34.771323 6.424167 -55.498807
34.632046 8.641036 -58.359853
34.775033 6.365115 -23.850171
34.851195 5.152851 -50.761050
34.789897 6.128527 -27.732217
34.533183 10.214631 -19.981230
34.541253 10.086182 -37.937639
34.876939 4.743081 -30.520855
34.787036 6.174075 -45.951986
34.833597 5.432966 -24.082934
34.566369 9.686415 -18.590727
34.798684 5.988672 -8.758434
34.789901 6.128467 -14.997836
34.784812 6.209472 -42.621843
34.739906 6.924230 -59.111499
34.847870 5.205772 -30.575562
34.839532 5.338499 -25.742117
34.616175 8.893657 0.467045
34.706894 7.449691 1.508329
34.490168 10.899311 -4.893535
34.703545 7.502990 -53.526453
34.862959 4.965603 -50.808776
34.533024 10.217167 -16.076757
34.628854 8.691851 -43.323638
34.877404 4.735688 -56.776481
34.492468 10.862700 -21.159365
34.629316 8.684496 -26.928824
34.536684 10.158917 -48.400432
34.497783 10.778092 -52.736445
34.456921 11.428492 -26.168073
34.589472 9.318682 -36.189638
34.520181 10.421597 -37.292060
34.538206 10.134694 -37.738382
34.844377 5.261372 -31.075924
34.512477 10.544219 -47.235751
34.470474 11.212774 -32.405873
34.833148 5.440100 -46.696718
34.899499 4.384005 -32.920704
34.548782 9.966344 -34.782767
34.897269 4.419486 -37.617472
34.671587 8.011668 -33.574325
34.629170 8.686818 -60.104092
34.609614 8.998091 -35.290421
34.494891 10.824131 -53.364367
34.835747 5.398730 -35.371353
34.747020 6.811002 -7.531187
34.560925 9.773076 -11.090326
34.675151 7.954946 -59.795479
34.559436 9.796774 -51.732252
34.550587 9.937624 -23.138687
34.729029 7.097363 -41.961588
34.824511 5.577580 -37.039625
34.671715 8.009624 -10.872456
34.857354 5.054827 -40.605909
34.814845 5.731434 -7.930401
34.716589 7.295373 -9.095127
34.723854 7.179731 -27.909234
34.677778 7.913117 -11.258680
34.772284 6.408872 3.865679
34.528277 10.292733 -54.184174
34.466966 11.268613 -21.373908
34.673116 7.987321 -31.622167
34.655888 8.261541 -60.977184
34.555482 9.859712 -46.459448
34.718828 7.259728 -26.296338
34.582230 9.433954 -4.057103
34.481121 11.043312 -39.902875
34.883277 4.642210 -56.278385
34.728988 7.098010 -6.943291
34.485661 10.971047 2.923476
34.748061 6.794428 -11.243550
34.469403 11.229819 -42.481470
34.837754 5.366799 -21.915960
34.781898 6.255856 -12.603059
34.588907 9.327686 -51.743255
34.760592 6.594979 -24.308196
34.518132 10.454198 3.834532
34.748708 6.784129 -48.868909
34.780509 6.277965 -34.377694
34.762549 6.563834 -16.980007
34.473921 11.157912 -54.773120
34.910029 4.216386 -15.874732
34.665549 8.107771 -13.961270
34.697271 7.602859 -36.722804
34.513507 10.527812 -43.469587
34.587058 9.357109 -27.155780
34.497846 10.777090 -14.950620
34.607098 9.038133 -54.546336
34.558359 9.813914 1.707275
34.845530 5.243016 -44.674929
34.516068 10.487059 -19.610081
34.884369 4.624823 -23.093687
34.556002 9.851427 -60.538880
34.541243 10.086351 -27.719586
34.692692 7.675731 -28.689475
34.867369 4.895404 -48.249774
34.556917 9.836861 -38.176007
34.695154 7.636546 -38.247880
34.713655 7.342064 -19.714194
34.522547 10.383930 -8.844262
34.792355 6.089399 -3.357052
34.569726 9.632985 -40.555087
34.748607 6.785744 -33.613956
34.850325 5.166695 -38.980839
34.760669 6.593746 -46.704810
34.903809 4.315393 -49.643879
34.564666 9.713517 -9.080853
34.470806 11.207497 -8.011272
34.455645 11.448810 -43.902488
34.904946 4.297304 -37.453404
34.908897 4.234409 -54.820225
34.611260 8.971890 -31.563778
34.740098 6.921184 -1.678635
34.523036 10.376146 -38.045150
34.671588 8.011654 -5.551777
34.508301 10.610675 -47.772068
34.728874 7.099823 -20.535660
34.500459 10.735507 2.525033
34.552873 9.901229 -8.356582
34.588744 9.330278 -21.529280
34.649356 8.365522 2.251682
34.454828 11.461818 -15.888150
34.758247 6.632300 -52.299392
34.563352 9.734437 -55.062441
34.510722 10.572149 -6.451406
34.775687 6.354705 -6.447413
34.881040 4.677816 -2.752588
34.828031 5.521554 -13.117359
34.832830 5.445160 -3.522149
34.470166 11.217676 -22.801572
34.687892 7.752144 -46.494387
34.658583 8.218647 -26.025019
34.827897 5.523693 -26.390481
34.486119 10.963747 -55.180557
34.629267 8.685273 -4.435572
34.626267 8.733017 -31.540949
34.886154 4.596406 -35.652130
34.792553 6.086253 -15.957724
34.877264 4.737917 -7.756702
34.513069 10.534791 -24.433843
34.890973 4.519714 -7.627195
34.570186 9.625664 -12.729687
34.841644 5.304880 -13.708153
34.646841 8.405540 -29.845615
34.800289 5.963123 -53.820707
34.830663 5.479661 -14.880003
34.576322 9.527989 -6.412345
34.659494 8.204156 -39.974157
34.885084 4.613438 -14.239127
34.898245 4.403961 -50.381441
34.688114 7.748602 -22.617370
34.853802 5.111351 -26.685271
34.717693 7.277796 -20.655816
34.813130 5.758725 -34.894318
34.798316 5.994532 -28.690042
34.869764 4.857283 -8.191272
34.902181 4.341314 -17.484553
34.601463 9.127831 -21.980072
34.482740 11.017537 -52.415455
34.666023 8.100221 -44.424313
34.870381 4.847470 -57.780941
34.500575 10.733658 -47.598814
34.752901 6.717393 -42.201925
34.661753 8.168193 -50.894138
34.573872 9.566991 -43.920276
34.665840 8.103148 -27.554064
34.463363 11.325956 -47.636445
34.909157 4.230271 -38.907314
34.530993 10.249490 -49.732804
34.674102 7.971639 -56.456611
34.654018 8.291306 -48.762382
34.833941 5.427483 -28.123879
34.693815 7.657865 -58.076664
34.517346 10.466712 -20.779392
34.730529 7.073492 -14.459286
34.898563 4.398890 -46.848239
34.630834 8.660326 2.339776
34.734049 7.017454 -51.361188
34.792814 6.082097 -48.291637
34.893113 4.485650 -27.417970
34.521290 10.403940 -9.578070
34.717620 7.278954 -52.610965
34.838225 5.359296 -7.495514
34.603824 9.090246 -48.280880
34.675339 7.951950 -29.993749
34.670888 8.022796 -54.926029
34.527732 10.301394 -44.724320
34.482294 11.024638 -53.688562
34.507406 10.624926 -24.251206
34.820014 5.649156 -1.412128
34.457114 11.425425 -1.247013
34.815013 5.728760 -49.384771
34.737846 6.957018 -19.941481
34.602122 9.117336 -13.703314
34.772833 6.400145 -9.804645
34.457164 11.424632 3.869045
34.801172 5.949060 -51.276596
34.842613 5.289453 -17.963632
34.582945 9.422581 -18.547739
34.732272 7.045747 -30.980141
34.497466 10.783151 -46.747264
34.703443 7.504617 -26.421014
34.874076 4.788656 -18.983773
34.744717 6.847652 -42.351210
34.500902 10.728446 -46.257207
34.596959 9.199519 -2.219862
34.859720 5.017160 -60.392014
34.723065 7.192299 -23.276749
34.471674 11.193666 -29.569892
34.861402 4.990387 1.816987
34.601362 9.129438 -59.162160
34.677835 7.912221 -18.732769
34.453875 11.476973 -18.567706
34.642051 8.481781 -13.360670
34.908701 4.237537 2.130428
34.470940 11.205361 -44.493936
34.705534 7.471331 -56.708491
34.740834 6.909463 -27.597675
34.626392 8.731039 -30.272349
34.808939 5.825446 -16.757449
34.791556 6.102124 -55.721647
34.680009 7.877612 -47.914268
34.588076 9.340907 -13.025516
34.899129 4.389889 -53.262082
34.563779 9.727638 -18.141446
34.772319 6.408318 -10.470773
34.830403 5.483805 -2.169057
34.710094 7.398754 -40.388482
34.851866 5.142165 -54.800131
34.853802 5.111351 -24.670504
34.666211 8.097233 -8.161008
34.455034 11.458537 0.964207
34.456820 11.430107 -31.383502
34.865094 4.931619 -50.291066
34.743942 6.859990 -34.453882
34.636246 8.574192 -34.775519
34.602638 9.109123 -55.348372
34.814719 5.733443 -21.164491
34.838958 5.347634 -52.390248
34.806202 5.869010 -3.930698
34.641811 8.485602 -2.308475
34.727946 7.114602 -48.277279
34.579304 9.480537 -2.332070
34.638179 8.543419 -12.543204
34.609195 9.004758 -15.551715
34.586300 9.369173 -31.736757
34.602876 9.105334 -34.226679
34.547589 9.985344 -56.018542
34.519420 10.433699 -51.596069
34.856641 5.066166 -15.060706
34.548026 9.978378 -13.999291
34.531687 10.238452 -17.494614
34.785016 6.206227 -13.914293
34.829512 5.497986 -18.843365
34.690997 7.702723 -18.120521
34.491067 10.884988 -37.271223
34.466014 11.283770 -13.964176
34.483679 11.002585 -2.777671
34.852188 5.137045 3.780486
34.458356 11.405652 -41.624992
34.548041 9.978146 -7.028356
34.908163 4.246101 -0.128733
34.779793 6.289353 -26.451821
34.842020 5.298896 -10.542100
34.470119 11.218428 -6.558189
34.796378 6.025377 -41.135999
34.462831 11.334431 -48.667372
34.615466 8.904942 -46.745749
34.549735 9.951172 -40.728107
34.665454 8.109288 -7.032051
34.616438 8.889471 -56.086100
34.892495 4.495482 -0.211155
34.683650 7.819660 -43.686551
34.632887 8.627654 -31.207545
34.643814 8.453732 -3.307566
34.781171 6.267426 -9.598485
34.800475 5.960158 -2.469766
34.777244 6.329921 -23.531307
34.547988 9.978994 -27.516822
34.487520 10.941450 -30.995408
34.660597 8.186598 -36.995167
34.876345 4.752544 -40.346474
34.737846 6.957025 -38.975295
34.858060 5.043586 -26.038725
34.860421 5.006001 -57.550133
34.908396 4.242382 -26.224217
34.537875 10.139962 -59.097208
34.456615 11.433366 -39.828596
34.494279 10.833866 -5.282967
34.807322 5.851175 -10.268848
34.551776 9.918685 -13.581856
34.789712 6.131480 -16.238390
34.884374 4.624750 -21.181702
34.747323 6.806184 -8.106303
34.468603 11.242548 -5.270098
34.563993 9.724241 -52.739012
34.641587 8.489177 -14.915389
34.754176 6.697100 -23.374942
34.527550 10.304298 -35.445796
34.528167 10.294475 -31.281212
34.679949 7.878575 -16.679403
34.589022 9.325844 -20.482092
34.718057 7.271998 -6.352965
34.633105 8.624177 -53.849969
34.807680 5.845482 -1.302748
34.482167 11.026656 -10.333704
34.766267 6.504645 -19.111651
34.532638 10.223309 1.493792
34.635075 8.592834 -13.545471
34.493623 10.844309 -23.604360
34.763222 6.553108 -11.141388
34.557566 9.826533 -27.701218
34.494720 10.826850 -13.106309
34.622401 8.794553 -24.589152
34.809620 5.814607 -19.485766
34.780936 6.271160 -16.664838
34.604667 9.076835 -42.475443
34.872404 4.815266 -56.185149
34.621652 8.806478 -42.994569
34.690725 7.707053 -31.135300
34.866017 4.916936 -34.623085
34.616320 8.891356 -37.394593
34.455178 11.456243 -60.891269
34.724438 7.170432 -4.671501
34.654125 8.289606 -20.145728
34.604513 9.079280 -9.870946
34.624347 8.763576 -51.451173
34.498482 10.766965 -43.665694
34.583554 9.412883 -35.128816
34.642298 8.477857 -24.207096
34.696989 7.607339 -34.397330
34.885116 4.612940 -16.688924
34.550662 9.936422 -2.339756
34.818765 5.669043 -1.615088
34.480042 11.060486 -46.107377
34.579894 9.471144 -27.951669
34.873726 4.794229 -52.847322
34.641706 8.487287 -4.782033
34.867630 4.891256 -43.640046
34.805690 5.877148 -38.721410
34.602776 9.106934 -14.295526
34.485526 10.973194 -7.006911
34.708460 7.424762 -14.367304
34.545480 10.018899 -37.424012
34.843867 5.269497 -9.777246
34.893780 4.475033 -15.170302
34.583293 9.417033 -57.852529
34.779168 6.299301 -4.339226
34.752394 6.725464 -31.525088
34.516852 10.474575 -49.500374
34.910318 4.211800 -5.696823
34.836903 5.380345 -55.181198
34.503502 10.687075 -36.053678
34.910305 4.211999 -35.838853
34.863390 4.958743 -12.642308
34.681158 7.859319 -13.017316
34.455255 11.455008 -31.831802
34.860781 5.000267 -1.308659
34.629216 8.686081 -53.468988
34.837965 5.363430 -57.671404
34.657308 8.238950 -22.824889
34.809648 5.814151 -23.399905
34.758316 6.631197 -49.861545
34.456153 11.440716 -57.637710
34.636744 8.566261 -0.579123
34.457091 11.425798 -24.954454
34.611048 8.975270 -30.465586
34.686492 7.774430 -41.219200
34.581717 9.442126 -46.012237
34.559152 9.801290 -41.058626
34.667283 8.080167 -40.171460
34.534215 10.198207 -58.212648
34.591391 9.288139 -19.787557
34.649218 8.367706 -25.112420
34.647777 8.390645 -26.453617
34.590118 9.308403 -6.204512
34.880458 4.687075 -38.659863
34.774049 6.380782 2.802055
34.706507 7.455849 -32.800721
34.855232 5.088592 -24.460944
34.637398 8.555849 -9.521908
34.629921 8.674869 -20.597866
34.670863 8.023188 -25.249673
34.731606 7.056344 -7.140925
34.455111 11.457304 -38.563847
34.889347 4.545581 -22.529677
34.622693 8.789917 -18.590325
34.579219 9.481880 -34.028039
34.833444 5.435400 -52.548337
34.656445 8.252685 -25.583344
34.779834 6.288698 -61.005493
34.455622 11.449175 -43.241959
34.769095 6.459628 3.091272
34.583850 9.408170 -31.438046
34.455033 11.458541 3.039957
34.660447 8.188983 -58.501626
34.676833 7.928167 -8.295889
34.738294 6.949900 -4.301589
34.899094 4.390448 -48.281744
34.739000 6.938657 -24.038923
34.539465 10.114654 -51.592596
34.757661 6.641630 2.059782
34.490957 10.886750 1.160487
34.489336 10.912549 -46.521173
34.520882 10.410428 -24.630755
34.733351 7.028577 -9.997168
34.650128 8.353223 -32.120478
34.650588 8.345911 -8.032466
34.474339 11.151249 3.655515
34.813292 5.756159 -52.843404
34.870254 4.849496 -21.563875
34.800466 5.960308 -3.093403
34.702086 7.526209 -29.487491
34.755145 6.681676 -18.081392
34.901975 4.344594 -52.155231
34.602870 9.105435 -25.071886
34.691539 7.694087 -37.378200
34.652491 8.315621 -47.856030
34.867245 4.897378 -33.197017
34.652669 8.312778 -28.667013
34.602233 9.115570 -6.775447
34.538162 10.135386 -32.915530
34.456017 11.442883 -29.783471
34.454059 11.474055 -0.238687
34.537929 10.139090 0.233681
34.786329 6.185320 -58.782495
34.457178 11.424402 -44.226408
34.763731 6.545015 -1.618730
34.456040 11.442521 -47.884673
34.500332 10.737532 -13.685950
34.641296 8.493812 -59.364234
34.583335 9.416365 3.718846
34.894628 4.461538 -29.154756
34.596759 9.202694 -14.876279
34.766816 6.495902 -26.388514
34.885578 4.605583 -2.969109
34.477832 11.095653 -12.625599
34.857167 5.057802 -1.951023
34.614186 8.925312 -45.646230
34.628762 8.693310 -7.277200
34.559422 9.796984 -24.818986
34.880159 4.691833 0.664658
34.532560 10.224550 -56.468655
34.886138 4.596664 -10.970031
34.582229 9.433967 -48.011254
34.820606 5.639735 -2.269661
34.533040 10.216913 -44.562295
34.454478 11.467378 -19.506986
34.482142 11.027062 -17.303836
34.789935 6.127928 -37.799933
34.633775 8.613523 -54.530640
34.557367 9.829709 -38.943380
34.678497 7.901681 -1.531203
34.837930 5.363995 -25.503379
34.744441 6.852059 2.879442
34.692206 7.683480 -7.999037
34.465972 11.284429 -14.148686
34.815150 5.726579 -58.576332
34.600468 9.143660 -22.170601
34.764621 6.530854 -50.601072
34.597466 9.191442 -36.065590
34.891973 4.503794 -40.100256
34.504787 10.666612 -2.915151
34.712147 7.366078 -38.651779
34.540692 10.095110 0.762272
34.476168 11.122138 -3.137387
34.566725 9.680753 -58.147716
34.720549 7.232342 0.188003
34.676258 7.937318 -35.149671
34.865065 4.932079 -8.933182
34.695540 7.630411 -35.590757
34.797549 6.006730 0.791427
34.676010 7.941264 3.428675
34.618234 8.860881 3.264098
34.676809 7.928541 -55.089818
34.767185 6.490037 -55.824444
34.829594 5.496680 -25.616174
34.756913 6.653536 -12.035747
34.506413 10.640732 -13.524616
34.456004 11.443091 -3.686106
34.512234 10.548075 -42.862598
34.774803 6.368787 -49.215798
34.511514 10.559545 -50.468268
34.668531 8.060301 -14.613477
34.569953 9.629377 -2.808860
34.880596 4.684885 -38.224990
34.787642 6.164429 -19.012756
34.755609 6.674293 -53.788128
34.748751 6.783442 -25.007244
34.556818 9.838435 -57.519814
34.683557 7.821143 -13.413574
34.519732 10.428730 -12.289629
34.712087 7.367021 -31.925859
34.465962 11.284594 -2.190517
34.580914 9.454901 -50.225876
34.607485 9.031968 -4.227290
34.460287 11.374917 0.192757
34.745925 6.828431 -0.510293
34.777172 6.331066 -18.135273
34.662413 8.157683 -13.795136
34.529021 10.280887 -24.195665
34.876937 4.743121 -34.564633
34.880624 4.684436 -42.957215
34.470898 11.206028 -12.020910
34.900453 4.368817 -12.050703
34.878411 4.719657 -48.360326
34.745104 6.841502 -20.430723
34.494144 10.836027 -52.057383
34.804058 5.903134 -55.642043
34.653032 8.307003 -54.483719
34.660489 8.188311 -11.727781
34.531552 10.240590 -36.760593
34.709866 7.402375 -0.848684
34.852945 5.125000 -46.389866
34.488959 10.918552 -44.999162
34.457990 11.411485 -23.422863
34.807013 5.856100 -4.908725
34.785484 6.198767 -17.774905
34.684097 7.812538 -7.863365
