35.213463 11.628127 -52.501571
45.993005 14.923620 -20.127695
43.251040 13.614916 -34.759719
62.933230 49.069050 -18.217717
63.132019 47.598471 -23.607452
61.709760 54.206071 -30.708346
62.581336 51.069659 -17.017134
38.933595 12.342917 1.494820
62.824797 49.685518 -9.723340
60.816172 56.639608 -29.082066
39.095441 12.374014 -14.583724
62.803606 49.805998 -51.268315
60.689496 31.031039 -36.696088
60.859226 31.404323 -60.668389
40.921518 12.724878 -41.882926
37.363216 12.041182 1.825531
62.737914 37.739222 -53.202599
40.632951 12.669433 -25.112181
57.586999 25.385494 -23.590750
47.566473 15.851825 -0.106920
59.992058 29.497174 1.443208
52.758811 19.761223 -7.839566
34.520343 11.494950 -31.402387
60.782548 31.235687 -48.406681
62.415542 51.693723 -4.330745
59.857853 29.202018 -37.683544
62.829629 49.658048 -24.196017
53.513542 20.493727 -52.558054
61.908640 34.311440 -16.267787
63.145248 40.448414 3.423388
46.384953 15.138447 -13.648823
63.324391 44.052491 -57.691108
42.407821 13.286377 -29.804013
47.154334 15.602983 -60.350889
59.846982 29.178109 -21.561063
48.600592 16.476205 2.795416
61.234708 32.403812 -35.775409
38.810090 12.319186 -28.212882
62.604236 50.939463 -32.055692
37.320268 12.032930 -28.985484
56.404688 23.746466 -36.429048
57.003386 24.529519 -5.200340
59.945085 58.530871 -30.964435
44.503943 14.190781 -0.485734
57.278464 24.932970 -51.420870
46.732779 15.348457 -32.685236
61.058724 31.907733 -58.069697
58.482241 26.725849 -24.100567
63.099280 39.898545 -16.409347
55.222076 22.296726 0.161982
39.686876 12.487653 -59.594720
56.971311 24.482474 0.500927
57.134192 24.721370 -55.092725
63.284595 42.115274 -8.309614
62.565019 36.828603 -13.235631
50.425493 17.802657 0.448541
52.883365 19.869336 -11.211000
41.713049 13.015676 -9.091023
60.222509 57.928540 -17.196768
55.087535 22.131793 -9.568640
41.611593 12.976147 -31.939393
60.365741 57.617562 -38.498884
44.328214 14.104296 -40.517457
63.189386 46.950274 -53.550080
55.117293 22.168273 -56.667842
61.118681 55.846827 -30.843483
63.174895 40.803043 -47.233345
42.286542 13.239123 -26.838104
35.135824 11.613209 -4.673643
63.137825 40.359612 -6.233168
45.359936 14.612056 -28.179171
51.078318 18.302549 -42.983162
63.229395 41.454972 -49.519063
54.666808 21.682868 -24.364776
58.678979 27.075440 -9.804782
62.421226 36.277168 -38.831051
62.323028 35.900585 -49.297624
52.217487 19.291352 -51.768196
51.874213 18.993388 -56.154103
46.945254 15.476745 -37.977409
61.258603 55.458420 -25.866199
62.726211 50.246009 -58.000337
49.344674 17.016214 -8.685642
44.433841 14.156281 -12.497400
61.840606 34.111773 -47.248307
62.897984 38.676038 -23.133798
62.068994 52.996666 -51.996923
62.598956 50.969484 -20.046671
63.286363 42.136427 -56.687449
50.779402 18.060174 -46.047762
50.716899 18.014694 -55.109655
39.374147 12.427565 -35.131927
63.273271 46.002451 -60.821529
60.095295 29.724220 -48.751186
63.315096 45.529867 -43.411576
61.441234 32.985988 -1.922717
48.729927 16.568902 -38.987438
63.309831 42.417142 -47.810602
63.224920 41.401445 -29.514391
62.081541 52.949492 -20.856913
63.322645 44.769461 -7.861449
40.364050 12.617766 -51.369007
39.060248 12.367252 -40.768341
47.885627 16.044524 -6.430281
43.098609 13.555525 -1.177297
61.379180 32.811064 -32.506416
52.751695 19.755046 -47.588027
61.921513 34.360808 -56.469301
61.438717 54.958449 -12.183312
63.204425 46.780353 -7.276336
62.179449 52.581378 -11.936342
47.546543 15.839792 -1.822589
61.680062 54.288509 -26.848858
42.231633 13.217729 -21.932587
63.078014 39.729670 -4.403498
61.726782 33.790916 -11.495566
60.628272 57.047568 -49.322518
36.740780 11.921587 -7.765851
63.112553 47.818422 -50.932982
56.062838 23.327399 -43.047010
48.789333 16.612128 -31.149790
51.001324 18.235718 -16.369911
51.536076 18.699885 -35.328326
63.147491 40.475234 -30.929791
63.321408 45.277113 -59.035618
41.555850 12.954427 -17.114919
62.152880 52.681271 -25.748577
59.112520 27.845818 -56.294437
59.781296 58.886481 -29.101891
63.137462 47.536972 0.273605
63.171999 47.146737 -27.996410
56.585216 23.967773 -1.321560
60.020624 58.366862 -27.364991
50.077908 17.549742 -15.253334
61.964989 53.387698 -5.083682
57.326202 25.002987 -45.480871
60.795003 56.685570 -27.085940
63.327551 42.755646 -32.327863
58.021722 26.023095 -5.748596
45.129849 14.498820 -51.509901
63.294728 45.760009 -34.795907
48.132123 16.193353 -4.684242
63.307456 45.616197 -39.697377
35.167133 11.619225 -11.154666
62.164283 35.291812 -36.498001
58.546905 26.840752 0.921818
62.260188 35.659599 -19.032996
61.026602 31.817183 -39.923242
46.270773 15.069507 0.520881
60.926766 31.552863 -11.434718
53.567948 20.549824 -19.088878
44.614752 14.245316 -34.110534
62.610046 37.001277 -37.127245
56.608631 23.996477 -56.704947
47.865101 16.032131 -57.626203
54.094368 21.092621 -22.520454
61.630498 54.426091 -24.679213
61.142310 32.143351 -46.768545
47.925034 16.068317 -52.432813
49.116643 16.850290 -19.552893
44.021901 13.953545 -18.476937
62.660014 50.622353 -37.127286
60.864749 31.416471 -7.975286
57.836741 25.751787 -0.577903
62.735071 50.195634 -11.379344
63.105233 47.901131 -59.808912
61.957396 34.498416 -21.862235
61.266019 55.437837 -58.609413
41.934770 13.102064 -46.038333
59.749677 58.955129 -6.796272
58.289052 26.415184 -56.122236
54.478476 21.488677 -53.350541
60.687608 56.918740 -44.846747
63.091380 48.057653 -45.533411
62.898700 38.680230 -31.937694
34.463992 11.484123 -15.957402
62.523282 36.668546 -15.222797
49.855969 17.388250 -53.813619
59.815255 58.812750 -12.085389
63.323852 44.274040 -41.726170
63.014215 39.356286 -53.918873
63.326809 43.060198 -2.719860
35.290897 11.643005 -40.113072
37.951700 12.154254 -22.927159
51.137367 18.353803 -19.902639
60.845382 31.373878 -55.765137
49.620825 17.217151 -21.095493
57.548158 25.328527 -42.015399
63.323972 44.224768 -19.472759
45.163461 14.515362 -31.281089
63.324042 44.195970 -14.482926
34.690221 11.527590 1.272714
36.764319 11.926110 -36.948264
62.905990 38.722891 -8.724160
53.883021 20.874699 -61.055384
58.899591 27.467455 -4.569864
40.285768 12.602725 -11.997625
37.051017 11.981196 -13.483500
59.627775 28.761397 -50.846595
53.083954 20.050775 -41.453199
47.670259 15.914489 -11.245788
47.371844 15.734312 -30.448922
62.410618 36.236486 3.399836
63.078007 48.208757 -15.147389
62.980820 39.160841 -29.904808
53.289938 20.263167 -9.273452
54.727494 21.745441 -36.659200
61.814477 34.038120 -24.839251
56.923764 24.412737 -43.794838
60.678749 56.937974 0.497358
47.430660 15.769824 -47.104249
60.338195 57.677370 -7.664874
40.555275 12.654508 -15.325479
52.654092 19.670326 -37.498249
45.920192 14.887786 -22.087937
63.324447 44.029729 -48.895708
57.431038 25.156749 -18.593552
62.822959 49.695971 -30.237007
58.296606 26.426264 -30.949911
61.868533 53.750351 -3.129480
61.294283 32.571749 -3.481726
62.160612 35.277732 -23.332152
43.493191 13.709264 -50.237536
63.129544 40.260557 -26.587264
58.786834 27.267093 -35.344414
61.615898 54.466619 -42.346133
63.078157 48.207061 -39.935918
49.821404 17.363100 -1.245667
39.690247 12.488301 -44.270393
63.227577 46.518757 -36.367711
57.430626 25.156144 -53.185497
48.950283 16.729241 -51.432319
38.194857 12.200975 -50.972379
63.323367 44.473016 -0.168528
50.166751 17.614387 -11.948959
63.148726 47.409699 -43.565997
51.827020 18.952424 -12.231666
63.322311 44.906362 -21.382424
53.969138 20.963495 -47.546237
61.679620 54.289736 -40.351075
38.277191 12.216795 -58.487959
50.478872 17.841498 -6.950007
44.149297 14.016243 -23.334083
46.396958 15.145695 -52.726579
59.732170 58.993140 -50.617992
60.304664 57.750169 -56.125748
52.839873 19.831585 -57.401749
60.791632 56.692889 -53.818739
59.953041 58.513596 -14.100983
47.083952 15.560488 -56.091704
40.440433 12.632442 -13.681366
38.832206 12.323436 -33.311933
53.856176 20.847019 -16.053486
54.215449 21.217467 -45.747512
61.868899 53.748977 -58.318056
62.361081 36.046516 -58.972245
49.993427 17.488270 -34.291135
51.999859 19.102450 -9.252257
39.527691 12.457067 -38.809264
62.125652 52.783642 -13.567588
50.210165 17.645976 -31.193242
37.912450 12.146713 -46.728460
62.983895 48.781009 -56.636307
50.188232 17.630017 -59.147846
38.605525 12.279881 -42.471466
60.061488 29.649869 -15.630354
61.979461 34.583032 -54.794418
55.766595 22.964240 -8.119861
61.429265 32.952248 -5.373965
60.707922 31.071563 -45.433118
59.935385 29.372534 -28.577250
63.326232 43.297155 -28.450957
40.274742 12.600606 -26.807363
52.139652 19.223791 -44.261899
55.224125 22.299237 -44.217728
62.562797 51.140077 -48.015171
42.680504 13.392621 -24.864075
63.325927 43.422128 -36.231745
60.675187 56.945708 -10.748472
62.209904 52.466876 -23.792727
47.009560 15.515572 -28.834339
63.321258 45.338547 3.729179
50.922213 18.167049 -51.550599
50.402305 17.785784 -18.573089
63.326385 43.233986 -39.766321
58.677957 27.073625 -37.309410
60.453927 57.426098 3.845571
63.312178 42.445214 -61.077714
59.807385 58.829838 -15.828756
47.594948 15.869017 -17.182318
62.998985 48.695219 -2.375730
51.299741 18.494745 -47.494807
62.472303 36.473044 -4.117000
62.429960 36.310663 -44.267510
61.585365 54.551375 2.058144
62.784191 38.010061 -35.003748
55.267003 22.351800 3.859362
45.731482 14.794912 -29.795333
54.199036 21.200545 -35.271965
63.219882 41.341174 -3.204508
44.215227 14.048690 -21.262271
62.754684 50.084132 -38.982635
63.236883 46.413605 -46.218498
62.642009 37.177936 -30.776757
55.479150 22.611867 -1.569098
63.142953 40.420956 -14.505645
62.495185 51.394285 -2.111792
62.867242 38.496119 -37.921386
62.983611 39.177170 -18.035294
36.503971 11.876086 -59.383456
57.526053 25.296106 -10.619857
34.490399 11.489196 -46.017482
45.503082 14.682506 -56.643755
34.568801 11.504261 -18.066975
62.916878 49.162019 -4.156200
52.579055 19.605194 -4.028675
55.630353 22.797225 -50.929546
60.613242 30.863335 -38.663948
60.715728 31.088732 -25.566130
62.865288 49.455322 -41.602697
58.882472 27.437037 -48.719755
63.327648 42.715629 -11.464034
40.549159 12.653333 -28.837305
38.402294 12.240832 -53.026271
48.264766 16.273440 -36.984388
61.815050 34.039734 -35.557390
60.536584 30.694742 -17.138972
59.752120 58.949825 -43.985612
62.751726 50.100950 -22.227934
62.165919 52.632249 -43.260136
40.327232 12.610692 -10.318712
57.192185 24.806426 -13.817673
59.310552 28.197709 -8.181486
61.282912 32.539694 -42.595893
52.430528 19.476272 -1.839850
62.196156 35.414041 -26.451164
47.795757 15.990262 -34.354401
42.763814 13.425080 -7.254581
61.519761 54.733481 -5.909785
53.779919 20.768390 -39.962972
49.892329 17.414707 -35.897854
36.397197 11.855571 -43.505327
63.222233 41.369302 -41.836908
46.766987 15.369111 -27.068044
63.240708 46.370383 -41.558348
58.486701 26.733775 2.833791
49.813215 17.357141 -17.112038
35.132596 11.612589 -49.056246
38.591551 12.277196 -12.905188
53.073329 20.039819 -43.232311
62.674766 37.369648 -51.204503
62.294969 52.147049 -35.568861
38.786023 12.314562 -36.857356
59.725644 59.007309 0.475613
60.332072 57.690663 -43.067072
48.524858 16.430479 -29.095656
63.281250 42.075258 -38.203228
54.662719 21.678651 -13.019861
62.938023 38.910366 -58.416842
62.402385 51.743190 -40.760293
61.408169 32.892780 -14.670574
61.465045 54.885367 -56.879988
63.160847 40.635002 -45.304543
60.301222 30.177112 3.685925
52.326545 19.386014 3.508905
59.980634 58.453688 -57.730729
43.241292 13.611118 -13.838120
50.756741 18.043685 -10.263382
36.049467 11.788757 -9.521264
40.453537 12.634960 -18.350349
61.046185 31.872385 3.862544
61.939205 34.428654 -4.613599
61.939681 53.482851 -18.936969
55.521276 22.663509 -35.228137
63.085151 48.128041 -9.256139
54.080614 21.078438 -7.588498
37.686629 12.103324 -9.552809
63.100712 47.952212 2.107200
58.591941 26.920780 -59.115984
59.763804 29.003112 -17.394239
58.692378 27.099251 -11.556364
61.763198 54.057733 -16.052245
62.022312 34.747365 -43.855539
63.157385 47.311854 -11.907776
36.603854 11.895278 -1.948021
62.743010 37.769045 -24.475005
53.984809 20.979653 -10.725861
62.875474 38.544297 -1.188409
44.979393 14.424773 -25.893637
62.475315 36.484593 -6.079023
63.112265 40.053865 -34.631572
63.196323 46.871899 -33.600657
61.515071 33.194125 -45.348629
51.986125 19.090529 -18.533933
46.463371 15.185794 -6.323151
59.068322 27.767281 -6.277413
63.097975 39.882929 -60.092264
38.814112 12.319959 -5.190166
50.991916 18.227551 -36.867355
37.827764 12.130441 -56.639356
61.416663 32.916725 -7.558296
57.003024 24.528988 -24.980428
55.288540 22.378202 -59.823272
59.775839 58.898328 -59.512885
57.883627 25.820554 -39.731154
53.925600 20.918603 -33.063596
57.778588 25.666495 -47.457489
62.342371 35.974766 -47.476144
38.246101 12.210821 -48.734804
57.018554 24.551764 -34.619103
56.162760 23.449892 -53.475952
44.916507 14.393823 1.327966
63.316576 42.497825 -43.086436
49.435021 17.081953 -5.165872
62.950265 48.972205 -26.348751
63.275282 45.979731 -48.641733
62.380586 36.121317 -52.497295
48.843174 16.651304 -33.115236
62.626651 37.088049 -11.560431
48.839730 16.648798 -49.259995
43.112252 13.560840 -31.411643
37.058976 11.982726 -26.602800
62.740416 37.753863 -28.875763
54.640875 21.656127 -30.374824
59.828012 29.136389 -19.547514
61.179611 32.248500 -18.211623
38.889322 12.334410 -3.416686
61.576770 33.368049 -53.147387
57.943885 25.908934 -35.935680
46.475060 15.192852 -16.203793
53.801280 20.790415 -3.896749
61.175700 55.688549 -39.534442
37.914432 12.147094 -15.912664
62.234834 35.562369 -51.004067
43.258000 13.617627 -47.210043
56.420809 23.766229 -10.005610
53.129480 20.097718 -35.837505
63.309117 42.408604 -5.507207
34.902548 11.568387 -58.063374
59.142608 27.899283 -45.257012
50.824844 18.093240 -3.727318
61.049756 31.882452 0.412457
54.054876 21.051900 3.609750
59.894657 58.640357 -48.548251
39.499463 12.451643 -47.382460
62.019656 53.182164 -55.914804
60.803314 56.667525 -8.906110
59.355326 28.277271 -47.236197
62.343396 51.964977 -38.688144
55.801356 23.006853 -48.461126
62.766295 37.905322 -41.190458
48.434756 16.376077 -25.944788
59.922905 29.345085 -52.786030
53.908775 20.901254 -56.566699
63.327831 42.640802 -50.633686
61.240086 55.509824 -60.886965
58.891957 27.453891 -0.783835
61.876829 34.213883 0.138105
61.504920 54.774680 -28.777436
52.627899 19.647591 -60.679029
59.043516 27.723202 -25.886991
55.732397 22.922318 -18.402535
61.920715 53.554161 0.446039
60.356935 30.299643 -6.627788
61.208720 55.596890 -17.594877
56.129887 23.409593 -21.155696
59.331301 28.234580 3.426795
62.497546 36.569849 -17.789228
59.802018 29.079220 -32.521378
62.530593 36.696580 -42.607472
48.254370 16.267164 -24.241066
52.903028 19.886403 -33.829700
62.970494 39.100403 -36.338010
52.152459 19.234907 -46.041615
61.564320 33.332952 -20.035432
38.387140 12.237920 -55.032814
63.322419 44.862017 -33.242321
61.837321 34.102513 -41.340224
52.963232 19.938661 -55.252519
62.801249 38.109895 -21.563390
49.026540 16.784728 0.958629
63.326285 43.275084 -33.896815
58.632179 26.992280 -61.065027
36.390641 11.854311 -57.538881
63.256972 46.186618 -14.989176
61.024687 31.811785 -43.983764
62.967057 39.080290 -43.807921
60.160542 29.867718 -34.743909
48.892132 16.686928 -46.175739
43.255947 13.616827 -58.497830
49.935064 17.445803 3.266001
62.391103 51.785609 -10.137570
63.325831 43.461431 3.705080
48.150547 16.204477 -42.602281
60.388757 30.369629 -42.792184
46.664843 15.307439 -4.674514
63.276553 42.019078 -18.023694
54.444458 21.453601 -20.870967
63.321895 45.077361 -54.427067
41.290276 12.850953 -0.324259
63.282734 45.895524 -11.016936
61.633435 54.417939 -13.841814
56.609956 23.998102 3.704997
60.430172 30.460710 -40.909434
62.693609 37.479928 -7.665644
61.223224 55.556631 -0.289315
62.133073 52.755741 -29.733827
61.806341 34.015185 -51.282784
62.607869 50.918811 -60.528460
43.269699 13.622186 -56.386855
44.460127 14.169217 -10.595865
49.892203 17.414616 -37.944524
54.247533 21.250550 -58.171255
34.475896 11.486410 -26.601186
62.654735 37.252414 -45.751683
62.540474 51.224007 -24.701467
62.989832 48.747256 -54.887564
49.782526 17.334811 -60.876913
37.055047 11.981971 -4.025615
62.924168 49.120574 -31.732379
60.707164 56.876281 -22.913961
52.420657 19.467704 -26.003263
62.129906 35.159979 -60.895138
62.178323 35.345653 -1.289781
60.779836 31.229723 -53.833759
46.022785 14.938277 -41.613253
44.388060 14.133750 -45.884851
60.018009 29.554247 -45.926793
54.649506 21.665027 -17.633497
61.898263 53.638575 -49.461059
62.706099 37.553022 -48.452406
63.253834 46.222070 -0.765074
47.384062 15.741689 -22.168109
52.159098 19.240670 -58.782423
61.283300 32.540787 -16.497042
48.359751 16.330791 -59.352895
63.324223 42.589295 0.928214
60.558964 57.198047 -1.233671
62.051278 53.063272 -45.388588
56.673255 24.075698 -17.621533
61.651436 54.367970 -36.356763
60.556039 57.204396 -35.848379
61.961831 53.399575 -32.953688
59.866004 29.219944 -3.770900
59.166072 27.940976 -22.834765
54.682862 21.699421 -49.235849
53.750353 20.737904 -25.505842
63.198003 41.079460 -39.871171
59.637715 28.779060 -54.771476
60.788140 31.247986 -15.349071
58.248089 26.355105 -44.651124
63.325594 43.558673 -16.702119
63.235417 46.430166 -22.343494
61.062216 56.003565 -34.468110
45.693673 14.776304 -1.425932
60.101460 29.737778 -13.904367
62.879563 38.568230 -14.213492
63.151695 47.376154 -47.822779
63.296496 45.740036 -29.196126
59.773621 29.020557 -57.809393
46.209176 15.032316 -10.096746
56.312228 23.633122 -23.357112
41.247679 12.834356 -47.866142
63.327388 42.822290 -26.781474
38.750194 12.307678 -25.611321
59.091216 27.807962 -38.863177
58.500081 26.757550 -19.457262
48.712359 16.556119 -56.203338
49.977042 17.476348 -47.609043
53.710016 20.696312 -31.327985
61.540705 33.266385 -59.041528
61.191817 32.282906 -23.063626
61.400636 32.871545 -56.835105
41.000794 12.740111 -54.748446
60.034948 58.335763 -52.138618
45.227598 14.546927 -43.314729
63.316906 42.501776 -19.928713
63.324079 44.180550 -60.603694
61.298137 55.348681 -37.534854
62.898182 49.268306 1.093829
62.890841 38.634233 -5.611613
63.324957 43.820375 -10.073113
62.628850 37.100923 -9.329764
62.420529 36.274494 -40.872793
63.095718 39.855936 -21.992285
54.618227 21.632775 -28.718290
63.287449 45.842249 -51.640933
62.369333 51.867457 3.555395
44.102531 13.993227 -29.862850
58.073042 26.098366 -7.363688
61.531991 54.699532 -20.418716
53.599494 20.582352 -1.254700
56.879124 24.347265 -3.389086
34.621901 11.514463 -22.053487
37.162058 12.002532 -44.939496
63.146499 40.463379 -8.146628
63.163625 47.241357 -38.272180
51.491973 18.661603 -32.275846
55.535031 22.680371 -39.993244
62.005602 53.235005 -53.785857
61.362624 32.764393 -54.761376
58.379884 26.548406 -2.479574
59.923246 58.578286 -41.802342
63.327350 42.838033 -0.833523
63.321918 45.067830 -27.491889
54.415536 21.423779 -51.069727
63.125710 47.669754 -25.259346
51.191209 18.400538 -60.266301
55.820133 23.029872 -14.144350
62.495689 51.392388 -45.565582
53.697891 20.683810 0.573934
61.910469 53.592681 -22.501106
55.832492 23.045023 -29.750424
44.868563 14.370228 -36.721985
62.905241 38.718512 -12.327756
57.059071 24.611190 -22.069471
62.620245 37.050562 -55.609224
60.939099 56.345321 -57.245469
61.954856 34.488674 -39.656100
61.123150 32.089343 -9.606937
35.955251 11.770655 -47.222086
62.071321 52.987916 -17.421247
63.325427 43.627590 -55.673616
61.005090 56.162139 2.388025
40.442971 12.632930 -3.864893
50.390900 17.777486 -56.756807
60.791784 56.692559 -12.697317
59.821112 29.121214 -41.691341
37.361946 12.040938 -38.534482
62.802605 38.117830 -4.031492
62.421391 36.277801 -54.075178
63.276346 45.967706 -23.866472
46.297427 15.085600 -18.120627
60.854031 56.557411 -32.390307
60.542274 57.234282 -24.923312
57.627642 25.445105 1.599551
52.177437 19.256588 -53.827121
62.148176 35.230041 -31.529637
42.421642 13.291762 -42.443515
48.697628 16.545400 -12.918868
62.808868 49.776079 -45.277283
51.943397 19.053441 -22.485415
60.504532 30.624250 -50.161582
62.039814 53.106376 -47.317650
63.324198 44.131929 -44.749476
55.656327 22.829065 -38.003917
50.019723 17.507404 -13.538697
62.750760 50.106440 2.912607
62.072022 34.937999 -30.006962
62.647096 37.207705 -26.236104
60.974681 31.670824 -13.784132
62.870860 49.423639 -35.111015
54.926474 21.950610 1.995087
34.565748 11.503674 -2.805066
59.644153 28.790499 -1.958241
53.040112 20.005569 -13.339868
36.690198 11.911868 -34.063773
63.034519 39.475111 -2.699644
57.120356 24.701077 -8.767494
40.587443 12.660689 -33.134868
62.126558 35.147140 -7.339898
39.750062 12.499794 -16.732365
35.276027 11.640148 -41.869836
60.863193 31.413047 -29.418520
51.093255 18.315514 -1.704175
62.759097 37.863198 3.594363
49.555628 17.169712 -43.513949
63.033656 39.470065 -25.209064
63.326650 43.125266 -30.706475
61.617683 54.461664 -46.303011
57.032352 24.572003 -15.710628
59.743162 58.969275 -37.751228
60.948419 56.319451 -51.498923
63.132108 40.291224 -37.540154
61.519675 54.733721 -50.528986
35.074652 11.601455 -33.549924
55.877627 23.100352 -6.054109
35.572846 11.697179 -60.983000
44.681900 14.278362 -48.865468
59.776882 29.026352 -39.839800
57.206258 24.827067 -27.098788
41.685982 13.005130 -58.485084
43.205495 13.597170 -15.969170
63.322055 45.011524 -31.384046
44.508023 14.192789 -2.366690
59.311383 28.199186 -16.055560
60.882048 56.496583 -41.617605
60.667239 56.962964 -14.881417
58.068590 26.091837 -25.954553
52.235332 19.306841 -29.149343
56.090718 23.361577 -12.356682
63.323952 44.232649 -37.931263
37.414540 12.051044 -40.838822
62.793260 38.063135 -16.471641
58.861981 27.400624 -28.034338
63.184335 40.915967 -51.991611
46.454137 15.180219 -3.001386
34.833545 11.555129 -38.261095
61.862717 34.174102 -33.517878
63.155749 40.574023 -23.677803
63.322600 44.787668 -2.339421
63.079034 39.735640 -50.629104
54.668076 21.684175 -5.678713
59.783303 58.882123 -18.706122
56.775885 24.201510 -32.298122
61.148840 55.763109 -55.570239
59.011851 27.666934 -13.475436
46.661458 15.305395 -35.822960
60.507245 30.630217 -20.212547
58.251464 26.360054 -51.973985
61.441611 32.987051 -48.757733
60.560148 57.195476 -19.792605
37.178732 12.005735 -5.982767
41.689842 13.006634 -38.342327
54.939415 21.963954 -3.821529
60.499483 30.613146 -9.994883
44.643540 14.259483 -53.476040
53.197888 20.168253 -27.903651
61.735478 54.134680 -10.061158
50.207541 17.644067 -24.586290
53.305649 20.279367 -50.567331
54.024523 21.020602 -38.130431
62.975827 39.131616 -48.580471
59.805451 58.834036 -35.565075
51.039402 18.268769 -29.602423
60.596133 30.825706 -23.951785
63.326220 43.302061 -6.892337
61.309902 55.316023 -7.537593
63.129771 47.623867 -3.658273
61.254735 55.469158 -48.558362
44.532089 14.204633 -59.557843
44.007660 13.946536 -42.249069
61.012372 56.141927 -46.678549
58.821039 27.327874 -40.747145
55.933924 23.169366 -4.274018
53.184777 20.154734 -5.586745
39.975993 12.543204 3.557420
44.359912 14.119896 -8.022736
63.229687 41.458463 -25.497683
63.282336 42.088250 -58.531191
54.968119 21.993552 -54.894577
42.913319 13.483331 -10.093654
62.638875 50.742536 -52.626298
63.038968 39.501152 -41.370358
63.323902 44.253215 -12.037392
62.738709 50.174954 -0.563985
46.022798 14.938283 3.253381
61.489711 33.122640 -38.445214
55.098211 22.144881 -46.806756
62.638524 37.157536 -57.634011
59.715779 28.917775 -5.335766
61.760855 54.064239 -59.994660
55.261567 22.345137 -22.658479
39.981440 12.544251 -45.833280
41.782255 13.042641 -34.665911
56.793501 24.223105 -50.089063
62.885292 49.341591 -43.715131
63.292081 45.789921 -17.337716
36.372281 11.850783 -20.124816
58.630719 26.989686 -50.451277
39.508454 12.453371 -23.419704
62.554944 51.169604 -14.056437
40.818805 12.705143 -56.366665
57.088934 24.654989 -29.008574
55.389824 22.502364 -11.163046
60.705150 31.065467 -3.587947
62.379074 51.830836 -21.930723
45.106345 14.487252 -38.640545
38.414859 12.243246 -7.637593
37.829224 12.130722 3.699264
62.430674 36.313400 -34.495667
56.022380 23.277803 -45.689567
59.728021 28.939528 -24.237736
55.963015 23.205028 -28.011747
36.684662 11.910805 -51.768038
59.994488 58.423609 -45.450899
63.059739 48.349817 -20.412854
42.831005 13.451260 -19.526784
47.950714 16.083822 -40.936400
36.412705 11.858550 -18.177528
39.502832 12.452291 -30.123890
62.858436 49.494275 -47.032101
34.748784 11.538843 -36.417105
55.012977 22.040395 -15.300814
34.686016 11.526782 -50.848921
63.320698 45.466569 -25.731084
60.578241 30.786358 -52.192743
60.312588 30.202110 -2.013251
51.259767 18.460047 -40.988546
63.037948 39.495183 -39.426201
34.544754 11.499640 -0.612156
34.779167 11.544681 -13.318642
50.294087 17.707041 -39.655641
42.076991 13.157477 -36.488784
59.588343 28.691328 -59.488873
56.266170 23.576660 -60.739226
43.124974 13.565797 -37.997696
39.984132 12.544768 -53.427245
53.501206 20.481007 -29.593479
35.304626 11.645643 -28.212017
60.560274 30.746842 -27.871855
59.129883 27.876672 -18.501661
62.842971 49.582197 -13.630227
44.891250 14.381393 -15.049006
59.976967 58.461650 -54.267566
62.941511 38.930781 -45.435466
57.198728 24.816023 -59.236031
60.673607 30.996094 1.953507
60.229981 57.912319 -61.002760
62.083366 52.942631 2.107878
63.143464 47.469158 -17.192045
43.833143 13.860648 -27.072747
34.618915 11.513890 -24.982062
38.079985 12.178903 -60.943319
55.347127 22.450023 -32.091209
54.358735 21.365210 -41.929603
46.438782 15.170947 -39.803447
51.578955 18.737103 -38.596536
63.322273 44.922040 -6.267709
59.834928 58.770036 -25.348785
60.136890 58.114432 1.875685
62.728181 50.234808 -55.751300
45.997211 14.925690 -45.010118
63.200209 41.105851 -53.900388
36.150565 11.808182 -16.528916
63.277954 42.035838 -15.330292
48.191531 16.229223 -44.452940
51.210824 18.417564 1.972282
60.827472 31.334489 -31.339242
63.313080 45.552644 1.395856
63.322346 44.892044 -4.278549
63.308146 42.396989 -21.881375
62.821761 38.229938 -10.401402
38.338400 12.228555 -20.094928
41.369601 12.881860 -20.012866
47.073479 15.554165 2.119960
44.281332 14.081223 -4.779559
62.965422 48.886034 -52.870856
62.637583 37.152034 -60.438524
61.721041 54.174757 -1.319063
62.594083 50.997185 -8.265290
63.180849 40.874267 0.412151
63.285207 45.867588 -56.203932
55.925955 23.159597 2.375868
41.598474 12.971035 -43.974831
62.067193 34.919477 -14.598782
39.845129 12.518060 -49.280325
37.018104 11.974872 -11.817409
63.327361 42.833558 -23.846826
62.755412 37.841631 -19.174858
62.217479 52.438395 -60.130638
63.257676 41.793274 -35.432603
63.181623 47.037991 -13.472926
63.327039 42.965793 -53.848247
62.628536 50.801312 -28.545179
63.159216 40.615494 -11.246752
58.874955 27.423679 -54.595557
63.240438 41.587064 -13.394904
34.824875 11.553463 -55.457447
63.066851 48.309383 -22.100241
62.541873 51.218747 -50.334500
63.150477 47.389918 -30.021477
60.600370 30.835025 -21.960996
59.734151 58.988838 -39.523340
42.057068 13.149715 -11.770122
34.457462 11.482868 -7.991437
41.905139 13.090519 -50.959979
59.226903 28.049070 -33.913042
61.656304 33.592245 -28.046177
61.559570 33.319565 -30.406239
37.205079 12.010798 -24.344762
62.339055 51.981295 -15.536740
61.200337 32.306925 -51.587985
40.678741 12.678231 -7.437081
62.106009 35.068334 -3.059544
37.780766 12.121411 -35.644456
51.696965 18.839537 -14.121823
61.224860 55.552089 -2.532382
59.968287 29.444894 -26.169889
59.156212 27.923456 -29.994011
52.057997 19.152914 0.336735
62.925603 49.112414 -61.000889
50.066025 17.541095 -41.937170
46.221317 15.039646 -23.994983
57.819653 25.726725 -32.761428
51.007991 18.241504 -5.396913
60.862898 31.412400 -5.641050
57.325559 25.002044 -30.771801
63.325522 43.588593 -25.367642
61.602739 33.441251 2.914078
58.517798 26.789032 -43.005774
42.701168 13.400672 1.103776
63.179170 40.854178 -19.712268
62.796548 49.846121 -33.300357
49.467681 17.105718 -3.254284
52.265827 19.333310 -39.970400
34.479049 11.487016 -20.469231
52.998151 19.968970 -15.094977
63.268621 46.054989 -19.044176
41.152888 12.797423 -2.178153
60.886695 56.486494 -4.385434
58.292843 26.420745 -29.353808
62.415453 51.694057 0.767598
47.536009 15.833431 -19.416364
61.631076 54.424487 -44.409359
34.638571 11.517666 3.544375
42.968818 13.504955 -39.679146
61.361292 32.760638 -26.328910
57.558586 25.343821 -38.073144
63.323783 44.302015 -52.530675
60.494370 30.601901 -59.323906
39.930572 12.534477 -20.967883
59.964507 58.488701 -10.557495
62.548032 36.763460 -0.200232
51.597199 18.752939 -24.174577
46.722290 15.342124 -8.490117
47.064347 15.548651 -49.120877
60.060063 29.646736 -44.228646
62.463630 36.439783 -21.983749
40.979714 12.736060 -39.862074
54.541671 21.553838 -26.928685
62.627305 50.808315 -26.773468
42.834068 13.452453 -4.259583
49.367347 17.032712 -10.686871
45.924049 14.889684 -54.628332
62.050346 53.066778 -8.816762
55.929764 23.164266 -55.231484
63.145201 47.449523 -32.096863
62.172223 52.608545 -1.065602
62.409420 51.716739 -56.956203
56.040878 23.300479 -16.369534
62.404830 51.733997 -54.982033
42.626982 13.371767 -54.272327
58.307226 26.441840 -17.002104
36.609785 11.896418 -55.225242
62.114936 52.823933 -37.055771
36.865548 11.945560 -32.245572
42.065986 13.153189 -5.755417
50.378785 17.768670 -49.447040
51.331893 18.522652 -27.537327
45.442761 14.652819 -61.012250
61.350723 55.202709 -53.361361
59.939374 58.543270 -22.971818
62.216018 35.490209 -12.248388
62.850657 38.399052 1.891201
63.097942 47.983509 3.730274
62.962516 48.902554 -37.264776
51.833097 18.957699 -49.124874
62.143279 35.211264 -10.521615
35.735653 11.728461 -23.369090
59.894489 29.282591 -0.342492
58.264701 26.379469 -21.905695
46.775575 15.374296 -43.584264
62.725172 50.251916 -5.280613
62.075097 34.949791 2.063170
61.776137 54.021818 -38.583336
61.970243 34.547683 -37.972738
41.889146 13.084288 -52.698140
57.895259 25.837614 -15.104572
62.280531 52.201335 -27.902081
53.380190 20.356226 -23.921578
41.656859 12.993783 3.039149
48.163934 16.212560 -14.479191
62.876401 38.549725 -27.088783
38.939865 12.344121 -0.797212
62.960880 48.911854 -6.381432
62.424846 51.658743 -6.131199
59.758543 28.993764 -9.874164
52.504421 19.540411 -16.829513
60.485905 30.583284 -32.990576
57.723668 25.585944 -49.025626
36.893789 11.950986 -30.587761
62.501293 36.584218 -20.428993
62.747263 50.126322 -15.465135
50.239078 17.667014 -22.598585
46.842675 15.414810 -50.699088
47.305031 15.693972 -54.086935
44.106056 13.994962 -44.273454
63.165705 47.217851 -57.295683
63.284330 45.877495 -9.038563
44.630446 14.253039 3.179811
49.109088 16.844793 -27.696439
63.251925 41.724477 -9.985654
43.228156 13.605999 -60.594565
63.211786 41.244330 -32.950478
62.504275 51.360108 -34.178570
60.170140 29.888826 -12.025368
59.788082 58.871747 -1.263269
55.778349 22.978649 -24.755218
60.776335 56.726100 -59.806208
57.970964 25.948650 -12.986981
62.968937 48.866047 -48.777259
52.438714 19.483378 -20.798497
62.502559 36.589074 1.599891
63.195385 46.882494 -5.342581
63.121008 40.158456 -57.429924
60.261410 57.844081 -5.667860
56.074874 23.342154 -58.562539
63.325062 43.777334 -46.363630
39.203324 12.394743 -9.152259
