11.066151 -21.732376 -49.416077
7.289688 -21.969650 -15.459005
11.930337 -21.678079 -48.328816
8.676180 -21.882537 -12.542770
6.613910 -22.012109 -29.430398
5.994277 -22.051040 -2.907535
9.723372 -21.816742 -26.318828
11.883381 -21.681029 -4.639838
7.778328 -21.938949 -0.099458
8.051938 -21.921758 -26.860527
6.113094 -22.043575 -28.968224
6.088172 -22.045141 -22.397679
7.779695 -21.938863 0.311344
6.914658 -21.993213 -58.790023
5.023162 -22.112055 -5.274408
5.750665 -22.066346 -42.812501
9.969542 -21.801275 2.535312
6.153885 -22.041012 3.749090
5.825662 -22.061634 -58.905988
7.242940 -21.972587 -23.617335
4.854828 -22.122631 -23.006325
10.701168 -21.755307 -37.719929
7.069098 -21.983509 -34.327001
8.688716 -21.881749 0.988020
5.607125 -22.075365 -35.971249
9.792992 -21.812368 -0.390712
10.203055 -21.786604 -12.796828
7.141921 -21.978934 -37.573550
6.707651 -22.006219 -17.799113
9.042741 -21.859506 -17.776434
6.550620 -22.016085 -22.871518
7.573624 -21.951810 -29.157095
12.046170 -21.670801 -57.764858
7.575914 -21.951666 -26.739737
9.897525 -21.805800 2.940663
6.926837 -21.992448 -21.655151
11.490833 -21.705693 -12.353528
7.434448 -21.960554 -28.218501
5.735325 -22.067310 -4.166727
6.249162 -22.035026 -37.601266
5.088686 -22.107938 -2.026713
8.581645 -21.888476 -12.860717
10.102058 -21.792949 -23.796300
7.974759 -21.926607 -50.194736
11.363427 -21.713698 -46.989932
11.521398 -21.703772 -43.335325
11.060797 -21.732712 -19.709750
11.467637 -21.707150 -23.917119
5.108003 -22.106724 -29.193400
12.040502 -21.671157 -0.689010
7.187803 -21.976051 -38.500677
10.171111 -21.788611 -60.404584
11.813637 -21.685411 -42.542391
11.200833 -21.723914 1.569750
5.234773 -22.098759 -31.774338
7.490641 -21.957024 -41.371370
6.568157 -22.014983 -35.927653
10.863376 -21.745116 -37.626593
10.996119 -21.736776 -34.873739
10.417137 -21.773153 -55.477237
6.629862 -22.011106 -25.790143
10.967569 -21.738569 -39.045642
6.484015 -22.020270 -20.156611
11.388082 -21.712149 -2.768596
8.933037 -21.866399 -0.093802
5.989710 -22.051327 -51.993186
11.550806 -21.701925 -56.487042
10.047810 -21.796358 -52.164202
8.883659 -21.869501 -0.983281
7.939267 -21.928837 -53.043347
8.442913 -21.897193 -20.567357
9.757635 -21.814589 -18.209192
5.584131 -22.076809 -28.341147
10.491027 -21.768510 -52.855270
6.433353 -22.023453 -58.894673
6.861087 -21.996579 -15.614700
11.575616 -21.700366 -41.456769
9.645324 -21.821646 -51.320000
11.681707 -21.693700 -55.201571
8.562171 -21.889700 -0.093708
11.236315 -21.721684 -18.070691
5.633635 -22.073699 -49.098323
10.375245 -21.775785 -40.695885
11.952114 -21.676711 -18.955323
10.908621 -21.742273 -44.017405
9.342373 -21.840680 -15.776100
8.696885 -21.881236 -58.019726
4.848236 -22.123045 -58.825951
10.661947 -21.757772 -38.776464
10.040045 -21.796846 -16.186917
5.480761 -22.083304 -7.268942
9.693681 -21.818607 -45.558062
9.442314 -21.834401 -11.211602
11.424071 -21.709888 -45.616480
6.260116 -22.034337 -12.964969
5.248004 -22.097928 -24.724755
5.140430 -22.104687 -8.159931
11.552887 -21.701794 -38.350533
6.528289 -22.017488 -9.144547
6.104429 -22.044119 -6.890819
10.043338 -21.796639 1.468382
5.572326 -22.077551 -32.424598
9.442907 -21.834364 -13.709587
11.756879 -21.688977 -59.910255
12.042061 -21.671059 -31.057438
5.474212 -22.083716 -60.513608
10.989813 -21.737172 -39.391656
11.253675 -21.720593 -50.511451
9.457325 -21.833458 -2.891664
8.797583 -21.874909 -18.510000
10.721409 -21.754036 -11.177979
11.278750 -21.719018 0.308282
11.644997 -21.696007 -28.426162
10.769921 -21.750988 -44.568557
11.126464 -21.728586 -45.999317
7.125953 -21.979937 -17.029055
8.763087 -21.877076 -51.592453
5.269644 -22.096569 -54.000742
11.992976 -21.674143 -29.720506
9.993027 -21.799800 -42.804436
11.562516 -21.701189 -0.011127
7.493206 -21.956863 0.746000
9.199415 -21.849662 -24.070468
11.533063 -21.703040 -11.350526
8.156898 -21.915163 -60.362295
9.439563 -21.834574 -20.974184
11.863448 -21.682282 -31.503981
6.167793 -22.040138 -21.559152
8.379468 -21.901179 -14.951201
6.831439 -21.998441 0.317612
11.800065 -21.686264 -38.336480
6.282555 -22.032928 -7.513465
11.135755 -21.728002 -48.096616
8.162728 -21.914797 -47.961751
8.765751 -21.876909 -18.701211
10.282047 -21.781641 -34.924117
5.015630 -22.112528 -47.813656
5.794506 -22.063592 -12.509282
6.473243 -22.020947 -3.275221
5.488164 -22.082839 -24.815390
5.607199 -22.075360 -45.604777
8.310115 -21.905537 -13.538289
8.023126 -21.923568 -52.016640
9.338814 -21.840904 -25.853630
5.724025 -22.068020 -51.975715
5.772090 -22.065000 -9.349991
7.635780 -21.947905 -40.590957
6.588864 -22.013682 -30.479341
6.740479 -22.004156 -26.323056
8.752017 -21.877772 -23.909436
7.822042 -21.936202 -14.670439
11.257296 -21.720366 1.816966
8.129764 -21.916868 -37.267511
8.596614 -21.887536 -41.489338
9.063623 -21.858194 -3.715222
9.416375 -21.836031 -39.134540
9.181280 -21.850801 -30.975034
7.595158 -21.950457 -53.387200
5.427763 -22.086634 -39.674794
9.733607 -21.816099 -35.142772
5.803511 -22.063026 -39.542311
6.145422 -22.041544 -44.323261
8.734751 -21.878857 -5.391411
11.348807 -21.714616 -32.974696
7.187820 -21.976050 -49.540796
5.536203 -22.079821 -14.301539
11.217607 -21.722860 -14.614764
7.520139 -21.955171 -60.851299
7.527778 -21.954691 -60.349290
10.990923 -21.737102 -5.639965
6.860933 -21.996588 -43.216400
10.671905 -21.757146 -59.124607
6.555019 -22.015809 -15.068142
8.180314 -21.913692 -50.378069
6.709040 -22.006132 -33.169916
10.160509 -21.789277 -2.732601
6.254629 -22.034682 -9.929430
9.734527 -21.816041 -42.316558
5.060678 -22.109698 0.647597
6.779974 -22.001675 -50.251432
8.209733 -21.911844 -32.259276
4.865930 -22.121934 -11.249713
5.669030 -22.071475 -31.063597
5.349540 -22.091549 -2.986598
8.083831 -21.919754 -33.959629
7.482401 -21.957542 -51.497561
6.866124 -21.996262 -1.090963
8.526096 -21.891967 -28.963468
5.550280 -22.078936 -49.597621
10.893666 -21.743213 -21.479290
9.395511 -21.837341 -57.532644
8.368890 -21.901844 0.588960
6.831293 -21.998451 -30.344459
8.834153 -21.872611 -19.194547
9.678089 -21.819587 3.348605
6.984104 -21.988849 -21.177830
9.402225 -21.836920 -46.441065
9.414491 -21.836149 -41.368053
8.463628 -21.895891 -52.340300
12.000176 -21.673691 -48.541798
11.864416 -21.682221 1.628664
10.503763 -21.767710 -1.840163
10.338949 -21.778065 -39.251320
10.141134 -21.790494 -3.092010
10.224458 -21.785259 -15.757252
11.030576 -21.734611 -22.359902
8.909692 -21.867865 -1.721626
9.560388 -21.826982 -51.623584
8.780314 -21.875994 -36.003377
6.423317 -22.024084 -17.779509
9.471969 -21.832538 -21.832110
9.023434 -21.860719 -23.728942
4.966719 -22.115601 -40.229166
10.812506 -21.748312 -18.539818
9.327172 -21.841635 -21.474341
11.091594 -21.730777 -20.055796
7.700847 -21.943817 1.059538
8.780448 -21.875986 -9.638687
6.595313 -22.013277 -24.166406
10.372837 -21.775936 -58.806215
6.288816 -22.032534 2.765564
5.772648 -22.064965 -41.625817
6.821150 -21.999088 -25.733946
5.287277 -22.095461 -5.127529
8.626963 -21.885629 -31.814138
6.332721 -22.029776 -16.231293
6.289619 -22.032484 -53.549575
7.294031 -21.969377 -20.541575
6.475716 -22.020791 -24.345369
10.382723 -21.775315 -1.708350
6.080393 -22.045629 -53.251050
5.459826 -22.084619 -19.361526
4.973544 -22.115172 -4.564477
8.725587 -21.879433 -6.761886
7.732744 -21.941813 -9.933178
9.896650 -21.805855 -32.863891
10.667829 -21.757402 -13.734435
7.893220 -21.931730 -7.430511
7.620199 -21.948884 -23.427495
11.294358 -21.718037 -12.586131
10.927423 -21.741092 -15.869889
9.147559 -21.852920 -28.113226
9.932592 -21.803597 -46.090384
10.551561 -21.764707 0.315961
8.196132 -21.912698 -24.091654
5.793383 -22.063662 0.758947
9.713487 -21.817363 0.393147
6.660341 -22.009191 -23.922790
8.621628 -21.885964 -29.157245
9.730359 -21.816303 -1.757405
8.094528 -21.919082 -48.199323
10.295378 -21.780803 -2.269049
10.612924 -21.760852 -5.241501
8.057932 -21.921381 -57.802678
8.539411 -21.891130 -44.718297
5.238363 -22.098534 -37.497423
5.518041 -22.080962 -3.032287
9.265425 -21.845515 -38.131840
5.960028 -22.053192 -33.253130
5.492477 -22.082568 -43.507545
11.117640 -21.729141 -46.616649
11.872156 -21.681734 -17.614443
7.190851 -21.975860 -24.838315
10.627471 -21.759938 -2.700047
5.567435 -22.077858 -45.430527
8.933956 -21.866341 -44.887616
11.209559 -21.723365 -26.916649
4.822970 -22.124633 -32.517698
5.573101 -22.077502 -19.733943
11.612951 -21.698020 -55.562973
9.148481 -21.852862 -54.909378
10.990976 -21.737099 -50.396364
8.283390 -21.907216 -7.937755
10.881550 -21.743974 -18.729468
9.318899 -21.842155 -53.828950
7.221936 -21.973907 -9.508557
9.511764 -21.830037 -41.170951
4.840378 -22.123539 -37.712140
11.926876 -21.678296 -2.621370
6.320715 -22.030530 -6.835134
6.891796 -21.994649 -30.734114
10.647762 -21.758663 -18.326365
10.813765 -21.748233 -40.225525
9.851950 -21.808663 -31.103001
5.909570 -22.056362 -56.958286
7.048395 -21.984810 -50.640199
5.161823 -22.103343 -44.877145
7.537379 -21.954087 -29.334167
11.410188 -21.710760 -12.794277
6.302986 -22.031644 -54.958963
6.913482 -21.993287 -52.626743
10.494614 -21.768285 -49.427304
5.502934 -22.081911 -22.060769
10.646482 -21.758743 -38.976192
7.238731 -21.972851 -16.345303
7.850372 -21.934422 -44.126067
7.128516 -21.979776 3.457842
6.895024 -21.994446 -46.506239
4.985363 -22.114430 -11.054929
10.780662 -21.750313 -48.332534
6.614776 -22.012054 -45.941688
11.276721 -21.719145 -9.574914
5.582276 -22.076926 -55.026095
9.900788 -21.805595 -59.117024
9.186850 -21.850452 -46.657619
5.612645 -22.075018 -55.392569
6.252615 -22.034809 3.056109
6.261929 -22.034224 -58.097469
10.744106 -21.752610 -37.900564
8.446081 -21.896994 -44.055281
7.173515 -21.976949 -26.722279
11.430075 -21.709510 -30.410374
11.498494 -21.705212 -30.140101
11.847642 -21.683275 -29.874230
10.908055 -21.742309 -15.347119
12.030604 -21.671779 -16.101593
8.761394 -21.877183 -32.645267
9.218748 -21.848447 -8.480315
11.448334 -21.708363 -28.427399
10.328936 -21.778695 2.761663
7.326313 -21.967349 -5.948420
10.673379 -21.757053 -33.492910
8.124668 -21.917188 -30.698282
10.495326 -21.768240 -23.884891
11.949410 -21.676881 -28.626947
6.084466 -22.045373 -8.754056
5.786940 -22.064067 -18.805249
5.338745 -22.092227 -28.450791
4.878752 -22.121128 -9.125138
12.064234 -21.669666 -21.595613
11.273317 -21.719359 -45.137521
8.737076 -21.878711 -52.566145
7.182040 -21.976413 -4.103044
11.806087 -21.685886 -41.122890
7.225546 -21.973680 -50.678329
11.196013 -21.724216 -10.232888
4.896993 -22.119982 -55.681456
6.025715 -22.049065 -39.758985
9.293069 -21.843778 -9.814420
12.034680 -21.671523 -39.121119
11.455756 -21.707897 -41.848545
8.304533 -21.905887 -7.027915
9.651025 -21.821288 -33.160340
11.257911 -21.720327 -30.091598
8.544367 -21.890819 0.849299
10.607846 -21.761171 -17.158452
5.898904 -22.057032 -22.163316
8.937685 -21.866107 -52.799942
5.509880 -22.081475 -58.222525
9.900483 -21.805614 -9.579330
7.483448 -21.957476 -34.317979
8.188777 -21.913160 -11.876552
9.045302 -21.859345 -4.956878
9.827241 -21.810216 -20.284159
7.912413 -21.930524 3.848492
9.010835 -21.861511 -37.525273
6.752826 -22.003381 -11.171060
11.014587 -21.735615 -38.320192
5.189670 -22.101593 -45.056611
11.615326 -21.697871 -4.814403
10.107459 -21.792610 -58.996344
7.931315 -21.929336 -56.186165
7.602067 -21.950023 -26.178467
10.524173 -21.766428 -42.524223
10.458710 -21.770541 -12.138995
5.937294 -22.054620 -48.659329
7.448881 -21.959648 -42.081611
6.578824 -22.014313 -26.453117
5.845998 -22.060356 -25.863532
7.418855 -21.961534 3.520675
9.937525 -21.803287 -0.853227
7.452694 -21.959408 -1.644914
7.656625 -21.946595 -12.197095
4.826274 -22.124425 -58.104039
10.405920 -21.773858 -27.611570
9.070598 -21.857756 -15.646359
6.894716 -21.994466 -53.690870
8.933383 -21.866377 -4.451963
5.990649 -22.051268 -21.649840
6.403333 -22.025339 -9.547848
10.429251 -21.772392 -17.255401
5.723349 -22.068062 -2.519122
11.578940 -21.700157 -19.111538
10.033486 -21.797258 -50.741738
5.171628 -22.102727 -59.673257
5.443401 -22.085651 -59.181351
5.594774 -22.076141 -56.844898
11.104888 -21.729942 -45.314010
7.608140 -21.949641 -55.591383
9.735862 -21.815957 -59.027506
9.108082 -21.855400 -31.593949
7.993253 -21.925445 -4.470919
10.698340 -21.755485 -57.563412
7.904031 -21.931051 -37.990829
4.975123 -22.115073 -12.534948
10.662840 -21.757715 -11.342160
8.496476 -21.893828 -8.260490
11.170853 -21.725797 -15.920767
8.817985 -21.873627 -31.786844
11.160736 -21.726433 -60.916324
7.549809 -21.953306 -48.523191
8.767052 -21.876827 -23.122031
6.116070 -22.043388 -24.221857
11.954519 -21.676560 -3.177324
6.784937 -22.001363 -44.671010
7.994584 -21.925361 -57.636525
8.709647 -21.880434 -60.282474
5.402997 -22.088190 -46.441087
11.711994 -21.691797 -17.993799
10.225966 -21.785164 -41.775591
11.355757 -21.714180 -22.006308
7.598802 -21.950228 -6.887830
10.228183 -21.785025 -1.621868
9.904045 -21.805390 3.515926
11.872586 -21.681707 -25.825384
9.612267 -21.823723 -15.010705
6.649418 -22.009878 -10.390141
7.587779 -21.950921 -27.963531
8.867628 -21.870508 -57.580456
8.789230 -21.875434 -33.929501
7.215303 -21.974323 -37.270324
8.979241 -21.863496 -52.128819
9.886914 -21.806467 -34.447507
11.312084 -21.716924 -1.267974
11.665458 -21.694721 -4.623670
8.030006 -21.923136 -15.130949
8.071109 -21.920553 -51.137959
8.438377 -21.897478 -12.554930
6.316878 -22.030771 -42.036167
5.485603 -22.083000 -50.121866
10.357575 -21.776895 -57.532052
5.574388 -22.077422 -5.104197
7.604373 -21.949878 -14.941238
10.602029 -21.761536 -24.210957
8.343848 -21.903417 -0.467969
8.419067 -21.898691 -4.188275
9.034806 -21.860004 -26.108750
8.961723 -21.864596 -30.650712
11.377305 -21.712826 -48.516880
9.640039 -21.821978 2.999123
4.931781 -22.117796 -25.911624
5.680382 -22.070762 -38.886066
9.656041 -21.820972 -7.326878
8.821561 -21.873403 -33.736187
5.471209 -22.083904 -53.877363
11.472878 -21.706821 -32.553950
7.868967 -21.933254 -43.608500
6.787041 -22.001231 -18.003216
5.299420 -22.094698 -51.692562
7.171596 -21.977069 -15.889706
7.734969 -21.941673 -29.374707
9.716775 -21.817156 -58.256186
7.901548 -21.931207 -2.743274
8.765111 -21.876949 -12.108016
8.037502 -21.922665 -2.464974
9.878218 -21.807013 -2.633759
11.935610 -21.677748 -27.958096
7.648003 -21.947137 -27.132381
10.316804 -21.779457 -8.650125
9.073192 -21.857593 -13.073617
4.941334 -22.117196 -0.943667
6.591891 -22.013492 -37.596828
10.195766 -21.787062 -16.609008
9.619521 -21.823267 -15.211198
8.633567 -21.885214 -58.996186
5.769106 -22.065187 -22.984329
11.526983 -21.703422 -9.689603
8.293354 -21.906590 -4.072677
6.746367 -22.003786 -27.000230
5.505480 -22.081751 -8.643772
5.705873 -22.069160 1.265930
7.867044 -21.933375 -34.368330
11.374369 -21.713010 -9.170627
6.254138 -22.034713 -21.983307
11.230677 -21.722038 3.695754
7.859171 -21.933869 -58.553113
10.854768 -21.745657 -49.348699
7.875620 -21.932836 -2.203048
8.906705 -21.868053 2.013226
5.281217 -22.095841 -54.386066
7.627302 -21.948438 -44.912473
5.108711 -22.106680 -34.167625
8.787940 -21.875515 -13.660981
6.619509 -22.011757 -51.233802
8.750530 -21.877865 -49.054070
5.741513 -22.066921 -23.855851
8.435454 -21.897662 -14.542872
6.022098 -22.049292 -12.815906
8.468708 -21.895572 -24.699701
9.775440 -21.813471 -39.819020
10.327102 -21.778810 -32.765001
9.014720 -21.861266 -2.572876
6.695602 -22.006976 -45.584277
10.705859 -21.755013 -36.714160
11.738253 -21.690148 -57.796198
7.616128 -21.949140 -37.735309
10.534532 -21.765777 -13.382514
8.713750 -21.880176 3.505921
11.227014 -21.722269 -37.448769
11.470021 -21.707001 -46.170429
8.052901 -21.921697 -41.589719
11.664534 -21.694779 -15.912355
4.796849 -22.126274 -20.180112
9.518232 -21.829631 -25.325663
4.814477 -22.125167 -51.978751
8.520871 -21.892295 3.439206
6.967977 -21.989863 -3.706404
10.848648 -21.746041 -17.023808
10.087471 -21.793866 -32.076028
10.623878 -21.760163 -13.221122
9.071995 -21.857668 -13.808388
9.847454 -21.808946 -49.551366
7.130071 -21.979678 -56.515356
6.931936 -21.992127 -0.372982
5.489044 -22.082784 -14.140223
7.040992 -21.985275 -4.736441
11.991602 -21.674230 -8.532551
12.037793 -21.671328 -27.341434
11.074286 -21.731864 -2.496028
10.025285 -21.797773 -43.806314
11.255992 -21.720448 -41.753989
4.830387 -22.124167 -43.972798
7.129094 -21.979740 -45.741566
10.289238 -21.781189 -34.617869
5.912811 -22.056159 -10.919599
5.914561 -22.056049 0.643789
6.361651 -22.027958 -27.175036
4.809152 -22.125501 -46.774476
6.207494 -22.037644 -51.928183
6.236491 -22.035822 -12.764991
11.592529 -21.699303 -31.330065
11.909439 -21.679392 2.003266
8.546674 -21.890674 -56.352845
11.415286 -21.710440 -50.336062
8.729861 -21.879164 -3.344240
8.530868 -21.891667 -9.460669
11.996510 -21.673921 -17.789467
5.493888 -22.082479 -47.671438
8.361931 -21.902281 -22.796091
9.888855 -21.806345 -26.216582
10.013110 -21.798538 -2.925468
8.249007 -21.909376 -4.435615
4.828350 -22.124295 1.935852
8.926337 -21.866819 -59.386194
7.636402 -21.947866 -34.524784
9.798889 -21.811997 -8.239900
11.531706 -21.703125 -6.690649
8.184419 -21.913434 -12.067996
7.192468 -21.975758 -43.004337
6.160269 -22.040611 -11.876937
8.040603 -21.922470 -36.184647
9.368990 -21.839008 -44.846110
7.644970 -21.947327 -25.129489
10.218850 -21.785611 -42.399981
9.481429 -21.831943 -38.676829
5.647515 -22.072827 -56.620461
10.721902 -21.754005 -35.803397
8.810963 -21.874068 -19.424789
5.751037 -22.066323 -25.541404
10.009833 -21.798744 1.812355
10.700387 -21.755356 -8.510118
7.609127 -21.949579 0.387901
5.543711 -22.079349 -13.394084
5.292327 -22.095143 -47.603079
7.359136 -21.965286 -43.644351
7.540424 -21.953896 -56.477012
5.495125 -22.082402 -42.285184
9.806874 -21.811496 -46.739991
5.657525 -22.072198 -51.769970
7.870384 -21.933165 -24.491722
8.080666 -21.919953 -27.585750
6.189113 -22.038799 -27.518288
9.008468 -21.861659 -47.459724
6.322294 -22.030431 -25.084513
9.676124 -21.819711 -32.177932
10.412628 -21.773436 -60.777268
9.103285 -21.855702 -56.068057
10.331095 -21.778559 -39.637404
5.180205 -22.102188 -13.653336
6.773679 -22.002070 -51.964250
5.141907 -22.104594 -56.609073
10.270227 -21.782383 -27.895582
8.094375 -21.919091 -53.438112
6.167425 -22.040161 2.876665
7.704143 -21.943610 -15.084819
5.629497 -22.073959 -14.997379
10.818300 -21.747948 -60.942569
11.043528 -21.733797 -55.834593
6.010179 -22.050041 -27.069095
4.909772 -22.119179 -7.564990
5.551030 -22.078889 -5.895532
6.913737 -21.993271 -37.515109
9.803312 -21.811719 -53.139391
10.113106 -21.792255 -23.350482
7.481139 -21.957621 -42.804843
5.036367 -22.111225 -37.604401
11.860439 -21.682471 -49.341947
7.769662 -21.939493 -45.391007
5.568051 -22.077820 -30.916407
9.156474 -21.852360 -34.003936
8.712156 -21.880276 -1.411418
7.462784 -21.958774 -50.921691
6.692965 -22.007142 -52.185611
9.394483 -21.837406 -60.802191
9.484330 -21.831761 -53.093812
9.292780 -21.843796 -34.215430
7.768174 -21.939587 -25.442798
7.354237 -21.965594 -36.468983
8.097971 -21.918865 -11.442260
11.890896 -21.680557 -13.869945
7.595860 -21.950413 -56.067176
8.919904 -21.867224 2.731113
5.170156 -22.102819 0.834714
5.471785 -22.083868 -32.293279
6.168519 -22.040092 -12.132127
7.025030 -21.986278 -10.811792
11.263027 -21.720006 -36.839033
8.788838 -21.875459 -38.977423
7.137956 -21.979183 -7.736951
6.893920 -21.994516 -32.397637
7.957802 -21.927672 -17.185916
11.699602 -21.692576 -39.076469
11.122424 -21.728840 -58.325200
10.933440 -21.740714 -48.192390
9.831634 -21.809940 -49.757405
7.023081 -21.986401 1.005763
8.275035 -21.907741 -3.708696
7.292071 -21.969500 -10.822805
9.760634 -21.814401 -46.085022
11.444169 -21.708625 -43.522282
8.160287 -21.914950 -40.918034
7.302538 -21.968842 -45.015123
7.771824 -21.939357 -28.281225
8.726716 -21.879362 -39.729542
9.399051 -21.837119 -0.250503
6.649285 -22.009886 -28.172603
10.105585 -21.792728 -59.328107
10.471586 -21.769732 -20.518244
6.338824 -22.029392 -58.277454
9.098787 -21.855984 -42.393150
12.055197 -21.670234 -57.522549
4.906403 -22.119391 -47.310472
6.059980 -22.046912 -30.318946
5.511839 -22.081351 -9.106715
7.514291 -21.955538 -12.606631
10.206494 -21.786388 -12.358620
11.551173 -21.701902 -39.224823
8.584617 -21.888290 -25.936839
7.416368 -21.961690 -49.630095
7.008557 -21.987313 -6.827662
9.525019 -21.829204 -28.362244
7.574373 -21.951763 -45.491521
10.733666 -21.753266 -9.463254
9.388594 -21.837776 -0.053362
8.037860 -21.922642 -12.949396
5.107141 -22.106779 -23.008755
8.561135 -21.889765 -18.221804
6.739468 -22.004220 -26.707859
12.023482 -21.672227 -44.369259
10.285639 -21.781415 -52.779160
8.543973 -21.890843 -57.935884
9.158950 -21.852204 -0.597357
7.002694 -21.987681 -3.021400
9.810598 -21.811262 -3.005183
5.455315 -22.084903 -58.971697
5.378606 -22.089722 -36.078768
8.354002 -21.902779 -55.556383
7.652448 -21.946858 -15.251626
7.770390 -21.939447 -14.858840
7.152667 -21.978259 -15.641882
9.037290 -21.859848 -3.533798
10.962849 -21.738866 -41.360030
11.167220 -21.726025 -51.258568
5.010346 -22.112860 -33.656088
11.110976 -21.729559 -18.813071
8.341032 -21.903594 -48.680849
4.965771 -22.115661 -2.315765
7.555094 -21.952974 -14.058124
6.331788 -22.029834 -5.008639
8.656224 -21.883791 -13.317034
10.022403 -21.797954 -61.011772
9.904637 -21.805353 -31.749800
7.757677 -21.940246 -53.241194
10.155606 -21.789585 -39.271273
10.738003 -21.752993 -2.920968
10.282576 -21.781607 1.383879
6.052120 -22.047406 -43.933720
8.984169 -21.863186 -20.827230
6.857935 -21.996777 -4.304363
6.393157 -22.025979 -56.766872
8.793058 -21.875193 -59.106199
9.036541 -21.859895 -45.196419
10.771009 -21.750919 -38.598241
7.596585 -21.950367 -13.484136
10.469710 -21.769850 -16.938570
9.591254 -21.825043 -28.691013
5.139649 -22.104736 -38.372723
9.367822 -21.839081 -10.253105
9.451418 -21.833829 2.723306
12.029951 -21.671820 -1.106755
6.110324 -22.043749 -3.816943
7.657905 -21.946515 -36.663526
6.264175 -22.034082 -26.057965
11.798252 -21.686378 -1.118070
10.118296 -21.791929 -42.024394
5.233430 -22.098844 -9.122862
8.860707 -21.870943 -39.494802
5.454049 -22.084982 -7.573819
8.444184 -21.897113 -55.963566
7.159876 -21.977806 -58.561373
6.956326 -21.990595 -57.580123
7.520000 -21.955179 -3.786445
5.740386 -22.066992 -14.092157
5.676393 -22.071013 -39.937830
12.052803 -21.670384 -7.463642
9.349965 -21.840203 -52.185288
8.321032 -21.904851 -16.113711
10.274274 -21.782129 -4.181666
6.370377 -22.027410 -6.578543
10.691241 -21.755931 -10.886468
6.682750 -22.007783 -59.809812
8.909177 -21.867898 -56.418203
5.413310 -22.087542 -25.580144
4.992444 -22.113985 -57.084247
10.563696 -21.763945 -19.711484
6.850013 -21.997274 -46.920192
7.453205 -21.959376 -40.248888
6.155743 -22.040895 -14.135397
7.584148 -21.951149 3.698214
5.090893 -22.107799 -45.582442
8.211535 -21.911730 -34.759166
6.219436 -22.036893 -52.113481
9.305382 -21.843004 -48.374658
11.476480 -21.706595 -39.882759
10.682134 -21.756503 -10.519288
10.392292 -21.774714 -5.324098
6.614863 -22.012049 -22.633897
8.021728 -21.923656 -59.391655
7.341950 -21.966366 -1.130691
7.071961 -21.983329 3.864860
10.810791 -21.748420 -47.650312
12.047824 -21.670697 -32.210364
5.736015 -22.067267 -60.748869
10.200054 -21.786792 -48.486760
6.585438 -22.013898 -10.761474
10.273143 -21.782200 -8.300401
6.799758 -22.000432 -11.655624
6.104328 -22.044126 -5.431173
7.122313 -21.980166 -12.868596
10.957453 -21.739205 -11.242240
8.182980 -21.913524 -24.543566
5.343892 -22.091904 -58.758347
10.595798 -21.761928 -34.811468
9.677949 -21.819596 -50.718787
6.033050 -22.048604 -18.648480
5.797631 -22.063395 -26.281674
5.441788 -22.085753 -52.916476
8.205280 -21.912123 -60.198708
7.273557 -21.970663 -41.371694
6.675463 -22.008241 -12.050492
9.019456 -21.860969 -4.234173
7.087143 -21.982376 -51.344516
8.706067 -21.880659 -46.109111
7.110621 -21.980900 -53.932420
8.987825 -21.862956 -47.003890
7.477381 -21.957857 -36.833917
8.020141 -21.923756 -45.723178
9.464401 -21.833013 2.426671
6.964460 -21.990084 -26.372518
8.016849 -21.923962 -9.092258
6.811287 -21.999708 -6.313386
6.444652 -22.022743 -24.050416
7.457765 -21.959089 -38.917104
8.905272 -21.868143 -60.822122
6.567113 -22.015049 -33.050307
11.667504 -21.694593 -44.436590
4.955309 -22.116318 -60.315585
9.904266 -21.805376 0.362852
5.381799 -22.089522 -28.688163
8.929575 -21.866616 -46.252468
10.146167 -21.790178 -58.524415
11.267537 -21.719723 -22.785075
9.360880 -21.839517 -29.031026
7.907654 -21.930823 -12.764730
7.423756 -21.961226 -45.186820
6.192052 -22.038614 -20.043724
8.989142 -21.862873 -48.015264
5.024787 -22.111953 -33.487967
10.380465 -21.775457 -2.641096
9.692327 -21.818693 -2.187148
11.882996 -21.681053 -10.046645
6.860991 -21.996585 -13.481316
10.812963 -21.748283 -24.492215
5.244095 -22.098174 -32.641349
5.086067 -22.108103 -46.531903
6.786994 -22.001234 -37.806287
11.103913 -21.730003 -4.810397
6.557275 -22.015667 -54.004774
8.110439 -21.918082 -21.306147
6.945813 -21.991255 -26.934423
10.709510 -21.754783 -16.286806
6.247756 -22.035114 -42.286459
7.512771 -21.955633 -16.983707
6.734624 -22.004524 -57.115654
6.581796 -22.014126 -53.025987
8.799354 -21.874798 -58.345730
10.412878 -21.773420 -44.727337
7.979912 -21.926283 -32.184515
9.557240 -21.827180 -6.705379
8.163839 -21.914727 -30.503154
10.434573 -21.772057 -43.329101
10.661063 -21.757827 -12.385515
6.973367 -21.989524 -21.002520
9.999658 -21.799383 -38.658447
8.760270 -21.877253 -60.106782
7.005474 -21.987507 -8.183503
12.028504 -21.671911 -15.009523
6.179059 -22.039430 -46.429895
5.940720 -22.054405 -25.005798
7.290717 -21.969585 -51.423687
6.289270 -22.032506 -18.262547
7.956745 -21.927739 -2.938215
7.588649 -21.950866 -51.815148
10.190468 -21.787394 -25.392059
6.220838 -22.036805 -51.301081
9.673440 -21.819879 -53.822600
11.782956 -21.687339 -18.330217
10.083601 -21.794109 -3.307075
10.729873 -21.753504 -18.914078
6.138445 -22.041982 -58.298040
11.896014 -21.680235 -18.601681
12.014504 -21.672791 -59.892496
10.662094 -21.757762 -7.423858
4.913606 -22.118938 -8.327177
9.322230 -21.841946 2.587162
8.240145 -21.909933 -5.637012
11.876011 -21.681492 -45.606276
11.873125 -21.681674 -47.959915
7.431646 -21.960731 -19.781571
5.742947 -22.066831 0.562668
7.468173 -21.958436 -39.902151
11.309509 -21.717085 -20.767014
5.057037 -22.109927 -38.102700
6.682372 -22.007807 -37.348227
5.690994 -22.070095 -6.260642
9.235911 -21.847369 -6.430375
9.679133 -21.819521 -56.488053
11.285330 -21.718605 -51.977710
9.601881 -21.824375 -18.799810
6.758773 -22.003007 -34.358151
7.748486 -21.940824 -36.416312
8.149240 -21.915644 -20.938907
9.127316 -21.854192 -28.893164
7.852232 -21.934305 -57.009050
9.627690 -21.822754 -20.233232
7.019314 -21.986637 -33.553119
7.936384 -21.929018 -26.634004
11.844119 -21.683496 -2.424587
7.225165 -21.973704 -24.245844
11.413548 -21.710549 3.869095
8.053673 -21.921649 -9.579766
7.628740 -21.948347 -57.811997
10.014818 -21.798431 -27.476659
7.421947 -21.961340 -30.799031
10.819514 -21.747872 -22.049059
6.932444 -21.992095 -41.240130
8.843774 -21.872007 2.893875
9.558852 -21.827079 -42.098222
5.486470 -22.082945 -24.485430
7.664711 -21.946087 -23.615487
10.387783 -21.774997 -0.066552
6.223062 -22.036665 -18.476391
5.573559 -22.077474 -29.849880
9.467810 -21.832799 -48.530707
11.655741 -21.695332 -7.972585
5.916404 -22.055933 -29.745864
7.218541 -21.974120 -0.170987
9.931452 -21.803668 -41.517910
6.053130 -22.047342 -11.382754
6.515349 -22.018301 -8.529543
6.459993 -22.021779 -35.010640
8.927985 -21.866716 -55.974639
5.802606 -22.063083 2.823807
7.771096 -21.939403 -55.769226
6.324141 -22.030315 -32.149706
9.487459 -21.831564 -7.849882
6.668255 -22.008694 -24.707664
8.688542 -21.881760 -46.768057
6.595543 -22.013263 -9.332747
5.498241 -22.082206 -58.458403
11.066238 -21.732370 -52.160210
7.029035 -21.986026 -18.561195
8.553696 -21.890232 -23.535111
8.301093 -21.906103 -55.341746
11.470832 -21.706950 -20.112981
8.018194 -21.923878 1.196203
5.489282 -22.082769 -10.969620
8.305888 -21.905802 -12.670704
7.044358 -21.985064 -25.204943
8.224742 -21.910901 -32.985871
11.541081 -21.702536 -54.342938
8.453902 -21.896502 -26.479977
11.365388 -21.713575 -59.562233
5.969263 -22.052612 -27.948706
7.529677 -21.954571 -6.425745
8.641535 -21.884714 -28.773180
8.656142 -21.883796 -58.484692
6.767771 -22.002442 -20.091442
7.271112 -21.970817 2.720225
7.259334 -21.971557 -11.386044
9.971102 -21.801177 -10.205503
11.610863 -21.698151 -16.939958
5.350234 -22.091505 -44.412906
11.585390 -21.699752 -37.964708
5.532846 -22.080032 -20.760237
6.555070 -22.015806 -0.868092
11.299279 -21.717728 -5.048176
11.562258 -21.701205 -56.319999
5.879267 -22.058266 -31.408818
5.889901 -22.057598 -39.148625
11.336021 -21.715420 0.717653
7.794598 -21.937926 3.707321
7.247238 -21.972317 -47.213193
5.064013 -22.109488 -31.367406
8.173416 -21.914125 -29.617652
9.723796 -21.816715 -55.023238
6.925720 -21.992518 -16.636344
10.289969 -21.781143 -58.364570
9.777822 -21.813321 -36.257432
8.177839 -21.913847 0.622800
9.241389 -21.847025 -21.979339
11.358274 -21.714022 -39.026541
8.316051 -21.905164 0.415106
4.917072 -22.118720 -48.135579
8.144400 -21.915948 -8.521342
9.869581 -21.807556 -40.996119
6.545716 -22.016393 -34.462898
9.120843 -21.854599 -7.235135
5.822544 -22.061830 -28.246454
10.868222 -21.744811 -42.154107
10.535155 -21.765738 -25.188600
9.411559 -21.836333 -7.468253
10.001411 -21.799273 -29.004146
5.364623 -22.090601 -47.819734
10.551564 -21.764707 -45.029457
5.875904 -22.058477 -21.931917
8.863164 -21.870789 -53.793391
10.992241 -21.737019 -6.277401
7.617864 -21.949030 -25.803107
10.372888 -21.775933 -25.314966
6.104828 -22.044094 -29.223792
8.307105 -21.905726 -17.898136
8.714518 -21.880128 -37.268029
6.751642 -22.003455 -41.290252
9.986902 -21.800184 -21.660605
10.969427 -21.738453 -39.621328
11.884375 -21.680967 -16.228008
8.190904 -21.913027 -43.894372
5.818730 -22.062070 -8.878473
5.299924 -22.094666 -15.792465
10.219812 -21.785551 -40.016326
10.137898 -21.790697 3.755743
10.767041 -21.751169 -57.345990
11.526726 -21.703438 -29.862644
6.091732 -22.044917 -37.061045
8.546597 -21.890678 2.334372
8.784924 -21.875704 -7.672127
5.292991 -22.095102 -7.871666
9.582905 -21.825568 -36.533381
5.610753 -22.075137 -46.268639
8.777952 -21.876143 -26.703856
11.683724 -21.693574 -32.427900
6.795589 -22.000694 -53.847360
8.231838 -21.910455 -59.444683
11.712460 -21.691768 -20.558257
9.607614 -21.824015 -45.381131
10.362399 -21.776592 -37.160059
5.566245 -22.077933 -40.443000
6.156461 -22.040850 -19.287319
9.813973 -21.811050 -36.012884
5.932008 -22.054952 -32.755095
9.699090 -21.818268 -18.411616
10.752729 -21.752068 -39.114890
8.261106 -21.908616 -29.261868
5.300788 -22.094612 -16.711222
9.500750 -21.830729 2.230518
7.335805 -21.966752 -59.833048
9.766180 -21.814052 -29.309704
5.968524 -22.052658 -36.513199
11.000093 -21.736526 -7.211336
5.042306 -22.110852 -20.987831
7.933389 -21.929206 -39.834988
9.488551 -21.831496 -0.967849
7.216911 -21.974222 -60.835707
9.331457 -21.841366 -59.483405
8.165652 -21.914613 -14.923838
9.167193 -21.851687 -52.899724
5.706469 -22.069123 -14.421783
4.848664 -22.123019 -11.647102
11.279161 -21.718992 -60.107334
9.945298 -21.802798 -14.148582
9.700276 -21.818193 -4.324624
9.540302 -21.828244 -2.697853
7.482030 -21.957565 -46.451826
8.438115 -21.897494 -27.670685
11.279672 -21.718960 -19.497835
7.256764 -21.971718 -22.985717
7.445776 -21.959843 -39.721782
9.670978 -21.820034 -19.993867
5.014456 -22.112602 -48.774298
9.763017 -21.814251 -58.012445
9.510290 -21.830130 -25.520196
5.345440 -22.091806 -14.041895
9.264709 -21.845560 -44.377813
11.377699 -21.712801 -32.200126
8.927546 -21.866744 3.342950
5.833158 -22.061163 -21.695888
11.504538 -21.704832 -49.027586
7.819661 -21.936352 -7.790722
10.753913 -21.751993 -27.826722
9.851668 -21.808681 -28.746078
7.334639 -21.966825 -32.979586
7.382956 -21.963790 1.316791
5.314215 -22.093768 -18.015574
11.777939 -21.687654 1.173751
9.806782 -21.811501 -27.598170
9.570868 -21.826324 -24.656999
5.132523 -22.105184 -13.839660
10.033275 -21.797271 -20.112296
5.645174 -22.072974 -39.352360
10.674731 -21.756968 -35.986180
8.887473 -21.869261 -58.540900
4.809796 -22.125461 -19.237902
6.794187 -22.000782 -55.407504
4.793517 -22.126483 -3.437674
6.916770 -21.993080 -31.498578
7.515796 -21.955443 -47.068546
9.278787 -21.844675 -50.875855
7.621412 -21.948808 -18.394911
9.937211 -21.803307 -25.278796
5.091104 -22.107786 -56.157710
10.796264 -21.749332 -46.897189
9.069596 -21.857819 -49.504569
11.247275 -21.720996 -10.428788
7.631617 -21.948166 -24.917749
11.307781 -21.717194 -15.192947
10.199736 -21.786812 -12.982714
11.682516 -21.693649 -17.703521
6.405164 -22.025224 -28.039818
8.073748 -21.920387 -25.909952
10.723682 -21.753893 -61.083309
8.155708 -21.915238 -11.018818
11.476118 -21.706617 -23.711357
5.373513 -22.090042 -19.624428
11.795957 -21.686522 -58.231125
8.062529 -21.921092 -26.172044
10.141335 -21.790481 -38.840114
11.525899 -21.703490 -52.145207
5.597009 -22.076000 -30.742113
7.119042 -21.980371 -36.038099
11.506142 -21.704731 -33.358681
6.980724 -21.989062 -0.777005
5.776437 -22.064727 -59.963812
6.346578 -22.028905 -32.509747
5.238123 -22.098549 -59.402523
7.997861 -21.925155 -38.698929
11.372378 -21.713135 -34.324756
10.113314 -21.792242 -10.830348
9.665285 -21.820392 -17.417031
7.822765 -21.936157 -50.349124
10.925213 -21.741231 2.702389
7.871634 -21.933086 -58.749527
10.541764 -21.765323 -7.611682
10.308758 -21.779962 -47.884402
6.485774 -22.020159 -27.674284
8.537770 -21.891233 -3.034391
6.203227 -22.037912 -38.723499
10.823500 -21.747621 -20.417038
6.791949 -22.000923 -58.246401
10.534731 -21.765765 -57.832725
10.214841 -21.785863 -46.575211
11.290013 -21.718310 -61.068533
7.302595 -21.968839 -57.098032
8.746921 -21.878092 -53.668263
8.490999 -21.894172 -47.837453
7.911147 -21.930604 -30.495573
6.760541 -22.002896 -34.701102
7.571951 -21.951915 -54.171091
11.284844 -21.718635 -16.564678
12.065624 -21.669579 -57.340940
8.058162 -21.921367 -7.774882
6.014315 -22.049781 -55.974833
5.320914 -22.093347 -31.151287
9.223392 -21.848156 -27.569499
9.809073 -21.811357 -39.292293
8.950325 -21.865312 -22.571556
8.357946 -21.902531 -20.904815
7.319678 -21.967765 -7.163632
6.269075 -22.033775 -38.531193
11.297106 -21.717865 -9.805177
4.970864 -22.115341 -19.704993
5.428897 -22.086563 -39.057628
9.121792 -21.854539 -44.854037
4.998700 -22.113592 -17.876860
5.083725 -22.108250 -10.601611
9.077193 -21.857341 -12.323566
9.155252 -21.852437 -20.546461
6.482411 -22.020371 -5.163705
6.286965 -22.032650 -56.273802
10.746215 -21.752477 -17.408567
9.555611 -21.827282 -31.297535
5.761651 -22.065656 -32.961640
11.833253 -21.684179 -7.480312
5.360215 -22.090878 -44.918466
8.587482 -21.888110 -23.090161
5.619217 -22.074605 -1.816497
5.020632 -22.112214 -18.276650
7.552023 -21.953167 -34.873992
8.496041 -21.893855 -0.779610
9.494630 -21.831114 -26.410793
8.335089 -21.903967 -35.730369
10.916921 -21.741752 -60.528222
11.331932 -21.715677 -41.447954
11.899080 -21.680043 -15.500027
10.234043 -21.784657 -16.842601
8.865455 -21.870645 -8.048977
8.945958 -21.865587 -13.218313
5.492398 -22.082573 -23.366386
7.772701 -21.939302 -39.095230
5.351119 -22.091449 -37.243301
10.944105 -21.740044 -45.389725
10.112399 -21.792300 -49.762418
9.946473 -21.802725 -26.837583
11.708812 -21.691997 -60.546354
9.749482 -21.815101 -25.814281
12.002452 -21.673548 -9.442884
9.437086 -21.834729 1.755532
6.175877 -22.039630 -6.115559
6.422026 -22.024165 -11.514192
10.755512 -21.751893 -36.234203
10.828062 -21.747335 -28.700207
8.915624 -21.867493 -36.896890
10.081399 -21.794247 0.430162
8.634171 -21.885176 -4.638633
8.490343 -21.894213 -43.635972
6.534984 -22.017068 -44.424729
8.681814 -21.882183 -58.814087
5.796216 -22.063484 -31.681065
10.205837 -21.786429 -28.072886
7.531352 -21.954466 -59.583133
6.729513 -22.004845 -54.156874
7.385219 -21.963647 -26.718527
9.876607 -21.807114 -60.307659
11.821047 -21.684946 -47.203137
11.870290 -21.681852 -47.790177
5.054477 -22.110087 -22.847360
5.168850 -22.102901 -47.724383
6.236345 -22.035831 -40.405161
9.835094 -21.809723 -1.075355
6.415944 -22.024547 -59.304582
11.240940 -21.721394 -60.720924
10.956795 -21.739246 -31.656114
11.818058 -21.685133 -24.198120
6.984553 -21.988821 -49.665298
9.440088 -21.834541 -9.349499
11.208708 -21.723419 -29.042558
5.636674 -22.073508 -31.772044
9.666271 -21.820330 -30.403893
5.677269 -22.070958 -24.885742
9.343046 -21.840638 -15.949840
9.987529 -21.800145 -24.053992
6.729704 -22.004833 -4.529710
6.983881 -21.988863 -36.143581
10.501796 -21.767834 0.800590
5.549515 -22.078984 2.840190
10.729774 -21.753510 -57.870653
10.080315 -21.794315 -55.902132
9.742099 -21.815565 -59.994108
8.222760 -21.911025 -6.651747
9.900703 -21.805600 -55.987263
8.270883 -21.908001 -39.067953
5.874840 -22.058544 -36.340816
11.142195 -21.727598 -41.874702
8.547585 -21.890616 -27.251998
12.001033 -21.673637 3.771262
6.423059 -22.024100 -43.334601
12.012463 -21.672919 -56.034090
11.308275 -21.717163 -41.946006
8.538100 -21.891212 -33.910986
9.854246 -21.808519 -15.012655
5.119039 -22.106031 -13.481417
6.217994 -22.036984 -24.746622
7.023952 -21.986346 0.286394
9.230273 -21.847723 -2.535092
11.694831 -21.692876 -40.307555
10.921027 -21.741494 -32.112195
8.917241 -21.867391 -19.571640
9.331526 -21.841362 -34.686064
9.045147 -21.859355 -52.321070
7.328967 -21.967182 -41.203058
9.052969 -21.858863 -33.465921
5.092768 -22.107682 -53.997165
10.378110 -21.775605 -31.949953
11.230205 -21.722068 -15.709019
10.301574 -21.780414 2.925360
7.223421 -21.973813 -47.023871
11.968339 -21.675691 -60.170739
11.242744 -21.721280 3.167284
11.148703 -21.727189 -28.559308
9.201743 -21.849516 -47.495093
7.455021 -21.959262 -4.628451
6.322404 -22.030424 -49.011113
8.225013 -21.910884 -33.610191
11.035480 -21.734303 -13.388322
10.755184 -21.751914 -19.116089
9.502409 -21.830625 -37.829943
6.057929 -22.047041 2.727721
7.283978 -21.970008 2.253980
10.199215 -21.786845 -20.099852
8.518554 -21.892440 -31.000038
11.960892 -21.676159 -2.233888
6.901844 -21.994018 -16.059099
6.867097 -21.996201 -36.566156
9.430479 -21.835144 -48.175781
8.993054 -21.862628 -51.775885
11.167330 -21.726018 -57.004428
11.347754 -21.714683 -44.826172
9.291453 -21.843879 -26.255971
9.828156 -21.810158 -42.710503
5.603001 -22.075624 -23.988059
5.053218 -22.110167 -38.539815
11.605235 -21.698505 -12.686150
6.301650 -22.031728 -14.611940
11.759210 -21.688831 -53.163808
10.362083 -21.776612 -29.573098
9.207681 -21.849143 -5.891881
9.998136 -21.799479 -17.185084
6.801428 -22.000327 -2.005544
7.401765 -21.962608 -38.207387
9.277751 -21.844740 -60.213810
7.869007 -21.933251 -34.630656
9.936360 -21.803360 -40.799072
11.878690 -21.681324 -10.257644
10.075792 -21.794600 -7.795638
10.512501 -21.767161 1.073523
11.500539 -21.705083 0.322259
7.093345 -21.981986 -37.137353
9.753095 -21.814875 -43.864407
11.967029 -21.675774 -30.017815
8.023523 -21.923543 -18.561859
5.709812 -22.068913 -39.115566
11.677918 -21.693938 -21.395358
10.773139 -21.750785 -35.601399
10.263889 -21.782781 -27.236194
6.137541 -22.042039 -5.172445
10.571977 -21.763424 -48.190825
6.132899 -22.042330 -36.645494
7.985328 -21.925943 -47.095190
7.985427 -21.925937 2.093866
8.269847 -21.908067 0.786645
11.798002 -21.686394 -40.742107
7.678074 -21.945248 -41.456015
10.049117 -21.796276 -56.223876
7.761630 -21.939998 -0.989660
12.026568 -21.672033 -52.969866
10.536562 -21.765649 -41.369692
10.415505 -21.773255 -34.792876
5.606421 -22.075409 -9.439838
10.837930 -21.746715 -15.698791
11.215278 -21.723006 -43.125902
10.319828 -21.779267 -33.253316
6.790625 -22.001006 -51.163244
11.242571 -21.721291 -20.988330
9.883032 -21.806711 -39.045090
7.070153 -21.983443 -1.879355
11.445604 -21.708535 -29.683610
5.043148 -22.110799 -36.391810
8.632949 -21.885253 -42.453214
11.929879 -21.678108 -58.078800
9.618738 -21.823316 -32.910957
5.667923 -22.071545 -36.362194
6.448774 -22.022484 -8.147115
9.088761 -21.856614 -21.886661
6.723323 -22.005234 -44.247264
10.548443 -21.764903 -31.424539
6.489939 -22.019898 -60.571504
7.479992 -21.957693 -55.428498
5.756460 -22.065982 -5.037074
9.233807 -21.847501 3.873981
7.749973 -21.940730 -5.470450
9.092918 -21.856353 -47.658334
7.095288 -21.981864 -4.275228
6.397239 -22.025722 -25.555204
6.791655 -22.000941 -6.137827
9.282188 -21.844461 -58.427502
10.885110 -21.743750 1.784707
5.070363 -22.109089 -12.686748
9.209141 -21.849051 -9.314340
7.108005 -21.981065 -19.345169
5.652685 -22.072502 -15.697380
11.431281 -21.709435 -40.136767
7.475591 -21.957969 -31.348595
7.017164 -21.986772 -32.148957
8.470269 -21.895474 -26.108159
8.587767 -21.888092 -4.408147
11.835223 -21.684055 -9.683898
10.571068 -21.763481 -2.966443
11.098882 -21.730319 -43.857188
4.821685 -22.124714 -35.458760
6.952875 -21.990812 -7.969751
11.804873 -21.685962 -56.758878
7.305133 -21.968679 -21.225318
4.851219 -22.122858 3.572139
8.678045 -21.882420 -53.830176
8.760476 -21.877240 -36.203303
5.741831 -22.066901 -10.707152
5.896048 -22.057212 -24.422476
6.245960 -22.035227 -8.135329
5.364088 -22.090635 -8.530997
8.968102 -21.864195 -10.035647
9.459593 -21.833315 -15.129031
7.791526 -21.938119 -19.259454
7.873505 -21.932969 -12.241022
6.778438 -22.001771 -24.087685
10.520082 -21.766685 -18.209020
8.447391 -21.896912 -8.645474
5.484084 -22.083095 -61.004434
11.420847 -21.710090 -31.664677
8.390492 -21.900486 -39.576368
7.958753 -21.927613 -26.367689
9.565567 -21.826657 -58.813096
10.126444 -21.791417 -18.278569
7.903503 -21.931084 0.485931
6.839666 -21.997924 -21.398260
5.156619 -22.103670 -33.274080
5.588716 -22.076521 1.079345
8.675976 -21.882550 3.004772
9.785723 -21.812824 -45.696161
5.974375 -22.052290 -53.835013
5.068401 -22.109213 -25.516451
9.161746 -21.852029 -43.075087
7.153526 -21.978205 -22.461842
6.100794 -22.044348 -34.338004
11.031510 -21.734552 -3.196574
7.852110 -21.934313 -38.168579
11.220560 -21.722674 -33.591543
8.151506 -21.915502 -35.288800
9.722287 -21.816810 -3.356801
11.347872 -21.714675 -14.879839
6.945238 -21.991291 -38.488568
8.426843 -21.898203 -40.877666
8.257721 -21.908828 -27.031038
10.236085 -21.784528 -56.408574
10.541772 -21.765322 -23.450952
9.294479 -21.843689 -43.184004
7.786230 -21.938452 -23.128942
9.425857 -21.835435 2.059083
9.507433 -21.830309 -46.996569
9.522226 -21.829380 -49.456386
12.055872 -21.670192 -35.989470
11.621864 -21.697460 -57.416578
8.632515 -21.885280 -24.512766
10.665665 -21.757538 1.453011
7.505438 -21.956094 -31.169508
7.836659 -21.935284 -4.098090
5.033567 -22.111401 -26.854600
8.183630 -21.913484 -33.266316
8.349436 -21.903066 -31.062594
6.260310 -22.034325 -26.235446
12.058788 -21.670008 -43.827254
9.074682 -21.857499 -45.376206
5.443209 -22.085663 -8.365895
10.398112 -21.774348 -35.578356
8.419147 -21.898686 -28.797972
10.029863 -21.797485 -34.214324
5.438724 -22.085945 -12.922983
8.629469 -21.885472 -37.436841
5.538858 -22.079654 -5.267108
8.374263 -21.901506 -11.866825
9.176886 -21.851078 -28.473116
8.349829 -21.903041 -38.333632
7.376659 -21.964185 -37.358956
8.686729 -21.881874 -25.750549
7.643881 -21.947396 -47.392368
9.877163 -21.807079 -42.969013
7.846734 -21.934651 -54.409025
11.811799 -21.685527 -23.001147
7.099967 -21.981570 -20.892170
5.524607 -22.080549 -44.047588
9.310536 -21.842680 -26.918322
11.528574 -21.703322 -55.397631
11.808890 -21.685709 -5.495116
6.159408 -22.040665 -29.577060
7.308503 -21.968468 -22.324634
11.893544 -21.680391 -57.443375
11.796664 -21.686478 3.119472
5.725604 -22.067921 -37.877431
5.320042 -22.093402 -1.589449
9.846806 -21.808987 -17.963848
11.346130 -21.714785 -25.932151
11.081453 -21.731414 -38.157263
9.985073 -21.800299 -57.253032
8.843987 -21.871994 -52.380686
11.494654 -21.705453 -3.918975
11.821589 -21.684912 -3.043369
8.627045 -21.885624 -14.662205
7.227937 -21.973529 -39.934880
8.498205 -21.893719 -59.405598
8.854474 -21.871335 -41.812367
5.694200 -22.069894 -7.567079
6.714013 -22.005819 3.681344
5.662030 -22.071915 2.128431
5.756075 -22.066006 -13.403793
5.644753 -22.073001 -51.277025
8.471636 -21.895388 -49.443396
11.265865 -21.719828 -32.691349
8.493726 -21.894000 -41.202262
8.877569 -21.869884 -12.741481
11.438949 -21.708953 1.503030
7.466524 -21.958539 -5.175503
7.172117 -21.977037 -20.381110
7.056429 -21.984305 -57.336566
11.239835 -21.721463 -52.398258
10.702984 -21.755193 -58.930477
9.572798 -21.826203 -49.867217
6.248273 -22.035081 -25.285243
9.074554 -21.857507 -33.681219
11.198591 -21.724054 -0.688131
9.054976 -21.858737 -26.536780
7.673887 -21.945511 3.052795
10.746319 -21.752471 -45.486243
5.928600 -22.055166 -37.573746
10.089028 -21.793768 -15.120688
7.192272 -21.975770 -0.409746
10.879768 -21.744086 -25.663412
10.574944 -21.763238 -57.027173
9.678377 -21.819569 -44.481220
8.312492 -21.905387 -8.382283
4.805968 -22.125701 -49.911299
6.090236 -22.045011 -4.428365
7.375294 -21.964271 -35.293978
9.954273 -21.802235 -41.337987
10.622204 -21.760269 -47.769859
6.541666 -22.016648 -2.132041
10.071747 -21.794854 -9.704347
6.774314 -22.002030 -21.230268
7.196005 -21.975536 -31.059535
7.408493 -21.962185 -8.926426
11.460866 -21.707576 -9.535697
5.607902 -22.075316 -20.384241
4.819052 -22.124879 -2.168504
9.051591 -21.858950 -23.948997
6.078375 -22.045756 -21.224990
8.362406 -21.902251 -36.704387
8.182981 -21.913524 2.613148
7.485567 -21.957343 -48.728795
7.999009 -21.925083 -29.577298
8.462896 -21.895937 -43.460420
5.038542 -22.111089 -5.735183
7.191921 -21.975792 -51.553372
6.967435 -21.989897 -18.738723
11.957950 -21.676344 -9.845887
6.419368 -22.024332 -39.727109
9.301114 -21.843272 -47.632976
5.503427 -22.081880 -42.002828
5.634840 -22.073623 -35.345111
8.218928 -21.911266 -28.566413
10.469670 -21.769852 -20.890424
8.399495 -21.899921 -12.961700
9.609362 -21.823905 -18.590243
10.909112 -21.742242 -12.891244
9.908988 -21.805080 -50.267733
4.975106 -22.115074 -10.773781
11.607734 -21.698348 -41.045022
10.736317 -21.753099 -3.493798
8.377245 -21.901319 -2.731865
6.573759 -22.014631 -45.387640
9.819185 -21.810722 -41.700401
10.848998 -21.746019 -50.538070
11.323754 -21.716190 -26.322644
7.480922 -21.957635 -47.767418
10.321429 -21.779166 -47.006933
7.867292 -21.933359 -19.689219
7.601410 -21.950064 -24.677160
6.804933 -22.000107 2.790424
5.794145 -22.063614 -11.500629
4.872396 -22.121527 -32.951869
6.034624 -22.048505 -58.910878
5.713931 -22.068654 -57.377428
9.537235 -21.828437 -9.484878
10.540827 -21.765381 -19.151929
5.604833 -22.075509 -60.878618
7.939047 -21.928851 -60.175611
11.724927 -21.690985 -23.181605
6.164138 -22.040368 -2.801766
9.826431 -21.810267 -51.644500
7.656097 -21.946628 -42.178353
8.781876 -21.875896 -10.131839
6.073881 -22.046039 0.733181
8.238138 -21.910059 -53.863706
11.988515 -21.674424 -4.107224
10.246014 -21.783905 -3.982257
10.872016 -21.744573 -37.327951
9.578437 -21.825848 -35.191560
10.192011 -21.787298 -36.363969
7.127466 -21.979842 -48.143785
5.474192 -22.083717 -54.537355
8.064561 -21.920965 -4.047104
7.477556 -21.957846 1.016781
8.261833 -21.908570 -14.666833
11.481295 -21.706292 -30.584709
7.339394 -21.966527 -13.022518
10.511252 -21.767240 -10.815364
9.578659 -21.825834 -34.068215
6.382974 -22.026618 -44.896568
10.643800 -21.758912 -55.973164
4.928475 -22.118004 -31.107091
6.449060 -22.022466 -46.941080
9.707114 -21.817763 -22.342507
9.485456 -21.831690 -19.501992
9.031925 -21.860185 -50.873546
10.651113 -21.758452 -46.731711
10.054333 -21.795948 -44.592027
9.257434 -21.846017 -17.687575
11.502280 -21.704974 -50.722054
11.069149 -21.732187 -15.218591
7.021049 -21.986528 -41.827673
5.432973 -22.086307 3.490937
8.057058 -21.921436 -15.563482
8.996349 -21.862421 -31.001689
11.659862 -21.695073 -7.563118
8.726969 -21.879346 -40.042639
7.250136 -21.972135 -52.395606
7.046327 -21.984940 -43.559232
8.820053 -21.873497 -42.219111
5.112162 -22.106463 -37.764627
4.852832 -22.122757 -26.103655
7.943184 -21.928591 -53.331783
7.451198 -21.959502 -58.968411
6.852242 -21.997134 -24.661322
9.201545 -21.849528 -35.979238
7.602917 -21.949970 -8.224640
5.447759 -22.085378 -21.854926
11.458170 -21.707745 -17.343645
8.180325 -21.913691 -27.846944
9.162678 -21.851970 -3.424722
9.343127 -21.840633 -1.554959
9.644018 -21.821728 -59.806525
