-36.632209 67.230173 -8.603276
-43.895410 61.356109 -10.266892
-43.599864 61.635472 -3.088796
-38.197962 66.065290 -43.714500
-43.800792 61.445546 -29.197206
-45.931085 59.431894 -57.638865
-41.495734 63.448645 -1.815655
-34.814252 68.455132 -32.182426
-34.260021 68.828578 -12.415301
-34.200212 68.868878 0.908855
-44.995042 60.316685 -31.603101
-40.373414 64.398701 -37.466874
-40.702681 64.119973 -49.179167
-41.760777 63.224282 -52.145219
-34.466748 68.689283 -15.796383
-36.668718 67.205573 -27.440338
-39.899928 64.777615 -33.308261
-33.790385 69.145023 -53.640989
-42.370675 62.707996 -2.038079
-44.558071 60.729731 -37.510297
-40.591251 64.214300 -2.367729
-35.467161 68.015194 -40.984720
-42.923168 62.240304 -23.293162
-39.849052 64.816107 -53.633816
-39.316775 65.218817 -53.088468
-40.161897 64.577754 -60.510025
-43.689259 61.550972 -30.260963
-46.007138 59.360005 -39.392291
-41.974317 63.043518 -58.630512
-38.959004 65.489500 -40.157758
-36.708742 67.178605 -20.341309
-39.614430 64.993617 -11.194742
-35.740548 67.830984 -59.611402
-43.758584 61.485443 -57.930029
-33.838702 69.112467 -37.822395
-37.588722 66.526229 -13.140243
-41.338781 63.581507 -52.322204
-43.603074 61.632438 -20.554373
-37.918063 66.277055 -17.071110
-39.037365 65.430213 -47.967024
-41.780608 63.207495 -24.015277
-43.731572 61.510976 -25.156743
-35.527122 67.974792 -52.906046
-43.493546 61.735969 -14.091842
-40.263761 64.491524 -44.599554
-34.459820 68.693951 -11.299064
-43.918106 61.334655 -18.997739
-34.288793 68.809191 -16.879265
-37.765069 66.392808 -14.871126
-40.922962 63.933502 -47.735154
-37.041155 66.940508 -39.044166
-41.869592 63.132169 -5.027105
-44.149203 61.116212 -9.822258
-46.195497 59.181960 -56.948357
-42.057617 62.973003 -14.785291
-34.155384 68.899083 -53.639750
-41.930342 63.080743 -44.927124
-43.136635 62.059602 -32.021094
-37.868567 66.314503 -22.564934
-42.131658 62.910327 2.968006
-38.166205 66.089316 -14.906358
-44.566305 60.721947 -55.468342
-44.763922 60.535150 -61.116458
-44.241305 61.029153 -3.928011
-35.683960 67.869113 -57.144498
-41.669371 63.301659 -21.009487
-43.942823 61.311292 -13.410951
-40.735076 64.092550 -36.769490
-43.773433 61.471407 -9.484045
-43.340285 61.880838 -10.739521
-40.530006 64.266144 -27.661118
-43.000162 62.175128 -34.584070
-37.335801 66.717584 -47.296375
-35.326030 68.110290 -5.467453
-33.483599 69.351739 -45.021078
-39.442889 65.123402 3.179645
-34.072750 68.954763 -59.698004
-36.092729 67.593681 -40.372730
-42.451358 62.639697 -42.658351
-34.605455 68.595821 -22.888790
-42.568299 62.540705 -43.837782
-33.728316 69.186846 -20.431557
-35.644359 67.895797 -33.855840
-33.949419 69.037865 -26.844625
-41.628170 63.336536 -30.647802
-35.844542 67.760912 -2.498661
-45.235772 60.089136 -45.560427
-40.501581 64.290207 -49.393553
-44.998087 60.313807 -4.003109
-37.390192 66.676433 -44.866098
-37.291003 66.751478 -45.435428
-40.219294 64.529166 -50.949150
-39.998670 64.702908 1.208279
-40.957480 63.904283 -58.858895
-43.574610 61.659344 0.229929
-35.975581 67.672616 -0.903081
-41.465900 63.473899 -12.384560
-43.211145 61.996528 -53.279337
-40.621790 64.188448 2.495326
-43.344815 61.876557 -0.152369
-38.541835 65.805122 -54.186513
-37.536630 66.565640 -13.474974
-41.434736 63.500280 -0.134144
-35.613469 67.916611 -40.712301
-35.614885 67.915657 -23.706188
-41.453221 63.484632 -1.413989
-39.947897 64.741322 -23.547036
-39.514464 65.069250 -30.124178
-37.998588 66.216132 -10.437303
-37.314627 66.733604 -44.140834
-44.240287 61.030115 -28.023821
-37.157142 66.852754 0.821458
-41.415162 63.516850 -43.891053
-44.730132 60.567090 -26.196631
-42.680071 62.446089 -13.464840
-38.946085 65.499274 -17.345097
-36.946958 67.011775 -57.157921
-39.577813 65.021321 -60.971883
-35.747979 67.825977 -7.485394
-35.314870 68.117810 -50.725153
-39.312823 65.221807 -9.112539
-37.203330 66.817809 -19.660533
-39.155414 65.340900 -10.630230
-46.136366 59.237852 -32.788392
-43.578763 61.655418 -37.356691
-36.014544 67.646363 -48.987232
-34.754123 68.495647 -12.371367
-43.499736 61.730118 -56.438733
-34.002746 69.001933 -19.268437
-45.306993 60.021815 -46.843452
-35.871176 67.742965 -55.828216
-43.725677 61.516548 -35.783204
-39.358606 65.187169 -37.976841
-36.183519 67.532505 -51.119343
-41.833280 63.162908 -1.157958
-36.766592 67.139625 -46.838293
-40.741515 64.087100 -40.459225
-45.668008 59.680567 -4.886925
-37.835948 66.339183 -2.815982
-45.780348 59.574377 -45.879997
-33.571999 69.292174 -18.767602
-44.603769 60.686534 -22.968120
-35.355880 68.090177 -43.291967
-43.306161 61.913094 -46.385071
-40.821820 64.019120 -11.539559
-41.203160 63.696312 -12.847203
-35.069834 68.282918 -34.666059
-39.673625 64.948832 -15.251655
-41.226830 63.676275 -43.641989
-43.254861 61.959522 -3.573255
-37.538425 66.564283 -47.457189
-44.620157 60.671044 -24.186188
-44.253665 61.017469 -28.711302
-37.132513 66.871388 -28.692339
-38.596836 65.763509 -45.591392
-41.940951 63.071763 -8.868896
-39.362063 65.184553 -39.562971
-33.974172 69.021186 -49.438767
-34.961899 68.355645 -12.472010
-42.457211 62.634742 -56.235386
-35.061572 68.288485 -19.764441
-37.262180 66.773284 -49.086481
-34.161242 68.895136 -57.194687
-39.038494 65.429359 -37.001447
-45.608899 59.736438 -14.341917
-41.280758 63.630624 -50.101277
-35.064539 68.286486 -0.803473
-35.839618 67.764230 -16.883207
-45.365627 59.966391 -32.653100
-34.942795 68.368518 -56.371273
-39.309629 65.224224 -41.976693
-37.550090 66.555457 -35.034891
-34.769180 68.485501 -27.487703
-42.421649 62.664846 3.826608
-34.157499 68.897658 -28.866782
-37.515216 66.581842 -23.666403
-43.351009 61.870702 -51.387350
-46.042292 59.326776 -13.945435
-39.163450 65.334820 -1.887213
-42.212089 62.842241 -4.226438
-42.181064 62.868505 -1.585139
-44.106478 61.156597 1.151909
-45.261861 60.064475 -54.112765
-44.477871 60.805539 0.949183
-42.964222 62.205552 -52.685972
-37.840526 66.335719 -42.531457
-45.816185 59.540503 -54.298052
-44.235995 61.034171 -45.747782
-33.678869 69.220164 3.867959
-45.902800 59.458630 -27.186004
-43.031212 62.148844 -49.420039
-37.687987 66.451127 -23.484407
-45.920053 59.442321 -17.545001
-44.474963 60.808288 -55.739787
-40.414453 64.363961 -60.525893
-40.649550 64.164950 -30.718577
-40.497370 64.293771 -16.358325
-34.675187 68.548835 -60.276934
-34.296720 68.803850 -22.239734
-44.238410 61.031889 -43.392910
-43.802669 61.443772 -32.012613
-39.100138 65.382721 -45.943375
-36.041796 67.628000 -3.908428
-35.581451 67.938185 -9.189237
-36.893856 67.051951 -43.623415
-39.181544 65.321131 -38.277521
-38.661667 65.714459 -5.742535
-35.211858 68.187220 -1.038981
-43.491643 61.737768 -0.950207
-35.105917 68.258605 -51.982524
-40.799911 64.037667 -42.117059
-36.978631 66.987812 2.073499
-45.458431 59.878669 -8.990887
-40.383587 64.390090 -34.558736
-43.452861 61.774426 -48.933580
-40.161311 64.578250 -41.798767
-41.003430 63.865386 -19.373776
-40.635841 64.176554 -21.759902
-40.217770 64.530456 -46.295234
-36.564017 67.276122 -8.860468
-44.157526 61.108345 -14.205228
-40.882926 63.967394 -5.619753
-43.595411 61.639681 -31.661698
-36.642623 67.223157 -17.781392
-36.312325 67.445714 3.059742
-36.155636 67.551294 -9.960019
-44.974540 60.336065 -12.897343
-44.524928 60.761058 -56.958743
-41.741293 63.240775 -52.446681
-39.428778 65.134078 1.431498
-41.393141 63.535491 -58.912734
-45.352586 59.978718 -32.358091
-36.287621 67.462360 -49.776996
-38.777288 65.626983 -60.466738
-36.572954 67.270100 -3.268103
-44.479049 60.804425 -46.178991
-40.260523 64.494265 -14.051360
-43.775131 61.469802 -31.577888
-41.900337 63.106143 -38.943401
-41.206402 63.693568 -6.250379
-34.126794 68.918348 -9.673088
-41.873807 63.128601 -7.059973
-41.045092 63.830118 -41.049283
-39.902802 64.775440 -34.022039
-45.304946 60.023750 -53.727381
-46.249407 59.131001 -51.860366
-35.059297 68.290018 -54.132180
-44.177263 61.089688 -31.958145
-43.621016 61.615479 -11.987870
-42.447919 62.642608 -46.492349
-36.727336 67.166076 -24.919990
-35.671223 67.877696 -18.180136
-38.752442 65.645781 -21.347235
-46.230530 59.148845 -43.240003
-37.604384 66.514379 -40.332665
-37.901155 66.289848 -43.888925
-35.854860 67.753959 -58.080729
-36.684443 67.194978 -9.845805
-45.531428 59.809668 -52.199798
-38.856413 65.567118 -16.047283
-38.709430 65.678323 -31.190825
-44.228974 61.040808 -11.102757
-39.171747 65.328542 -40.199579
-37.751467 66.403099 -34.917512
-41.035369 63.838349 -32.980401
-43.630156 61.606839 -2.270180
-42.595852 62.517381 -48.278180
-38.038343 66.186054 -9.156783
-37.065638 66.921984 -21.775265
-33.744935 69.175648 -45.703813
-34.974822 68.346938 -58.988297
-40.618150 64.191530 3.583804
-39.529107 65.058170 -42.940493
-44.968398 60.341870 -24.558069
-44.134269 61.130328 -46.718988
-37.247490 66.784398 -8.716613
-34.940076 68.370350 -35.695737
-39.810078 64.845594 -54.482549
-42.595825 62.517404 -13.068687
-42.258939 62.802582 -20.568807
-40.523683 64.271498 -22.109640
-42.842762 62.308369 -31.598765
-39.581053 65.018869 -19.755999
-33.990504 69.010181 -2.796776
-40.395316 64.380162 -30.990805
-35.581768 67.937971 -41.817524
-41.034826 63.838808 -46.325586
-35.266207 68.150599 -30.589455
-33.514670 69.330803 -16.802314
-42.752583 62.384706 -15.045532
-35.639515 67.899061 -18.741928
-45.290028 60.037850 -47.701489
-42.885262 62.272392 -42.446085
-42.798870 62.345524 -25.845630
-34.050117 68.970013 -51.383143
-33.720333 69.192225 -43.510281
-40.476559 64.311388 -18.742094
-45.095954 60.221298 -26.684364
-42.214618 62.840100 -50.931160
-45.561781 59.780977 -36.180275
-36.225939 67.503922 3.870660
-37.844644 66.332603 -56.889265
-45.792400 59.562985 -37.469118
-36.474204 67.336639 -52.891705
-38.099641 66.139678 -20.840066
-46.158403 59.217022 -38.974333
-39.788063 64.862250 -5.626230
-42.446419 62.643878 -52.235185
-34.885866 68.406877 -34.904984
-42.467654 62.625903 -13.345430
-41.734061 63.246898 -14.173824
-44.974357 60.336238 -0.525960
-35.422022 68.045610 -59.779564
-43.760516 61.483617 -46.369380
-40.906551 63.947395 -10.827586
-36.265787 67.477072 -32.462521
-36.282021 67.466134 1.814404
-42.489888 62.607081 -24.280462
-45.029977 60.283663 -2.813042
-37.817416 66.353204 -1.861525
-35.796463 67.793308 -60.946200
-40.039571 64.671964 -25.790154
-36.666880 67.206812 -33.017311
-37.671802 66.463372 -7.064242
-41.680826 63.291962 -33.945476
-41.248865 63.657622 -21.007131
-43.450520 61.776640 -57.002924
-41.602554 63.358220 -32.552220
-46.237666 59.142099 -27.287292
-43.574225 61.659707 -53.108438
-37.253624 66.779758 -19.359752
-41.520434 63.427736 -55.360063
-44.606688 60.683775 -33.864059
-43.103835 62.087367 -13.107953
-34.063625 68.960912 -13.549950
-38.438029 65.883660 -44.114910
-44.882466 60.423097 -16.121258
-35.419500 68.047309 -56.894561
-46.237295 59.142450 -9.152864
-40.652764 64.162228 -58.054692
-34.693052 68.536797 -57.109116
-39.752277 64.889325 -21.251291
-40.908389 63.945839 -19.989859
-43.902060 61.349822 -47.268899
-45.749339 59.603689 -16.160213
-38.034073 66.189285 -8.876067
-37.415353 66.657396 -56.251618
-44.841215 60.462090 -50.406692
-42.280603 62.784243 1.150109
-37.341983 66.712907 -29.853599
-35.067750 68.284322 3.324012
-33.952795 69.035590 -15.566473
-33.913038 69.062379 -5.377303
-45.675868 59.673137 -27.324450
-39.842307 64.821210 -47.004434
-34.847807 68.432521 -30.110586
-46.140691 59.233765 -56.442544
-41.928946 63.081925 -7.904266
-45.329990 60.000077 -48.454942
-38.086289 66.149779 -17.677946
-45.386410 59.946746 -25.169929
-35.370200 68.080528 -0.271073
-43.088594 62.100269 -56.518461
-43.584609 61.649892 -17.935832
-39.236169 65.279802 -1.311558
-45.472241 59.865614 -51.099296
-36.927899 67.026195 -4.748850
-35.826855 67.772829 -5.863019
-45.677195 59.671882 -14.630085
-39.779153 64.868991 -31.486095
-34.645307 68.568968 0.520081
-40.230086 64.520030 3.555573
-43.350323 61.871350 -4.434213
-43.669464 61.569683 -42.717755
-40.223907 64.525261 -13.062130
-37.439904 66.638822 -37.577895
-42.591014 62.521477 -1.345748
-44.651640 60.641284 1.330748
-44.994285 60.317401 -55.118652
-39.828580 64.831596 -48.564106
-34.792095 68.470061 -10.240700
-38.154097 66.098477 -45.887866
-40.902811 63.950561 -13.958308
-35.030017 68.309747 -58.092634
-36.624966 67.235054 -44.022950
-44.059634 61.200877 -60.588900
-43.738963 61.503990 -11.466185
-35.207078 68.190441 -4.677539
-36.769869 67.137417 -50.947101
-35.904843 67.720280 -60.043672
-36.056249 67.618261 -0.587303
-40.815797 64.024219 -50.987183
-38.471661 65.858214 -42.903966
-45.278031 60.049191 -51.570288
-44.124212 61.139834 0.489822
-44.309538 60.964656 -17.745680
-40.018030 64.688261 -45.678474
-46.244200 59.135923 -59.482280
-38.148884 66.102421 -33.627319
-35.968394 67.677459 -19.839621
-36.774883 67.134038 -39.833175
-41.619866 63.343565 -14.701791
-44.862272 60.442186 -8.465725
-38.657233 65.717814 -35.588710
-34.951004 68.362987 -50.086435
-41.909657 63.098254 2.543259
-37.765422 66.392541 -55.055220
-42.611873 62.503820 2.046615
-33.864219 69.095273 -26.170559
-34.033712 68.981067 -7.862726
-41.758530 63.226184 -44.247517
-41.866619 63.134685 -23.498419
-34.236230 68.844609 -24.510035
-44.541428 60.745462 -8.079711
-44.421619 60.858712 -53.369682
-36.602807 67.249985 -38.353683
-43.266492 61.949676 -49.211157
-41.820641 63.173606 -37.822605
-45.221121 60.102985 -6.306186
-36.725019 67.167637 -15.072175
-36.607782 67.246633 -45.176658
-42.856244 62.296956 -58.588862
-45.426747 59.908617 2.703909
-42.868328 62.286727 -4.884560
-34.747766 68.499930 -40.363035
-38.682659 65.698577 -21.943475
-37.779381 66.381980 -48.653176
-38.919806 65.519156 -56.422652
-33.706029 69.201863 2.095315
-42.937197 62.228428 -7.974320
-41.268609 63.640908 -25.156012
-43.987332 61.269220 -22.931749
-41.982961 63.036201 -3.165998
-38.233154 66.038664 -43.977310
-45.353851 59.977523 -40.427134
-37.668244 66.466064 -17.719494
-46.014621 59.352931 -34.146464
-45.964510 59.400299 -56.314869
-42.428139 62.659352 -37.943890
-38.098669 66.140413 -46.532659
-37.885532 66.301668 -33.774641
-45.427395 59.908005 -53.169360
-38.736611 65.657758 -48.954782
-45.485094 59.853465 -28.979055
-43.016417 62.161368 -12.711257
-40.960728 63.901534 -47.296046
-42.171875 62.876283 -47.289897
-41.657820 63.311437 -21.891583
-38.579342 65.776745 -16.518243
-44.144347 61.120801 -32.706023
-44.649042 60.643741 -46.062895
-41.922511 63.087372 -55.636193
-37.868378 66.314647 -30.493733
-44.053580 61.206599 -9.244911
-35.126852 68.244498 -57.428491
-45.586782 59.757345 -37.274388
-35.585212 67.935651 -4.265629
-44.021178 61.237226 -45.973248
-43.060742 62.123846 -41.771029
-34.753279 68.496215 -8.032453
-38.671455 65.707054 -41.682437
-37.285263 66.755820 -45.170636
-41.532409 63.417598 -35.136271
-34.385477 68.744044 -12.766122
-44.837034 60.466042 0.176812
-42.978274 62.193656 -45.116691
-43.255015 61.959391 -10.189975
-39.387891 65.165012 -49.992731
-42.262935 62.799199 -46.306348
-38.741145 65.654328 1.929078
-45.566814 59.776219 -49.649553
-44.322452 60.952449 -59.246045
-42.007401 63.015512 -6.477920
-40.861600 63.985447 -24.452141
-33.470810 69.360356 -49.965343
-34.284650 68.811983 -28.600979
-34.162364 68.894380 -50.044221
-40.746145 64.083181 2.113051
-36.845141 67.086698 -56.086333
-33.584028 69.284069 -25.299004
-44.315098 60.959400 -29.038563
-42.174501 62.874059 -51.486599
-44.505524 60.779400 -12.446580
-35.678530 67.872772 -58.349278
-36.142403 67.560210 -21.569288
-35.420535 68.046612 -1.940525
-39.968567 64.725684 -40.704554
-44.831655 60.471126 0.517728
-42.842745 62.308383 -57.369998
-34.201283 68.868156 -41.585203
-37.816773 66.353690 -50.658351
-38.258898 66.019187 -53.816026
-44.114969 61.148571 -4.522737
-45.121353 60.197290 -37.225097
-43.144084 62.053296 -27.782939
-45.052254 60.262605 -2.015032
-36.057110 67.617681 -3.196076
-41.644262 63.322913 -49.360081
-44.138715 61.126125 3.459884
-43.757175 61.486775 -52.291501
-38.553528 65.796275 -22.851948
-34.331064 68.780708 -10.985535
-42.236865 62.821268 -39.066995
-44.036731 61.222525 -3.875587
-40.585402 64.219251 -46.650456
-39.067767 65.407212 -44.869773
-44.654381 60.638694 -54.321648
-37.927016 66.270283 -24.253219
-35.337343 68.102667 -4.102330
-38.499019 65.837516 -33.065019
-37.125547 66.876659 -54.692299
-38.978342 65.474869 -40.677123
-41.233510 63.670620 -47.916326
-43.219683 61.989301 -36.057010
-37.940052 66.260419 -9.868016
-34.833446 68.442198 -5.648563
-44.540655 60.746193 -50.311288
-44.356751 60.920028 -52.912434
-36.382093 67.398704 -53.626633
-39.490161 65.087637 -24.869232
-40.862624 63.984580 -17.026917
-41.077447 63.802729 -36.007051
-39.241050 65.276109 -12.172141
-42.459374 62.632911 -56.958447
-35.363309 68.085171 -18.761845
-43.055535 62.128254 2.662157
-41.099583 63.783991 -25.628855
-44.047997 61.211876 -28.164117
-36.315263 67.443735 -11.158864
-42.119249 62.920831 -2.635130
-36.817064 67.105616 -18.366684
-40.981253 63.884159 -3.703073
-42.467763 62.625810 -44.414155
-33.875874 69.087420 -41.098509
-43.379298 61.843962 -22.024596
-40.427165 64.353201 -23.663224
-45.837133 59.520702 -46.955663
-33.756617 69.167776 -32.499898
-35.917968 67.711436 -10.351398
-39.369014 65.179294 -0.455513
-37.981576 66.229003 -36.017926
-39.692071 64.934875 -37.781303
-34.659773 68.559221 -12.996889
-38.475215 65.855525 -14.531730
-44.950397 60.358886 -30.625929
-35.202108 68.193790 -2.670313
-46.067405 59.303038 -55.465557
-38.924902 65.515301 -35.423623
-42.067728 62.964445 -48.635106
-33.767205 69.160642 -50.056650
-39.753648 64.888287 -51.632484
-44.950098 60.359168 -15.214818
-33.497571 69.342324 -56.845945
-39.581400 65.018607 -30.433712
-45.694613 59.655418 -17.573309
-35.514008 67.983629 -38.376588
-40.606095 64.201735 -53.363776
-35.223082 68.179658 -54.886022
-43.066053 62.119351 -35.425465
-46.064868 59.305436 -59.874923
-40.369554 64.401969 -17.269933
-33.967773 69.025498 -56.170078
-42.500044 62.598484 -8.961858
-35.206863 68.190586 -60.725015
-35.966073 67.679023 -60.344563
-38.387954 65.921546 -16.426007
-35.572397 67.944286 -11.996769
-37.616377 66.505306 -27.340903
-44.760216 60.538653 -33.194501
-39.020465 65.442999 -55.024736
-43.656446 61.581988 -53.415281
-42.951239 62.216542 -40.324212
-41.518267 63.429570 -18.183472
-41.905427 63.101834 -40.743344
-33.878629 69.085563 -1.953229
-42.629683 62.488743 -9.419721
-41.603132 63.357730 -45.634428
-37.341435 66.713321 -24.926550
-35.169137 68.216006 -58.297313
-42.562794 62.545365 -14.164361
-40.272075 64.484487 -51.221834
-38.563988 65.788361 -17.640686
-39.374331 65.175271 -32.455326
-43.202856 62.003545 -23.395840
-42.254474 62.806362 -1.275682
-44.029865 61.229015 -11.523793
-44.437764 60.843450 -16.905908
-37.833947 66.340696 -44.810309
-35.929172 67.703887 -8.965180
-39.028249 65.437110 -28.113306
-34.081049 68.949171 -54.776994
-42.688864 62.438645 -52.144913
-41.537944 63.412913 -52.249175
-39.794229 64.857584 -22.831958
-42.802316 62.342607 -43.201892
-34.080718 68.949394 -36.885830
-41.201646 63.697593 -56.205559
-35.192386 68.200341 -30.919550
-43.434649 61.791641 -27.520796
-36.701266 67.183642 -1.319722
-42.041000 62.987070 -27.566667
-44.444219 60.837348 -6.241458
-38.902394 65.532330 -35.073108
-35.132396 68.240763 -61.031784
-39.516038 65.068058 -5.649293
-34.442913 68.705343 -21.748703
-43.007120 62.169238 -24.826767
-42.423042 62.663667 -56.541445
-44.615482 60.675463 -51.434641
-40.691735 64.129239 -40.085858
-33.819678 69.125285 -18.966954
-41.931470 63.079789 -29.690661
-41.025335 63.846843 1.302887
-37.312952 66.734871 -45.980882
-35.385815 68.070006 -5.858102
-41.720978 63.257973 -41.200350
-43.751877 61.491782 -37.182385
-43.841970 61.406622 -8.286473
-38.650702 65.722755 -10.506877
-41.740904 63.241105 -11.866224
-39.874559 64.796808 -36.782845
-35.659853 67.885357 -0.530664
-41.441544 63.494517 -36.298072
-39.311021 65.223171 -19.388007
-33.892022 69.076539 -27.663546
-45.965266 59.399584 -42.849706
-39.562922 65.032587 -44.345693
-40.600062 64.206842 -26.244309
-36.939081 67.017735 0.725433
-34.455651 68.696760 -45.789888
-43.445965 61.780945 -41.679999
-37.799606 66.366678 -24.773368
-42.009312 63.013894 -43.420016
-40.803945 64.034252 -55.287423
-35.587419 67.934164 -24.519715
-40.752658 64.077667 -28.334642
-45.290748 60.037170 -6.670406
-44.544314 60.742735 -26.850851
-45.400652 59.933284 3.083343
-43.906082 61.346020 -41.757036
-33.482523 69.352464 -45.886986
-36.072746 67.607145 -43.187089
-36.468600 67.340415 -58.647308
-42.711762 62.419262 -59.985419
-38.723688 65.667535 -37.404015
-37.602258 66.515987 -41.863146
-41.551797 63.401186 -58.016629
-33.679973 69.219420 -48.243386
-42.272352 62.791228 -26.192430
-37.550302 66.555297 -58.876126
-41.465953 63.473854 -28.291690
-39.084259 65.394734 -16.693930
-34.794708 68.468301 -17.376700
-38.000075 66.215007 -52.546372
-37.503019 66.591070 -42.160849
-36.052157 67.621019 -20.799274
-34.021298 68.989432 1.768298
-36.094659 67.592380 -25.137173
-44.325452 60.949613 -33.279496
-45.067438 60.248253 -55.376852
-37.596272 66.520517 -23.921906
-34.322086 68.786758 -38.147146
-43.947895 61.306498 2.173467
-44.156051 61.109739 -25.878639
-34.634698 68.576117 -28.945977
-46.124752 59.248831 -58.370713
-41.700551 63.275265 -22.344628
-39.607880 64.998573 -14.672051
-34.178096 68.883779 -19.601003
-36.726428 67.166688 -21.624547
-41.672963 63.298618 -27.851455
-39.956350 64.734927 -58.215593
-44.579636 60.709346 -39.241029
-44.613213 60.677608 -50.873042
-38.871447 65.555744 -24.144821
-41.968326 63.048589 -39.678137
-43.230441 61.980194 -7.912859
-39.628117 64.983262 3.836717
-41.561726 63.392781 -35.967209
-40.785711 64.049687 -60.244870
-38.654033 65.720235 -42.659122
-40.435283 64.346329 -59.647391
-41.518356 63.429494 -34.159515
-44.377260 60.900642 -37.380032
-35.075464 68.279124 -18.815945
-44.741824 60.556038 -10.209150
-40.080318 64.641135 -42.051301
-41.209040 63.691334 -42.195871
-35.164130 68.219380 -59.353167
-38.685242 65.696623 -40.086207
-41.624198 63.339898 -41.842680
-39.544916 65.046210 -49.387709
-37.762843 66.394493 -54.644339
-41.101644 63.782246 3.681255
-36.001312 67.655279 1.233070
-45.051008 60.263784 -50.821198
-36.358818 67.414387 -8.701054
-43.212398 61.995468 -11.031340
-41.091480 63.790850 -43.902412
-34.564388 68.623492 -35.200341
-41.486780 63.456224 -49.192999
-35.434749 68.037035 0.249850
-44.116254 61.147357 -39.668753
-35.420311 68.046762 -4.981036
-34.860628 68.423883 -50.969703
-43.259531 61.955569 -29.874080
-43.177848 62.024715 -6.283526
-38.919356 65.519497 -10.491984
-40.633471 64.178560 -7.608522
-37.384908 66.680430 -2.281854
-45.926658 59.436078 -48.173506
-43.146286 62.051432 -55.066371
-44.635367 60.656667 -52.230401
-35.313258 68.118896 -53.177246
-33.815750 69.127932 -57.517911
-42.051564 62.978127 -5.951465
-44.532838 60.753582 -4.286798
-41.803813 63.187851 -27.122874
-43.397771 61.826500 -3.181524
-41.888870 63.115850 -53.540039
-38.453608 65.871873 -4.018388
-43.712169 61.529316 2.296795
-33.927289 69.052776 -36.666065
-44.526385 60.759682 -3.385690
-40.992252 63.874848 -54.209710
-38.835500 65.582940 -5.531744
-41.139763 63.749978 -13.211918
-37.391846 66.675182 -24.152644
-38.285029 65.999416 -2.674349
-38.333564 65.962696 -8.413121
-39.114239 65.372052 -30.002579
-39.504839 65.076532 -2.967511
-33.882265 69.083114 -38.463650
-37.504249 66.590140 -45.846643
-34.533569 68.644259 -31.564361
-41.696901 63.278354 2.482758
-43.489126 61.740147 2.140280
-43.107718 62.084080 -51.167745
-42.208790 62.845033 -10.110071
-33.831117 69.117578 -36.410550
-34.401615 68.733171 -8.294340
-42.324625 62.746978 -17.530415
-37.922034 66.274051 -27.939382
-39.594379 65.008787 -16.758276
-36.387325 67.395179 0.058676
-37.962422 66.243494 -6.535713
-38.549631 65.799224 -22.554152
-44.080743 61.180923 -23.226276
-33.887599 69.079520 -48.007328
-43.444445 61.782381 -19.933528
-37.051668 66.932553 -22.850864
-40.196722 64.548274 -5.792183
-42.706743 62.423510 -56.015055
-36.970302 66.994114 -13.377346
-44.725774 60.571210 -42.352597
-43.310019 61.909448 -60.713032
-33.655143 69.236151 -58.614426
-36.113962 67.579373 -20.533909
-35.038433 68.304076 -52.776861
-41.504924 63.440865 -25.918013
-43.980223 61.275939 -28.662931
-39.784756 64.864752 2.630304
-36.985959 66.982268 3.820459
-42.305395 62.763257 -41.574040
-44.593335 60.696397 0.709521
-37.240612 66.789603 -12.669628
-44.210297 61.058463 -51.612303
-46.065860 59.304498 -1.781982
-42.218919 62.836459 -36.651328
-36.377390 67.401873 -11.914964
-46.204647 59.173310 -35.404928
-41.669106 63.301883 -0.962064
-37.526232 66.573507 -24.360148
-37.971259 66.236809 -35.304962
-36.169370 67.542039 -31.113525
-35.278960 68.142007 -31.879657
-40.623763 64.186779 -20.432469
-36.139848 67.561932 -60.794967
-34.196079 68.871663 -17.188575
-37.301762 66.743338 0.191077
-39.601225 65.003608 1.194850
-36.769371 67.137753 -29.165965
-35.377978 68.075287 -60.947793
-44.810022 60.491574 -25.348287
-38.842661 65.577523 -32.203238
-38.056527 66.172297 -10.141793
-35.577529 67.940827 -3.018433
-35.172393 68.213812 -41.575674
-41.795535 63.194859 -51.377770
-45.870235 59.489412 -18.631827
-39.128254 65.361448 -12.438703
-34.851691 68.429905 -42.987760
-34.828474 68.445549 -32.469075
-45.591481 59.752904 -26.266669
-37.845688 66.331813 -35.577200
-45.752255 59.600933 -7.199872
-35.713613 67.849133 -28.787856
-39.454576 65.114559 -18.710199
-42.609840 62.505540 -6.843619
-35.724513 67.841788 -38.140889
-35.990982 67.662239 -3.471805
-39.394244 65.160206 -35.746624
-37.805558 66.362175 -15.142423
-37.420245 66.653696 -0.889414
-42.832085 62.317407 -0.517517
-41.950229 63.063908 -11.562094
-38.398266 65.913743 -16.031126
-36.765442 67.140400 2.695774
-43.502696 61.727320 -24.410384
-41.420080 63.512686 -52.045347
-34.260999 68.827919 -11.809241
-42.818496 62.328911 -34.775285
-44.672149 60.621899 3.037716
-45.348114 59.982945 -54.691015
-35.429110 68.040834 -8.069369
-44.392556 60.886183 -45.284932
-40.437154 64.344745 -43.141715
-45.616036 59.729692 -59.767163
-40.954479 63.906823 -25.436159
-42.468394 62.625276 -31.836964
-42.417269 62.668554 -36.940473
-38.857811 65.566061 -39.185694
-34.124363 68.919985 -58.367972
-41.172420 63.722333 -58.910598
-36.185705 67.531033 -59.820011
-37.479882 66.608575 -8.568740
-44.173844 61.092919 -8.999589
-37.433999 66.643289 -29.111162
-41.555665 63.397912 -38.432959
-35.650229 67.891842 -14.562711
-45.357769 59.973818 -26.615957
-34.683251 68.543401 -2.099862
-33.467909 69.362311 -31.539224
-46.234484 59.145107 -34.867408
-44.832223 60.470589 -17.316733
-37.665216 66.468355 -30.337252
-43.023482 62.155388 -2.229744
-36.329193 67.434349 -55.613713
-39.187609 65.316541 -48.743060
-45.752069 59.601108 -31.334576
-41.902758 63.104094 3.869982
-40.376832 64.395809 -42.405194
-36.466267 67.341987 -40.405894
-34.323244 68.785978 -48.048928
-34.823308 68.449030 -0.477717
-41.051774 63.824462 -0.527554
-43.604465 61.631123 -23.549765
-41.674764 63.297094 -5.908882
-42.522512 62.579465 -41.342143
-38.978512 65.474741 -25.447372
-35.463912 68.017384 -26.204295
-35.768148 67.812387 -36.329431
-44.659699 60.633667 -15.746387
-39.932913 64.752659 -29.426087
-38.007171 66.209639 -17.294633
-41.470938 63.469634 -60.609769
-41.137682 63.751740 -12.207796
-38.952837 65.494165 -51.131192
-41.957501 63.057753 -30.102810
-42.832304 62.317222 -12.189771
-38.223133 66.046245 -30.490943
-42.076209 62.957266 -45.659485
-45.284310 60.043256 -35.836083
-35.733883 67.835475 -8.757396
-44.306234 60.967779 -18.000644
-35.179750 68.208855 -13.513445
-34.828293 68.445671 -44.422798
-44.557973 60.729824 -13.405194
-39.608017 64.998469 -49.912287
-44.182235 61.084988 -29.261315
-41.667931 63.302877 -49.971084
-45.324195 60.005554 -48.723749
-42.827177 62.321562 -3.729410
-42.156712 62.889119 -55.070835
-40.091990 64.632304 -17.246434
-44.145832 61.119398 -56.263608
-39.656825 64.961542 -4.110832
-36.709290 67.178236 -9.566262
-43.049614 62.133266 -19.802273
-39.471578 65.101696 -41.761021
-42.901109 62.258977 -37.832247
-38.763171 65.637664 -32.861585
-34.729664 68.512128 -25.770098
-43.113838 62.078900 -14.469328
-41.588732 63.369920 -26.919519
-45.222015 60.102140 -1.583781
-38.991195 65.465145 -8.692297
-43.277226 61.940445 -21.427471
-44.717723 60.578820 -48.620996
-36.391380 67.392446 -18.313349
-45.083282 60.233277 -41.229261
-33.640349 69.246119 -36.857490
-35.425944 68.042967 -36.299721
-38.187375 66.073299 -56.049082
-41.310986 63.605035 0.856601
-35.928415 67.704397 -33.571946
-44.082976 61.178812 -41.215443
-34.467083 68.689057 -46.899128
-45.171695 60.149705 -6.937726
-41.608543 63.353150 1.656383
-37.778554 66.382605 -59.503012
-36.982977 66.984524 -60.540400
-43.408204 61.816639 -34.995660
-43.138609 62.057931 -57.774509
-37.851147 66.327683 -49.253914
-45.867781 59.491731 -11.846727
-39.434580 65.129688 -44.569089
-45.966567 59.398355 -23.206614
-41.949135 63.064835 -19.481452
-45.856677 59.502228 -10.492696
-44.578826 60.710112 -16.307554
-34.539780 68.640073 -42.866780
-37.937516 66.262338 -31.570295
-45.869575 59.490036 -37.998370
-38.794724 65.613791 -1.537037
-44.536257 60.750350 0.346450
-42.638399 62.481365 -51.037690
-41.047758 63.827862 -13.489022
-43.136549 62.059675 -57.155155
-45.739154 59.613316 -49.509525
-44.490508 60.793594 -26.599734
-35.955577 67.686095 -52.049864
-35.390394 68.066921 -41.328536
-45.355680 59.975794 -17.725485
-37.918697 66.276576 -60.107320
-41.731543 63.249029 -43.571281
-44.446911 60.834804 -49.476348
-40.715503 64.109119 -60.608575
-39.267252 65.256286 -57.397306
-37.291933 66.750774 -26.307494
-35.111209 68.255039 -32.108967
-44.342142 60.933837 -48.017401
-36.135047 67.565166 -58.446001
-39.691304 64.935456 -18.833292
-46.194051 59.183326 -28.663800
-34.158475 68.897001 -12.930432
-45.978296 59.387268 -13.620333
-44.346405 60.929807 -3.013205
-44.434104 60.846910 -5.683173
-44.676109 60.618155 -46.413116
-44.688369 60.606567 -52.534968
-34.987703 68.338258 -14.253986
-41.565910 63.389239 -59.415283
-43.965473 61.289881 -56.546303
-41.577752 63.379215 -7.515125
-34.784248 68.475348 -24.596340
-36.183550 67.532485 -5.015780
-40.303134 64.458194 -29.186037
-41.545233 63.406743 -31.127641
-44.891630 60.414435 2.249453
-41.464579 63.475018 -42.759795
-40.880135 63.969756 -15.540653
-38.762283 65.638335 -46.514937
-34.739342 68.505606 2.257868
-45.656519 59.691426 -34.878172
-41.006389 63.862881 3.344607
-37.470076 66.615995 -7.894360
-35.681076 67.871057 -24.793100
-45.148318 60.171801 -17.638611
-33.649260 69.240115 -27.341426
-41.564278 63.390621 -40.875634
-36.146617 67.557370 -6.562510
-43.878321 61.372262 -50.212561
-42.497079 62.600994 -58.351787
-44.871455 60.433505 -18.366517
-43.358407 61.863709 -58.517705
-37.906747 66.285617 -26.667962
-36.019434 67.643068 -32.792101
-36.100621 67.588363 -61.070350
-42.306951 62.761939 -14.229379
-39.385799 65.166595 -6.467589
-38.676284 65.703400 -46.842253
-37.230123 66.797538 -53.219535
-45.110405 60.207638 -16.594004
-38.704376 65.682147 -7.158759
-33.491260 69.346577 -57.820258
-42.704360 62.425528 -33.519324
-45.230234 60.094371 -31.632592
-43.683435 61.556477 -55.363449
-45.163765 60.157200 -8.750561
-44.652835 60.640155 2.633470
-37.515904 66.581322 -26.538190
-38.259626 66.018636 -12.906438
-44.768402 60.530916 -8.251485
-43.548692 61.683843 -51.789073
-43.171916 62.029736 -14.208425
-44.684120 60.610583 -28.530586
-40.268661 64.487376 -10.595822
-44.148809 61.116584 -42.861570
-43.888782 61.362373 -45.219108
-42.653202 62.468833 -11.490392
-41.543273 63.408402 -19.922073
-42.123108 62.917565 -36.377862
-33.807590 69.133430 -21.417585
-35.010949 68.322595 -13.739220
-41.647923 63.319814 -46.725673
-42.727376 62.406044 -8.905554
-43.350290 61.871381 -18.516039
-37.584879 66.529137 -10.087734
-37.513859 66.582869 -25.797817
-40.211218 64.536003 -19.942752
-37.607130 66.512302 2.479093
-46.235732 59.143927 -26.939668
-44.788936 60.511506 -10.474957
-42.793068 62.350435 -32.253363
-35.270008 68.148038 -24.302887
-45.791885 59.563472 -44.153497
-42.035789 62.991482 -59.572710
-38.600863 65.760463 -53.510514
-33.559090 69.300872 -54.563433
-35.263591 68.152362 -39.117569
-41.090532 63.791653 -52.438794
-41.149676 63.741587 -26.809123
-37.164775 66.846979 -53.748583
-44.255163 61.016053 -16.790979
-44.975583 60.335079 -49.720216
-45.776449 59.578063 -33.867025
-45.790212 59.565053 -54.799214
-42.293958 62.772938 -17.234013
-46.003240 59.363689 -21.323010
-41.518029 63.429771 -26.552520
-34.783677 68.475733 -46.757315
-45.411607 59.922929 -21.808190
-39.152009 65.343476 -32.590046
-44.178458 61.088558 -55.395316
-36.828001 67.098247 -27.012807
-34.907960 68.391990 -10.812898
-34.300151 68.801538 -26.343369
-42.903150 62.257250 -30.281085
-39.369377 65.179019 -60.232569
-36.805950 67.113105 -39.404871
-39.631308 64.980847 -43.757540
-42.700009 62.429211 -5.113174
-42.847722 62.304171 3.114299
-35.355385 68.090510 -44.439184
-34.330028 68.781406 -32.263815
-42.103027 62.934564 -43.110492
-34.060098 68.963288 -44.967395
-44.002617 61.254771 -38.000782
-39.464021 65.107414 -28.708397
-33.558250 69.301439 -44.763779
-45.660979 59.687211 -24.429259
-34.175585 68.885472 -39.103319
-42.297617 62.769841 -3.521924
-45.809974 59.546374 -46.695715
-44.036160 61.223065 -10.521681
-39.000337 65.458228 -29.473008
-37.030733 66.948393 -56.367369
-39.793239 64.858333 -0.449489
-36.158840 67.549134 -6.829850
-39.237286 65.278957 -48.033276
-43.637437 61.599956 -57.516017
-45.597530 59.747185 -24.816508
-40.976071 63.888545 -39.388776
-36.537196 67.294195 -14.351336
-35.608114 67.920219 -3.640867
-42.863979 62.290409 -41.888931
-41.431619 63.502918 -45.916427
-39.414533 65.144855 -24.303831
-44.054598 61.205636 -38.315595
-37.890038 66.298259 -59.228383
-40.822030 64.018943 -27.113573
-41.799139 63.191808 -61.008746
-37.614236 66.506925 -39.555175
-39.435525 65.128973 -3.553985
-40.986841 63.879428 -23.860675
-37.347694 66.708586 -39.113337
-44.830502 60.472216 -2.885784
-34.880473 68.410511 -17.800108
-39.079232 65.398537 -55.491687
-38.038408 66.186005 -11.951811
-44.373809 60.903903 -50.964434
-35.175085 68.211999 -52.577480
-40.539755 64.257892 -12.679765
-43.517301 61.713515 -49.972113
-46.155697 59.219580 -45.361747
-39.349741 65.193876 -12.384103
-39.374612 65.175059 -52.586445
-44.093036 61.169303 -21.690819
-37.777587 66.383337 -35.842583
-45.886421 59.474113 -3.190527
-33.541810 69.312516 -60.330201
-41.016300 63.854491 -56.305113
-33.717329 69.194249 -34.923713
-41.741293 63.240775 -45.083119
-36.414141 67.377110 -5.608696
-40.037612 64.673445 -14.949774
-35.987358 67.664681 -7.494469
-44.068674 61.192331 -29.921346
-36.802239 67.115605 -45.407844
-33.801787 69.137341 1.175357
-34.936782 68.372570 -0.214524
-34.543267 68.637724 -1.388853
-43.815003 61.432113 -38.977550
-39.442134 65.123973 -56.456347
-35.876966 67.739064 -33.075283
-39.647636 64.968494 -46.922559
-36.569968 67.272113 3.483666
-37.812192 66.357155 3.434511
-41.175977 63.719322 -59.978809
-44.130437 61.133950 -24.643807
-33.482843 69.352248 -48.084495
-40.032571 64.677259 -59.875189
-39.445343 65.121545 -38.223248
-36.198257 67.522575 -35.989352
-38.002818 66.212932 -52.010897
-39.253560 65.266645 -45.778951
-34.625566 68.582270 3.466270
-41.975751 63.042304 -51.628966
-40.325264 64.439461 2.989300
-41.174704 63.720400 -45.212529
-43.187721 62.016357 -6.814308
-34.725886 68.514673 -56.771705
-34.195439 68.872094 -25.373166
-40.283972 64.474415 -36.035774
-38.900772 65.533557 -0.915014
-40.842756 64.001398 -55.018204
-37.564334 66.544680 -45.161455
-37.309196 66.737713 -27.792021
-34.044757 68.973625 -38.010722
-41.600635 63.359844 -8.605285
-34.794821 68.468224 -21.717441
-36.077361 67.604036 -37.065171
-41.430788 63.503622 -57.011534
-44.135213 61.129436 -57.244301
-43.410486 61.814482 -9.019728
-40.611237 64.197382 -19.108874
-40.171881 64.569302 -8.601564
-42.228113 62.828677 -37.880569
-39.432687 65.131120 -17.529206
-39.742074 64.897044 2.881154
-44.465977 60.816782 -23.497910
-44.701602 60.594058 -9.115971
-43.968523 61.286999 -31.852466
-41.550967 63.401889 -27.257677
-38.820205 65.594512 -47.588543
-35.166414 68.217841 -5.192514
-35.057409 68.291290 -57.780100
-41.736649 63.244707 -35.829160
-38.640071 65.730798 -6.365484
-45.198034 60.124808 -47.153511
-33.513039 69.331902 -43.555782
-38.785291 65.620928 -8.745421
-35.581683 67.938028 -50.956424
-42.026761 62.999123 -59.873219
-46.253464 59.127166 -29.589963
-40.186065 64.557295 -8.011244
-39.409477 65.148680 2.217553
-34.191292 68.874888 2.985914
-40.554379 64.245513 -1.498678
-45.227293 60.097151 -24.062346
-43.854528 61.394752 -21.302257
-34.664765 68.555857 -17.760444
-46.101680 59.270640 -35.130834
-39.668611 64.952625 -60.649877
-40.403128 64.373548 -34.276626
-37.422327 66.652120 -55.937919
-36.517459 67.307493 -30.073978
-40.506793 64.285795 -23.208402
-33.511910 69.332663 -58.135775
-43.370205 61.852557 2.709086
-44.105004 61.157990 -30.171930
-35.202868 68.193278 -23.124922
-43.473690 61.754738 -6.425872
-40.264871 64.490585 -10.189948
-40.781028 64.053652 -23.858972
-38.733377 65.660205 -52.726307
-39.131992 65.358620 -59.715960
-38.064482 66.166278 -48.521251
-43.125613 62.068932 -4.327191
-44.350588 60.925853 -39.192887
-40.700816 64.121552 -12.471322
-38.904438 65.530783 -16.831330
-37.561064 66.547154 -37.267306
-36.185236 67.531349 -13.964789
-43.523011 61.708117 -51.232885
-37.646941 66.482182 -34.397209
-45.929565 59.433331 -11.401982
-34.051921 68.968798 -46.790292
-45.499054 59.840270 -33.737422
-40.837776 64.005614 -22.979513
-38.662665 65.713704 -59.577575
-36.163478 67.546009 -24.776161
-45.987069 59.378975 -54.946695
-38.365804 65.938304 -33.589938
-45.579120 59.764587 0.431743
-38.794882 65.613671 -2.105079
-46.256070 59.124703 -0.929681
-37.303674 66.741891 -24.533252
-42.279441 62.785227 -45.474547
-35.420314 68.046761 -33.689330
-42.386351 62.694726 -51.841836
-44.765021 60.534112 -23.447050
-40.984666 63.881269 -54.566746
-34.015776 68.993153 -11.310602
-43.450482 61.776676 -23.707343
-37.652229 66.478181 -11.649195
-38.591251 65.767735 1.531159
-41.681456 63.291428 -47.707286
-39.764278 64.880245 0.188548
-40.975696 63.888863 -53.705634
-35.704841 67.855043 -56.225459
-44.513262 60.772086 -9.707658
-37.093696 66.900756 -53.484518
-43.387728 61.835993 -36.205281
-44.581352 60.707724 -2.474952
-37.495109 66.597054 -0.025041
-39.633656 64.979071 -17.084158
-41.454332 63.483692 -53.169044
-39.284121 65.243523 -0.787956
-41.348205 63.573530 -19.136278
-44.702441 60.593266 -58.560591
-38.167741 66.088154 -31.027896
-41.511208 63.435545 2.994536
-38.462344 65.865263 -37.420958
-42.443880 62.646027 -36.092520
-40.236379 64.514703 -33.198322
-38.443897 65.879220 -5.314455
-42.644785 62.475959 -48.518963
-44.963927 60.346097 -23.358777
-41.102815 63.781255 -38.681157
-43.582621 61.651772 -29.224413
-39.142157 65.350930 -1.013539
-43.978960 61.277133 -37.448944
-41.203403 63.696106 -31.918499
-37.157397 66.852561 -57.951864
-35.070814 68.282258 -2.421171
-40.136462 64.598657 -37.662505
-42.469126 62.624657 -27.854254
-34.683334 68.543345 -44.204354
-43.494418 61.735145 -26.691611
-43.638488 61.598963 -19.700269
-38.569259 65.784373 -38.162450
-33.822824 69.123166 -18.417732
-44.934330 60.374073 -40.707085
-37.967653 66.239537 -46.780685
-44.880577 60.424883 -11.155764
-39.424751 65.137125 -56.802730
-39.969668 64.724851 -5.823029
-36.128400 67.569645 -55.728971
-43.179855 62.023015 -22.470910
-34.991915 68.335420 -38.737018
-34.501127 68.666118 -59.228738
-33.704840 69.202664 -18.155655
-43.780718 61.464521 -29.533242
-38.713818 65.675003 -57.633148
-45.014383 60.298403 -28.880384
-43.697079 61.543580 -22.426807
-41.170527 63.723936 -31.629852
-35.213030 68.186431 -32.451899
-41.288866 63.623761 -1.082547
-45.875404 59.484526 0.430519
-36.599624 67.252130 -17.458364
-44.363965 60.913208 -60.827704
-43.100497 62.090193 -46.633027
-45.666664 59.681837 -21.409480
-42.569197 62.539945 -22.742028
-36.229310 67.501651 -2.673473
-35.841860 67.762719 -14.092130
-38.079779 66.154704 -57.244057
-41.469190 63.471114 -8.858348
-34.465375 68.690208 -19.650022
-39.091729 65.389082 -25.697499
-39.862805 64.805701 -8.948449
-42.508136 62.591634 -45.086252
-43.904507 61.347510 1.909343
-45.993070 59.373302 -57.922358
-34.701095 68.531377 -15.892471
-39.856638 64.810367 -6.817076
-43.143916 62.053439 -29.498976
-39.294158 65.235928 -20.759772
-44.846440 60.457150 -39.693856
-34.844763 68.434573 -41.575968
-34.559648 68.626686 -49.961943
-37.890956 66.297564 -21.203086
-37.849160 66.329186 -26.972251
-34.620559 68.585644 -58.473086
-37.601798 66.516336 -26.921055
-36.278055 67.468806 -5.347721
-35.781185 67.803602 1.463092
-40.813717 64.025980 -20.763715
-45.362926 59.968944 -42.154570
-37.535830 66.566246 -14.100120
-35.124403 68.246149 -56.151447
-41.936461 63.075563 -2.380391
-45.846030 59.512292 -13.037523
-38.023340 66.197405 -11.162409
-45.667152 59.681376 -6.551763
-34.629399 68.579687 -9.145111
-36.774263 67.134456 -3.540331
-43.162865 62.037398 -26.431789
-34.440406 68.707033 1.673908
-34.180551 68.882126 -60.817872
-35.370308 68.080455 -56.147236
-39.411721 65.146983 -40.321774
-41.887033 63.117405 -19.167243
-38.953651 65.493550 -31.425836
-37.482225 66.606803 -10.336510
-39.117033 65.369938 -46.844357
-45.931919 59.431106 -4.743385
-43.463447 61.764420 -2.046911
-41.475796 63.465522 -5.306289
-34.350337 68.767722 -59.954122
-36.907564 67.041580 -20.482864
-36.469281 67.339956 -21.489705
-41.336894 63.583104 -35.575728
-35.675858 67.874573 -45.894197
-35.382873 68.071989 3.544945
-34.180774 68.881975 -55.580082
-44.957138 60.352513 -19.716116
-44.902813 60.403865 -6.765668
-40.904431 63.949189 3.752511
-38.174164 66.083295 -16.721173
-37.668027 66.466229 -49.019417
-39.338322 65.202515 -37.071694
-43.979967 61.276181 -50.474349
-33.614226 69.263721 -17.903186
-33.971700 69.022852 -54.397899
-44.429208 60.851538 -45.895923
-39.632885 64.979655 -56.648726
-42.737699 62.397306 -10.303434
-34.359802 68.761344 -17.840348
-40.257859 64.496520 -49.775784
-45.290773 60.037146 -59.571850
-45.623646 59.722499 -40.313382
-46.228494 59.150769 -57.567962
-39.568593 65.028297 -48.638547
-44.791530 60.509054 -5.765457
-43.310701 61.908802 -59.987899
-40.761560 64.070132 -6.879820
-45.071828 60.244103 -30.933316
-40.938578 63.920284 -16.734339
-34.556645 68.628710 -8.803310
-35.804747 67.787726 -50.558982
-38.752722 65.645569 -24.770904
-37.642377 66.485634 -6.154910
-41.612841 63.349512 -29.498471
-36.471424 67.338512 -13.956642
-42.955085 62.213286 -33.925055
-39.862851 64.805667 -44.685923
-36.576357 67.267807 -18.110052
-41.445751 63.490955 -21.010809
-37.047610 66.935624 -59.089459
-44.187709 61.079814 -5.451107
-40.112036 64.617138 -3.262328
-44.268478 61.003467 -18.290461
-44.378971 60.899025 -58.139428
-46.150967 59.224051 -56.105283
-37.971289 66.236786 -26.341303
-36.526046 67.301707 -60.417860
-43.862216 61.387485 -17.759377
-44.490264 60.793825 -46.467254
-34.493302 68.671391 -37.911863
-35.317339 68.116146 -9.360284
-41.848646 63.149900 -0.848343
-43.541543 61.690600 -10.262266
-43.699591 61.541206 -2.770016
-44.967261 60.342945 -21.156254
-33.518067 69.328514 -40.687025
-39.929183 64.755481 -19.658802
-40.319565 64.444286 -31.630011
-34.110070 68.929617 -42.361384
-43.323682 61.896532 -39.056002
-36.877567 67.064275 -43.047473
-46.037960 59.330871 -53.100924
-35.328314 68.108751 -17.663564
-40.386635 64.387510 -21.137763
-40.571506 64.231015 -14.412750
-43.041836 62.139851 -43.609522
-45.935447 59.427771 -53.336181
-37.579043 66.533552 -8.808380
-33.527446 69.322194 -11.485512
-34.554969 68.629839 -61.045058
-38.580308 65.776014 -0.185137
-43.418610 61.806802 -23.455011
-40.380661 64.392567 -16.133181
-37.028975 66.949723 -48.691088
-40.489846 64.300141 -46.362496
-43.351234 61.870489 -8.398783
-34.228140 68.850060 -52.254517
-36.495325 67.322407 -4.061653
-40.487050 64.302508 -15.581076
-36.133419 67.566263 -23.288321
-41.122138 63.764898 -46.094635
-34.791948 68.470160 -52.885666
-37.003794 66.968775 -28.956542
-40.627863 64.183307 -22.967835
-36.480146 67.332635 -46.829777
-35.019311 68.316961 -54.428702
-42.944642 62.222126 -35.894570
-36.252554 67.485989 -37.676494
-37.443523 66.636084 -35.384855
-45.990573 59.375663 -0.944475
-38.867805 65.558499 -29.896456
-38.053879 66.174300 -4.129532
-40.833562 64.009181 -2.933731
-33.817506 69.126749 -22.928149
-36.207778 67.516160 -52.796286
-43.546964 61.685476 -16.059177
-40.745826 64.083450 -27.606194
-35.189120 68.202542 3.057349
-45.122083 60.196600 -4.763002
-45.028396 60.285158 -36.418530
-41.460154 63.478763 -25.059074
-34.029743 68.983742 -35.191887
-36.820831 67.103078 -53.551408
-44.534920 60.751614 -29.569626
-43.336512 61.884405 -48.652900
-37.348666 66.707851 -10.074799
-36.685793 67.194068 -7.747089
-33.974967 69.020650 3.623931
-43.244609 61.968201 -24.310881
-36.423128 67.371055 -35.769949
-42.767118 62.372403 -22.528932
-33.836296 69.114088 -59.221511
-38.749062 65.648338 -11.228410
-38.223206 66.046191 -54.800706
-33.823773 69.122526 -37.176815
-43.423738 61.801955 -58.782175
-39.184686 65.318753 -51.029113
-37.797341 66.368392 -15.948156
-45.582071 59.761798 -41.262017
-42.611495 62.504139 -0.417231
-38.604772 65.757505 -46.248086
-37.798033 66.367868 -53.427353
-44.651882 60.641056 -32.190285
-39.266106 65.257152 -39.285389
-35.377596 68.075545 -23.782154
-42.195144 62.856585 -35.460646
-35.044713 68.299844 -36.535214
-34.818883 68.452011 -42.253306
-34.731735 68.510733 -40.704287
-39.671789 64.950221 -54.915866
-45.100723 60.216791 -15.461120
-40.459766 64.325603 -49.668690
-37.248225 66.783842 -18.724959
-35.316465 68.116735 -60.130981
-42.422795 62.663876 -0.270003
-33.508732 69.334804 -10.012722
-45.246461 60.079032 -55.186634
-40.277835 64.479611 -13.486174
-44.116567 61.147060 -24.039414
-43.239826 61.972249 -56.293884
-43.451736 61.775490 -31.319698
-45.865819 59.493586 -56.091325
-38.306375 65.983267 -2.936942
-45.887866 59.472746 2.459053
-39.177715 65.324028 -31.487567
-39.223435 65.289436 0.213627
-43.035426 62.145276 -0.568766
-37.423272 66.651405 -31.429431
-38.202579 66.061797 -21.111729
-34.034699 68.980402 -19.816723
-39.489664 65.088013 -44.073457
-33.607031 69.268569 -57.153794
-37.638266 66.488745 -38.509579
-35.340388 68.100616 1.228269
-41.871366 63.130667 -5.815860
-35.432721 68.038400 -11.762509
-34.979464 68.343810 -38.139747
-41.437351 63.498067 -58.380279
-46.250193 59.130258 -41.058099
-37.585077 66.528986 -45.444079
-37.767761 66.390772 -43.091109
-34.356757 68.763396 -54.391803
-42.332336 62.740451 -53.563098
-38.078768 66.155469 -43.331433
-40.925469 63.931381 -36.860711
-39.292578 65.237124 -43.816513
-39.598003 65.006045 -21.689135
-44.273134 60.999066 -8.626918
-42.985157 62.187829 -9.126319
-37.088164 66.904942 -33.336375
-36.133740 67.566047 -44.354924
-36.982335 66.985010 -4.175552
-46.198104 59.179495 -46.370287
-35.162126 68.220730 -46.361166
-45.356081 59.975415 -49.879187
-42.908972 62.252321 0.419689
-45.017948 60.295034 -39.501580
-37.286822 66.754641 -6.818031
-44.471181 60.811863 -35.988765
-36.529932 67.299089 3.858423
-43.199205 62.006635 -25.036408
-45.468265 59.869373 -12.289933
-34.252858 68.833404 -29.498708
-41.747803 63.235264 -35.101826
-36.816338 67.106106 -56.780498
-41.071955 63.807378 -34.351276
-43.540399 61.691681 -1.655310
-40.770662 64.062427 -22.215833
-37.646406 66.482586 -36.922715
-42.226223 62.830277 -5.332083
-41.409505 63.521638 -39.573461
-39.243466 65.274281 -21.181970
-46.180592 59.196048 -1.327357
-40.972379 63.891670 -32.707353
-36.448058 67.354256 -20.459582
-44.765741 60.533431 -43.029297
-41.919306 63.090085 -39.308067
-41.399082 63.530462 -2.670325
-35.237463 68.169967 -48.843483
-40.775502 64.058329 -54.713332
-45.651343 59.696319 -42.486367
-36.939254 67.017604 -49.238220
-38.032615 66.190388 -53.499660
-40.583911 64.220513 -54.586613
-41.286883 63.625439 -40.129615
-38.975169 65.477270 2.226737
-44.049187 61.210751 -46.959888
-37.015171 66.960166 -38.696772
-35.695036 67.861650 -7.988921
