-11.319630 12.622063 -313.261505 
-12.145187 58.688297 -320.588348 
71.566566 45.149113 -323.975983 
-24.858810 58.358074 -320.157440 
9.319368 13.888894 -314.439606 
32.600155 52.909378 -322.284760 
58.210964 29.133259 -319.723175 
5.852017 38.928116 -318.237183 
8.824032 44.653778 -319.282166 
9.272550 23.354334 -315.925598 
-24.079748 49.937363 -318.731598 
-4.550040 29.342098 -316.090729 
20.849939 16.749857 -315.595398 
13.942499 6.562670 -313.779175 
-9.998732 32.765720 -316.293182 
15.758734 -15.612083 -310.833191 
53.074036 -17.263206 -313.024292 
10.310035 -11.154058 -311.156677 
50.597351 56.046509 -323.824707 
63.310982 -14.456296 -314.459503 
70.080566 39.700428 -322.789673 
-13.466083 38.544636 -317.173981 
14.634709 11.301166 -314.439606 
72.061913 1.983544 -318.072083 
11.465821 -8.677382 -311.480408 
45.148659 -17.399261 -312.293182 
67.631187 -10.988945 -315.430298 
70.906120 -16.767868 -315.203796 
57.201828 19.363855 -318.237183 
46.304447 59.513859 -324.189850 
23.023661 -4.926550 -312.788483 
37.728844 -7.356482 -313.283844 
-4.550040 -15.240277 -309.651367 
65.457420 -15.446970 -314.590271 
57.036716 55.220947 -324.057587 
1.063768 -9.998280 -310.747559 
51.092690 51.588482 -322.859619 
25.830563 3.540901 -314.056091 
57.697166 21.868332 -318.644714 
70.741013 49.607140 -324.480560 
68.924767 -16.107420 -315.162231 
47.460224 7.008252 -315.726807 
39.534855 10.310492 -315.716553 
12.456495 7.833813 -314.042694 
-16.768322 30.454149 -315.803009 
43.002209 7.998927 -315.557037 
-15.777651 -2.072903 -311.228180 
33.425709 -8.182044 -312.871643 
25.830563 51.918709 -321.514099 
68.099213 45.974678 -323.661133 
-23.703024 12.511012 -313.283844 
32.269928 -16.767868 -311.564514 
58.357616 23.684559 -318.981995 
-22.051905 27.482136 -315.589081 
40.030193 26.491468 -318.079926 
-20.731010 6.843140 -312.584076 
60.338963 38.379528 -321.507080 
-23.537912 15.594077 -313.805054 
66.282990 59.844082 -325.782288 
70.910332 -12.474956 -315.760498 
46.964886 -19.032293 -312.458282 
42.176643 -16.437645 -312.067291 
65.952766 1.394449 -316.766724 
13.995584 1.064224 -312.953583 
-24.033249 -10.823833 -310.123474 
36.157494 34.086613 -319.062744 
-18.584553 31.775045 -316.069702 
-10.163843 56.376728 -320.267517 
1.228880 29.367781 -316.420929 
45.809109 27.812361 -318.648926 
69.089890 -3.228689 -316.627258 
50.927574 11.796502 -316.624237 
42.341759 -19.079433 -311.729004 
40.638191 21.703218 -317.411621 
25.005001 -0.008794 -313.448944 
67.108543 26.491468 -320.547150 
64.796982 47.488419 -323.355652 
72.061913 -10.823833 -315.982574 
70.741013 47.644604 -324.346344 
62.815636 -0.256675 -316.270996 
20.051640 50.267590 -320.764771 
7.998470 36.893513 -317.966309 
66.778320 23.519447 -320.193604 
34.086155 18.235868 -316.565125 
-20.070560 27.647247 -315.474091 
45.148659 -0.917117 -314.532074 
35.572166 50.762924 -321.900696 
65.787643 35.077290 -321.590546 
41.516197 57.532516 -323.606812 
48.946236 46.101368 -321.869629 
23.023661 58.688297 -322.578766 
42.176643 51.423370 -322.594177 
-21.226347 -6.696041 -310.524384 
14.602948 18.235868 -315.706665 
45.974220 29.822012 -318.897644 
25.500338 33.688160 -318.567383 
70.741013 53.900051 -325.164062 
47.295113 11.301166 -316.337219 
61.164516 32.270386 -320.513397 
67.603889 -1.082229 -316.805969 
54.394928 6.426936 -316.090729 
50.762463 2.550235 -315.397369 
45.148659 4.531575 -315.143158 
70.741013 37.058628 -322.622772 
1.724217 -19.155781 -309.651367 
26.986341 -21.390999 -310.952179 
15.758734 25.784403 -316.586090 
39.699966 56.706955 -323.411835 
28.307240 55.881397 -322.474121 
-17.469257 -3.063577 -310.972260 
65.457420 7.998927 -317.758026 
44.157986 43.167774 -321.149292 
54.725151 -13.465631 -313.642914 
29.793251 -5.375142 -312.952148 
5.026456 -9.998280 -310.971802 
-11.189099 3.540901 -312.128052 
29.793251 12.952289 -315.532166 
65.127213 26.821686 -320.430298 
-10.824293 26.821686 -315.470886 
34.911716 -9.502943 -312.800903 
-16.933434 27.697866 -315.430298 
34.416382 56.046509 -322.718964 
9.319368 20.877657 -315.439056 
69.750336 13.282507 -319.029785 
47.790447 -0.586892 -314.817932 
59.348289 18.070755 -318.400604 
12.621608 11.466278 -314.410156 
15.593622 -4.219356 -312.650208 
-9.998732 21.207882 -314.661499 
63.145863 50.597813 -323.906586 
7.998470 -3.540622 -312.128052 
6.182242 -11.649395 -310.886932 
71.731689 28.472811 -321.576111 
30.453693 44.488670 -320.451813 
50.283333 29.298370 -319.227844 
50.267128 31.279709 -319.531464 
5.521793 51.753597 -320.342194 
61.164516 14.768517 -317.953644 
61.990078 -18.914322 -313.785950 
21.537651 42.342216 -319.692383 
-4.880260 31.444822 -316.298431 
69.420113 51.258259 -324.933838 
5.852017 31.114599 -316.808441 
8.658919 26.119602 -316.420929 
0.238210 15.924303 -314.296631 
52.578697 19.391655 -317.807404 
60.999405 19.721878 -318.838074 
71.533546 52.083820 -325.149567 
7.172909 22.859007 -315.601379 
49.771797 -3.228689 -314.545563 
43.827763 24.014784 -317.934235 
51.753136 41.681767 -321.144867 
-24.307268 41.681763 -317.629456 
22.528324 29.298370 -317.681366 
22.693436 52.248932 -321.485962 
1.228880 42.011986 -318.484863 
-3.559366 6.896843 -312.788483 
52.549610 -13.795856 -313.283844 
19.060972 1.394448 -313.259949 
7.833358 1.229336 -312.596161 
8.328695 -6.696041 -311.567780 
31.390127 -13.630743 -311.797821 
-19.905451 51.330673 -319.062744 
3.210221 -11.091638 -310.807129 
36.727947 30.123924 -318.573792 
53.619381 -1.577566 -315.100067 
7.338021 -19.244547 -310.093109 
66.448090 17.245193 -319.169037 
-14.456757 33.536118 -316.420929 
59.843624 51.918709 -323.865967 
-15.777651 56.376728 -320.002441 
66.613213 48.745827 -324.016083 
26.491013 40.030647 -319.502228 
65.749481 43.993336 -323.025421 
0.073098 31.940159 -316.799469 
14.891882 23.519447 -316.255829 
71.731689 4.366463 -318.206390 
7.007796 -9.502943 -311.459045 
-15.777651 -4.549581 -310.899261 
51.092690 27.151911 -319.025024 
-15.777651 -14.621410 -309.620789 
-15.777651 35.242397 -316.583923 
39.699966 0.238662 -314.316681 
52.248474 4.861800 -315.627045 
65.127213 18.731205 -319.196472 
59.678513 -13.465631 -314.047485 
21.207426 30.949486 -317.724274 
71.697968 -4.879804 -317.081390 
16.914513 23.684559 -316.492798 
20.877201 39.535313 -319.101379 
25.500338 -7.191370 -312.599304 
-0.422239 20.712545 -314.957764 
39.204632 43.002663 -320.819214 
5.191568 14.438292 -314.458374 
48.781124 35.407513 -320.292023 
59.183178 14.603404 -317.926270 
57.201828 47.410244 -322.860291 
40.855747 -12.474957 -312.654358 
35.197292 11.961615 -315.595398 
-2.073359 43.497993 -318.545258 
71.401459 35.098969 -322.364990 
42.011532 36.310181 -319.888306 
40.360409 54.890720 -323.041718 
-16.768322 15.634498 -313.779175 
37.883732 32.930832 -319.057037 
31.609480 -6.696040 -312.935760 
31.939705 -4.219356 -313.247131 
36.893059 53.239601 -322.451416 
-6.696492 20.440889 -314.604736 
28.967690 39.535316 -319.660370 
19.060972 18.235868 -315.607361 
21.867874 -6.522159 -312.458282 
-21.226347 21.868332 -314.682617 
34.308006 -14.291185 -312.128052 
27.316566 36.074574 -318.732544 
30.453693 -22.381664 -310.888184 
-8.512724 55.220947 -320.287903 
-23.042578 51.588478 -318.982727 
53.074036 52.579159 -323.247528 
-23.868135 44.158443 -317.961182 
13.116937 55.551170 -321.479004 
-17.593884 52.579155 -319.231567 
1.063768 27.151911 -316.148987 
1.228880 44.488667 -318.886169 
45.643997 14.768517 -316.809235 
56.046051 5.357136 -316.222595 
50.762463 -12.970294 -313.272308 
63.476086 59.513859 -325.506958 
23.849215 3.045564 -313.877472 
63.145863 19.886992 -319.172791 
36.893059 27.317022 -318.088470 
14.107611 -19.079433 -310.370514 
30.618805 17.973616 -316.420929 
13.447162 39.205086 -318.681488 
0.073098 11.466277 -313.737244 
49.441574 22.528780 -318.098846 
-0.752464 46.470009 -319.035339 
22.693436 -12.301761 -311.467590 
-2.898920 11.961614 -313.599304 
66.613213 -21.721224 -313.954834 
23.518991 -21.104689 -310.807129 
21.207426 36.067959 -318.463959 
16.419176 -6.696040 -311.847260 
4.696231 11.370619 -313.944275 
-15.777651 38.544636 -317.103851 
28.472353 50.716557 -321.539429 
-9.008061 11.631390 -313.271240 
3.705557 -18.914322 -309.759277 
55.880939 -8.182043 -314.365234 
20.877201 2.054898 -313.503601 
39.699966 17.245193 -316.662842 
49.441574 7.668702 -315.896759 
56.376274 25.500795 -319.203125 
-7.687166 46.304897 -318.664978 
-9.998732 -14.006684 -309.651367 
-9.668510 14.273179 -313.687775 
33.968719 14.273180 -316.090729 
50.102020 4.552377 -315.595398 
9.979811 -3.260280 -312.128052 
-13.300970 13.777842 -313.467316 
63.174427 31.940163 -320.713867 
54.890263 49.607140 -322.942383 
-10.659181 -21.390999 -309.127808 
31.774591 13.612730 -315.742706 
42.506870 28.803034 -318.692444 
56.706501 8.989600 -316.877106 
25.665451 31.775045 -318.220490 
2.879996 28.307697 -316.181305 
38.544182 40.856209 -320.300018 
-11.484742 -4.219357 -311.009583 
34.086155 -4.549580 -313.279297 
26.656116 -2.072903 -313.157532 
-7.191829 33.261059 -316.635254 
60.669182 -9.337830 -314.878998 
11.465821 59.348747 -322.082306 
22.032988 -8.512269 -311.900909 
57.532055 -16.107420 -313.423523 
0.898656 2.054897 -312.476196 
-1.082689 -1.907791 -311.752777 
-8.182500 42.177101 -317.962097 
40.195297 39.700428 -320.291626 
52.743813 28.307697 -319.184418 
-23.126215 20.382320 -314.274475 
-24.033249 32.608959 -316.310272 
47.790447 17.113110 -317.268677 
-13.961419 52.083817 -319.452087 
41.351082 1.293120 -314.604736 
51.588024 -2.274836 -314.604736 
-1.412910 28.307697 -315.978943 
-11.814963 47.790909 -318.811584 
4.696231 0.838203 -312.458282 
-3.064029 -19.244547 -309.576416 
71.731689 22.693893 -320.937927 
-6.531380 55.386059 -320.186615 
25.170115 -10.823833 -312.001801 
29.793251 41.846878 -320.160217 
6.182242 49.937363 -320.087738 
68.759666 32.765724 -321.577362 
53.074036 22.198557 -318.019440 
67.922356 0.883935 -317.008423 
-4.219815 42.507324 -318.223938 
53.074036 25.996132 -318.661987 
-14.456757 18.566092 -314.140564 
-3.229141 -13.795856 -310.075500 
30.288580 33.756386 -318.879089 
56.706501 44.061943 -322.199890 
63.971416 -18.418985 -314.164581 
70.080566 21.538107 -320.311920 
28.472353 4.201350 -314.065033 
64.962090 3.045564 -317.106079 
-0.422239 58.192963 -321.234680 
55.055378 34.747063 -320.257294 
9.484481 -5.128513 -311.797821 
11.796046 18.905771 -315.430298 
35.902393 46.000198 -321.044098 
-5.705822 -13.300518 -309.985229 
8.479748 48.451355 -319.888306 
-19.905451 -11.649395 -310.045898 
32.930378 26.553383 -317.906982 
40.855747 -9.502943 -313.042633 
34.911716 -12.309845 -312.256348 
49.276459 42.551876 -321.374298 
46.799782 44.440662 -321.374298 
37.388397 15.263854 -316.158905 
22.032988 54.065163 -321.718201 
48.120674 -12.144732 -313.227051 
61.659855 -11.001634 -314.604736 
36.232616 38.379528 -319.841980 
5.686905 3.706013 -312.813812 
50.267128 38.049301 -320.751160 
45.313770 21.538107 -317.609314 
16.914513 -11.238511 -311.632690 
34.911716 26.656582 -317.902863 
58.687840 39.535316 -321.640259 
62.815636 -16.767868 -314.146454 
54.394928 10.475605 -316.714142 
-3.724478 59.183636 -321.119202 
28.472353 -19.739883 -310.924408 
56.871613 40.360870 -321.623260 
43.497536 -15.025283 -312.458282 
31.939705 42.011990 -320.135590 
-7.026717 29.298370 -315.942841 
61.556522 12.787176 -317.741852 
50.762463 48.451355 -322.726654 
48.781124 25.005459 -318.322845 
2.219550 14.768516 -314.212524 
-15.873708 51.588478 -319.227844 
38.375000 51.918709 -322.199890 
-22.136896 34.086613 -316.420929 
33.260601 -1.828680 -313.779175 
19.226086 -15.612083 -311.008209 
31.774591 19.556767 -316.832184 
55.220490 53.239601 -323.805084 
20.546976 46.470013 -320.302704 
55.385601 1.323459 -315.595398 
-15.612539 45.728279 -318.237183 
28.307240 -10.493616 -312.246704 
37.223282 13.282507 -315.960999 
64.301643 -8.677381 -315.294189 
30.618805 24.840345 -317.362152 
23.684103 39.370197 -319.144562 
-8.842949 27.151911 -315.549469 
19.120190 38.214413 -319.062744 
43.167320 41.465736 -320.713867 
-19.575228 12.622063 -313.262604 
69.585220 -8.723574 -316.090729 
48.616013 48.616470 -322.470093 
36.397728 58.523186 -323.305725 
0.073098 -16.627790 -309.816467 
12.621608 -14.126073 -310.910400 
34.416382 31.279709 -318.630554 
19.391197 22.693893 -316.400116 
42.837093 34.581947 -319.512177 
67.438766 39.205090 -322.631073 
49.441574 19.061430 -317.719757 
41.681309 -14.291185 -312.688263 
11.247579 4.531575 -313.448944 
29.958357 52.579159 -321.989075 
-7.687166 -2.898465 -311.289551 
41.351082 -3.724026 -313.848724 
25.995676 24.345009 -316.920349 
48.616013 13.777843 -316.841248 
61.659855 36.893517 -321.454956 
45.313770 35.737740 -319.945312 
39.369743 -21.799208 -311.632690 
38.544182 4.146410 -314.769836 
30.453693 47.827801 -321.209198 
-4.384927 36.233070 -317.132965 
69.750336 55.716282 -325.629425 
57.532055 27.317022 -319.432556 
58.192501 37.223740 -321.255890 
9.319368 56.376728 -321.348602 
25.335226 15.924303 -315.767731 
-4.550040 -17.923647 -309.678467 
61.355721 59.183636 -325.337006 
-17.849041 -23.042116 -308.750824 
38.322201 58.192963 -323.520782 
-1.247801 -7.686707 -310.874115 
31.774591 57.037178 -322.808197 
16.584288 47.460686 -320.141205 
45.974220 -22.506460 -312.008545 
51.257801 44.653782 -321.811646 
36.232616 36.398182 -319.477905 
7.172909 13.777843 -314.437897 
-9.668510 48.616467 -318.927338 
31.882505 0.238662 -313.944275 
-22.382130 -14.951634 -309.676544 
60.669182 -0.586892 -316.116852 
62.980755 56.376728 -325.096130 
69.915443 19.556767 -320.056854 
9.484481 -0.917117 -312.390198 
27.977016 -8.512269 -312.743530 
66.778320 -16.932981 -314.519531 
71.731689 7.668702 -318.747406 
-24.033249 -8.612094 -310.541199 
55.055378 55.220947 -324.072632 
-5.045373 -19.904995 -309.554901 
8.658919 -12.640069 -310.833679 
58.621826 58.523186 -325.006775 
58.687840 56.541840 -324.602539 
31.609480 36.233070 -319.101624 
-10.824293 -2.389650 -311.302490 
46.139332 -2.906533 -314.439606 
-19.079889 -5.540254 -310.877625 
65.292313 -7.026265 -315.647766 
-9.008061 38.379524 -317.294647 
61.659855 -12.970293 -314.482788 
47.295113 21.703218 -317.760498 
-20.565897 32.930832 -316.153839 
68.759666 37.719078 -322.285645 
15.263397 56.541840 -321.501038 
43.827763 31.444822 -319.141876 
55.880939 -4.879805 -315.044708 
51.092690 35.737740 -320.298309 
50.762463 14.933629 -316.942566 
57.201828 16.914968 -317.998413 
70.906120 57.367405 -325.757416 
39.572510 46.965351 -321.539429 
-13.466083 -6.696041 -310.731659 
0.488076 -22.051449 -309.486237 
-5.045373 47.790909 -319.060608 
-10.328956 46.304897 -318.574493 
41.516197 53.239601 -322.837830 
11.135597 57.202286 -321.668213 
33.425709 40.712410 -320.053406 
68.759666 -12.603790 -315.430298 
45.148659 51.951916 -322.695190 
54.056381 3.540901 -315.925598 
16.584288 -8.677382 -312.005554 
-18.419441 54.672714 -319.723175 
25.995676 28.637922 -317.762817 
-18.749666 34.086613 -316.445251 
37.388397 -21.225887 -311.506378 
38.709293 35.233814 -319.392975 
-12.805637 26.161243 -315.346008 
-18.749666 -9.998280 -310.231079 
64.466759 -1.412453 -316.407898 
-0.092015 -19.904995 -309.430847 
40.525520 -20.235220 -311.729553 
62.650532 23.849672 -319.639069 
-21.556572 12.456951 -313.234253 
59.798729 44.653782 -322.530090 
-8.347611 44.488667 -318.396332 
20.381865 25.005459 -316.767273 
-5.375597 7.668702 -312.889313 
25.005001 -14.786522 -311.557831 
29.958357 -8.182044 -312.657654 
54.064701 43.375587 -321.869629 
1.393992 56.376728 -320.947083 
3.375333 20.328728 -315.265167 
32.269928 49.442032 -321.564362 
54.229816 -19.739883 -312.883820 
-4.219815 9.239552 -313.118683 
-3.229141 55.329910 -320.548737 
32.435040 43.993336 -320.628448 
-19.079889 -7.851820 -310.525787 
2.672572 0.073550 -312.128052 
45.643997 16.732937 -317.081390 
51.257801 8.659376 -316.347809 
3.045108 30.289038 -316.715881 
-23.823332 -5.389082 -311.104187 
19.226086 12.787176 -315.010010 
39.369743 -11.154058 -312.738708 
0.898656 7.668702 -313.185883 
-12.475412 45.974674 -318.390533 
59.843624 -2.403127 -315.848755 
21.042313 13.612730 -315.199219 
-24.033249 -13.795856 -309.787262 
-0.587352 36.233070 -317.335236 
28.307240 11.631390 -315.364014 
25.170115 -4.219356 -312.754486 
41.351082 -22.051449 -311.619873 
24.839890 59.513859 -322.761444 
46.139332 23.315920 -317.906982 
-21.721680 -8.842493 -310.240479 
-11.032294 29.793707 -316.090729 
38.015259 37.553967 -319.723175 
20.546976 -1.082229 -313.009277 
25.005001 -12.805182 -311.786713 
24.674776 7.503589 -314.463318 
5.026456 22.749996 -315.595398 
-18.089220 -12.423801 -309.816467 
-16.768322 40.217968 -317.411621 
-2.238471 10.145378 -313.337006 
29.628139 -11.979620 -311.997345 
39.865082 49.606506 -322.034790 
58.687840 42.011990 -321.957367 
5.356680 27.151911 -316.156372 
14.602948 13.282507 -314.741852 
41.185970 41.846878 -320.632599 
-4.054703 17.410307 -314.452606 
15.428510 36.067959 -318.323334 
34.416382 49.147797 -321.704529 
-14.952089 2.385122 -311.833618 
39.147217 -3.228689 -313.944275 
50.267128 -16.272532 -312.869904 
-1.412910 0.403774 -311.994598 
-4.219815 4.531575 -312.413208 
-4.715152 20.547432 -314.820038 
-14.621869 -12.970294 -309.969788 
21.496479 27.151911 -317.246490 
-15.942763 -22.546787 -308.598633 
-1.412910 24.840345 -315.435944 
-10.328956 50.928036 -319.369659 
-20.896122 18.070755 -314.072388 
-5.705822 18.731205 -314.530853 
11.465821 2.385122 -313.007355 
23.849215 31.114599 -317.977264 
72.061913 -14.126072 -315.787537 
-7.852279 -9.833167 -310.371643 
70.741013 26.161243 -321.105560 
63.971416 12.622064 -318.173584 
29.628139 2.550235 -314.298981 
57.532055 -6.035591 -314.896576 
-19.905451 -22.711891 -308.678314 
40.195297 28.472811 -318.517517 
11.796046 -2.505141 -312.458282 
49.771797 -5.540254 -314.193878 
54.064701 -6.850021 -314.439606 
21.537651 11.796502 -314.686279 
58.192501 12.952289 -317.443298 
23.353878 15.966429 -315.760498 
51.918251 -6.861153 -314.217865 
33.590820 36.067959 -319.357391 
32.269928 16.914968 -316.256195 
-8.017391 15.319464 -313.779175 
67.768990 -14.291184 -315.017975 
47.130001 -17.098093 -312.689911 
-2.238471 21.538107 -315.010315 
5.852017 -3.889131 -311.804535 
-15.447427 4.318280 -312.128052 
0.011466 55.055836 -320.548737 
45.148659 56.376728 -323.869385 
31.114141 27.482136 -317.896606 
-12.310300 9.154712 -312.747559 
42.341759 17.080082 -316.762451 
59.183178 25.500795 -319.541504 
-11.980076 23.519447 -314.929962 
10.475147 24.840345 -316.314697 
64.352615 -4.384468 -315.760498 
66.778320 32.615364 -321.374298 
3.375333 -16.767868 -310.003540 
70.410789 -21.060774 -314.322296 
64.301643 52.248932 -324.093109 
-7.687166 40.226845 -317.741852 
5.026456 -1.815478 -312.128052 
-14.621869 0.403774 -311.390137 
-23.703024 3.540901 -312.104523 
4.861344 -7.686707 -311.355194 
-1.082689 7.998926 -312.987213 
16.914513 5.192024 -313.658325 
49.276459 54.560501 -323.634949 
54.125954 -10.328505 -313.944275 
66.613213 -19.739883 -314.019836 
67.603889 54.890720 -325.179840 
24.839890 -19.670689 -310.807129 
15.758734 14.792351 -315.265167 
67.438766 52.909378 -324.692322 
24.839890 20.382320 -316.456787 
-23.884735 18.566092 -314.172302 
48.120674 52.579159 -323.069397 
22.363213 24.510120 -316.754669 
5.191568 36.067959 -317.725494 
15.758734 49.276917 -320.306946 
25.335226 45.149113 -320.282867 
12.786720 43.332882 -319.174225 
4.531119 -20.730549 -309.707642 
13.777387 35.077286 -318.026337 
10.310035 -7.026265 -311.608826 
-3.854577 -22.381664 -309.156036 
49.744274 10.088874 -316.394165 
43.992874 -9.998280 -313.334076 
55.715824 -17.923647 -313.171021 
44.818436 -19.409658 -312.209717 
26.656116 42.011990 -319.984314 
62.075104 6.017586 -316.916290 
-5.045373 33.921497 -316.816559 
52.908924 11.796502 -316.821686 
-18.254332 -18.749208 -309.115417 
10.310035 8.329150 -313.942902 
54.788914 12.622064 -317.246490 
41.185970 30.289038 -318.880981 
9.979811 54.560501 -321.112366 
58.852951 -11.649394 -314.297363 
-6.861605 -15.446971 -309.692627 
37.291447 42.342216 -320.548737 
4.366007 -12.805182 -310.677551 
25.500338 49.607140 -321.172577 
-21.391459 14.933628 -313.517975 
-18.110455 50.597809 -318.897644 
18.895861 10.310492 -314.655670 
58.192501 -19.079433 -313.337463 
-13.466083 3.706013 -312.102417 
29.628139 35.572620 -319.172333 
38.379070 44.984005 -321.226807 
3.375333 45.314228 -319.124542 
71.071236 59.628689 -326.117401 
-3.064029 47.295570 -319.024323 
23.849215 -17.923647 -310.913788 
37.223282 -16.767868 -311.810760 
45.148659 33.591278 -319.764038 
37.718620 1.229336 -314.261963 
17.378304 31.609934 -317.576721 
32.435040 -22.381664 -310.924194 
12.951832 -5.540254 -311.989471 
-24.033592 28.803034 -315.744263 
44.323097 19.377148 -317.246490 
-13.961419 -21.721226 -308.603851 
13.116937 -16.107420 -310.804718 
-8.856576 -8.182044 -310.642029 
-11.980076 33.921497 -316.619232 
-11.649851 14.887203 -313.614044 
9.814698 1.064224 -312.735016 
-11.814963 -15.512641 -309.486237 
3.705557 13.117399 -314.176971 
-21.391459 39.535313 -317.214142 
-19.575228 45.314228 -318.135437 
-13.796308 -15.612083 -309.547852 
-16.107876 20.052095 -314.458466 
10.805372 44.023556 -319.392975 
18.235411 52.022202 -321.044098 
44.818436 44.984005 -321.489075 
-18.749666 36.728409 -316.731079 
61.329628 -14.935920 -314.274475 
27.151455 -14.456297 -311.656647 
7.962111 32.930832 -317.246490 
47.955563 -6.365816 -314.097717 
-9.503398 -3.889131 -311.327698 
68.099213 30.949486 -321.347565 
15.263397 42.011986 -319.283203 
25.500338 57.697628 -322.517670 
-15.942763 13.777842 -313.436401 
56.211163 -19.904995 -312.974609 
-16.933434 21.868332 -314.737823 
18.235411 -9.668055 -311.712738 
38.544182 54.230278 -322.780792 
37.223282 47.625797 -321.528656 
66.613213 10.373710 -318.237183 
55.550713 46.417618 -322.530090 
50.927574 -10.988946 -313.437653 
10.805372 41.351540 -318.885773 
-8.512724 31.444822 -316.138580 
-10.163843 -18.914322 -309.357025 
10.310035 51.918709 -320.704193 
67.768990 3.375789 -317.397736 
29.793251 28.968145 -317.973969 
-1.412910 -10.036665 -310.642029 
55.385601 32.105274 -319.984009 
63.145863 35.572624 -321.525421 
18.895861 54.230278 -321.415497 
66.943436 41.186428 -322.653534 
-25.684368 56.541840 -319.947693 
-18.914778 22.931574 -314.604736 
40.195297 -16.107420 -312.099518 
25.665451 -16.602757 -311.201569 
68.924767 41.351543 -323.009186 
12.456495 24.345009 -316.301788 
49.936909 -8.842493 -313.634613 
61.990078 39.370201 -322.089722 
-14.621869 28.472811 -315.594696 
53.734478 40.691097 -321.432343 
52.248474 33.921501 -320.123444 
28.802578 -3.063577 -313.381744 
34.581493 20.547432 -316.775940 
31.774591 -18.749208 -311.526306 
13.116937 57.532516 -321.823669 
8.328695 34.912174 -317.673859 
-8.677836 35.902847 -316.826111 
71.401459 -7.521595 -316.658752 
59.843624 49.607140 -323.449310 
28.260578 44.118252 -320.348450 
21.207426 -3.228689 -312.982971 
31.609480 4.366463 -314.473938 
41.351082 -0.817197 -314.274475 
-7.687166 48.616467 -319.095001 
62.980755 15.366202 -318.402283 
-23.753683 -21.556112 -308.887360 
10.640260 -15.572879 -310.642029 
27.977016 24.179895 -317.169495 
8.328695 52.579159 -320.653015 
16.254070 2.180209 -313.283844 
-12.655418 53.569824 -319.558075 
-5.045373 -11.484283 -310.332977 
63.145863 42.884548 -322.695190 
17.740074 19.886992 -315.892731 
-23.703024 39.370197 -317.189148 
70.080566 2.385122 -317.653381 
-5.375597 -6.861154 -310.906250 
30.453693 6.017586 -314.592010 
-16.768322 -10.988946 -310.074341 
-15.884440 -16.767868 -309.156036 
-19.410114 16.254528 -313.873932 
-5.540710 40.691093 -317.852234 
56.455341 57.697628 -324.346344 
-1.082689 -12.277158 -310.311798 
7.503133 46.304897 -319.542450 
66.282990 -8.842492 -315.565338 
35.572166 2.385122 -314.326294 
1.228880 -1.247342 -311.774933 
46.304447 46.304901 -321.687744 
68.264336 -18.253872 -314.520172 
50.102020 57.862740 -324.318420 
60.173851 -19.574770 -313.348541 
55.379379 20.052095 -318.402283 
34.036400 24.840345 -317.576721 
55.341984 27.151911 -319.227844 
31.774591 39.700428 -319.860687 
20.051640 -8.842493 -311.878662 
57.862278 -9.502942 -314.463684 
40.030193 24.510120 -317.909698 
46.304447 38.751602 -320.548737 
49.197857 50.928036 -322.860291 
25.170115 35.902847 -318.801819 
64.796982 41.817585 -322.530090 
13.282049 9.650049 -314.088989 
8.989144 15.759191 -314.872375 
3.104244 39.700424 -318.072083 
14.768061 32.804745 -317.576721 
-20.731010 -15.942307 -309.385468 
-23.703024 26.326357 -315.354645 
-2.403583 53.569828 -320.198059 
-5.218640 53.900051 -320.053406 
29.463026 19.556767 -316.515991 
35.737278 -22.392862 -311.334473 
32.600155 34.416836 -318.953033 
10.144923 -17.593424 -310.582825 
66.448090 51.258259 -324.297485 
10.144923 49.442032 -320.178864 
54.394928 -15.446971 -313.432281 
-14.711857 53.900047 -319.558075 
59.678513 34.086617 -320.733124 
-16.933434 23.849672 -314.974609 
11.300709 10.063317 -314.109375 
22.858549 45.479343 -320.319000 
-17.593884 45.314228 -318.069183 
-22.877466 1.229336 -311.711670 
0.568431 53.107357 -320.383636 
46.139332 53.734940 -323.090576 
-11.484742 43.993332 -318.180908 
13.282049 27.218191 -316.751190 
1.724217 24.675234 -315.597717 
34.935417 -16.767868 -311.467590 
42.176643 38.379528 -320.140076 
26.656116 10.310492 -315.055420 
36.562840 -5.570175 -313.283844 
-16.438101 1.064224 -311.660583 
38.544182 19.886992 -317.031464 
32.765266 21.372993 -316.899658 
11.796046 20.877657 -315.748596 
51.422913 21.042770 -317.956238 
14.933172 -13.875584 -311.137390 
36.232616 23.024118 -317.303040 
61.494743 -5.540254 -315.307922 
58.027390 35.242401 -320.806854 
42.011532 24.840345 -317.988525 
51.918251 -0.256675 -315.022827 
1.063768 13.192182 -313.944275 
69.089890 16.914968 -319.443085 
51.257801 54.207329 -323.850983 
66.778320 20.877657 -319.872498 
64.136536 33.756390 -321.370544 
12.291383 46.470013 -319.792450 
46.634670 48.286243 -322.179749 
42.090359 9.815155 -315.760498 
-6.531380 43.332882 -318.230164 
-17.593884 12.456951 -313.310120 
69.944740 -1.247341 -317.081390 
59.843624 47.625797 -323.137543 
59.513401 -22.711889 -313.304932 
-12.475412 31.444822 -316.211792 
22.858549 37.223736 -318.723724 
-14.786981 49.937359 -319.033997 
-23.537912 8.494263 -312.897339 
10.970485 6.512915 -313.561340 
-12.805637 21.538107 -314.638428 
7.172909 20.877657 -315.304840 
65.457420 31.150183 -321.044098 
64.136536 37.223740 -321.823364 
5.356680 45.974674 -319.379272 
70.080566 9.223176 -318.732544 
-22.712353 -19.887316 -309.156036 
-21.886791 44.984001 -318.067688 
-20.400785 35.407509 -316.613525 
-4.384927 -0.256675 -311.646698 
45.148659 40.394516 -320.548737 
-19.079889 38.709747 -317.122345 
-8.681923 -22.161530 -309.010712 
43.497536 53.074490 -322.915131 
23.518991 10.475605 -314.897888 
-8.347611 57.202286 -320.448120 
67.438766 57.532516 -325.591980 
-9.668510 6.351543 -312.458282 
47.867920 -21.060774 -312.128052 
15.758734 19.886992 -315.824493 
-8.610312 4.531575 -312.128052 
69.915443 29.793707 -321.429108 
17.574963 49.847713 -320.713867 
3.372420 25.996132 -316.090729 
-13.346851 -3.558914 -311.137390 
19.226086 30.949486 -317.644165 
45.643997 -8.842493 -313.680878 
5.686905 17.080082 -314.817291 
-18.749666 29.793707 -315.792694 
-1.082689 3.045564 -312.396912 
68.099213 15.263854 -319.082489 
66.448090 29.463484 -321.121094 
-6.556324 -22.350883 -308.915588 
8.493807 3.693995 -313.118683 
6.677572 57.202286 -321.413635 
13.777387 48.616470 -320.246704 
-5.540710 45.841301 -318.567383 
59.843624 -7.521595 -314.856537 
-7.852279 -13.795856 -309.994263 
5.356680 58.688297 -321.573669 
-2.898920 32.765720 -316.823822 
12.786720 16.928984 -315.265167 
45.478886 -13.795856 -312.932983 
44.653324 47.625797 -321.965942 
-12.640525 28.472811 -315.713867 
-13.198730 17.080082 -313.944275 
57.036716 33.591278 -320.426605 
15.135791 -17.428310 -310.476929 
61.494743 22.033443 -319.059601 
23.849215 41.229256 -319.723175 
3.540445 16.914968 -314.555328 
33.822063 4.696687 -314.769836 
8.493807 12.126726 -314.249176 
0.898656 47.625793 -319.367645 
-8.017391 -17.098093 -309.504913 
17.905188 14.438292 -315.238647 
57.522152 -22.381664 -312.788483 
67.698639 34.416840 -321.869629 
64.962090 56.706955 -324.962494 
-6.696492 9.154712 -313.122131 
38.709293 -18.088760 -311.870636 
13.282049 3.210677 -313.146851 
57.366940 31.609938 -320.078857 
67.603889 43.002663 -322.980896 
26.325901 12.622064 -315.292389 
15.923846 -22.338654 -310.415131 
53.734478 24.130796 -318.732544 
23.518991 27.647247 -317.389496 
62.155190 -7.686707 -315.159485 
-17.924109 8.494263 -312.616821 
18.070299 25.505564 -316.916290 
5.521793 -5.870479 -311.611694 
63.971416 54.560501 -324.853851 
55.550713 -1.082229 -315.295441 
-21.061234 29.298370 -315.770935 
-12.640525 7.008252 -312.536102 
49.606686 -22.051449 -312.330902 
16.914513 10.310492 -314.579132 
56.376274 36.398186 -320.862244 
50.762463 24.840345 -318.535522 
61.164516 25.165756 -319.558075 
42.837093 5.687361 -315.034058 
-13.466083 -10.493616 -310.248932 
44.983547 12.952289 -316.503540 
35.407055 0.403774 -314.144104 
62.650532 2.715347 -316.554810 
36.232616 19.257246 -316.751190 
-1.412910 56.376728 -320.806915 
-22.217016 37.058624 -316.776184 
71.667435 30.784374 -321.639252 
43.827763 37.223740 -320.029907 
-3.394253 45.004131 -318.732544 
37.223282 49.607140 -321.769501 
10.970485 -22.216560 -309.695953 
63.145863 8.329151 -317.326080 
71.236343 0.238662 -317.596344 
-5.705822 -2.568240 -311.519196 
57.639992 4.201350 -316.420929 
7.007796 28.142584 -316.443207 
-14.621869 42.011986 -317.593842 
-16.946909 -8.677382 -310.476929 
-24.033249 -1.247342 -311.567017 
-17.924109 2.385122 -311.908386 
59.513401 27.482136 -319.791199 
3.375333 58.688297 -321.382294 
47.790447 27.966564 -318.897644 
6.512459 -0.256675 -312.491577 
55.631828 18.070755 -318.072083 
23.188766 35.242397 -318.813416 
-21.391459 50.102470 -318.710449 
-12.970749 -0.917117 -311.434204 
33.425709 -19.879366 -311.467590 
45.200954 9.154713 -315.925598 
-6.696492 38.544636 -317.473175 
-7.522054 -20.565445 -308.974091 
35.076832 -2.898464 -313.660553 
28.802578 27.308649 -317.741852 
-22.382130 -12.309845 -309.891235 
-9.833619 19.226542 -314.319397 
-21.061234 59.204304 -320.383636 
41.020859 8.164039 -315.561340 
53.239147 16.914968 -317.736023 
-22.547241 56.376728 -319.815460 
-0.587352 30.123924 -316.509735 
-4.715152 38.874863 -317.481018 
-22.547241 10.640716 -313.248291 
29.297915 21.538107 -316.881897 
-1.247801 51.918709 -319.958649 
-5.045373 2.385122 -312.181641 
21.372538 -10.493616 -311.726257 
55.055378 16.089415 -317.611816 
-10.494068 24.840345 -315.198364 
23.188766 -1.907791 -313.330322 
12.951832 53.009380 -320.878967 
70.410789 15.263854 -319.369904 
-7.126082 58.688297 -320.878967 
-3.559366 -2.072903 -311.513916 
31.279255 -2.395833 -313.448944 
-21.886791 54.560497 -319.538422 
-15.282314 31.775045 -316.178925 
-17.428770 -1.082229 -311.513916 
47.625336 -8.842493 -313.668823 
-22.547241 -17.923647 -309.234314 
24.344553 14.273180 -315.395233 
4.531119 18.642662 -314.934937 
-7.522054 13.282506 -313.515228 
26.656116 7.998927 -314.859650 
49.441574 -14.456297 -312.958862 
53.899590 47.928810 -322.695190 
66.778320 13.117400 -318.764160 
-23.042578 48.286240 -318.520233 
14.602948 4.696687 -313.518646 
17.740074 55.881397 -321.746277 
-8.017391 -5.210030 -311.103180 
21.372538 22.797926 -316.586090 
5.636986 -18.088760 -309.981598 
26.821230 14.603404 -315.638611 
3.540445 42.837543 -318.718597 
2.549775 54.725609 -320.487305 
58.687840 8.164039 -316.825226 
16.584288 33.921497 -317.985382 
19.523945 -18.088760 -310.807129 
-3.559366 -10.163392 -310.695160 
29.463026 -13.923536 -311.962921 
2.384663 35.077286 -317.409729 
-7.356942 50.928036 -319.461945 
71.041870 -2.898464 -317.411621 
-17.428770 25.755993 -315.265167 
32.671501 55.055836 -322.530090 
14.768061 -7.851820 -311.848419 
5.686905 9.154712 -313.720062 
5.852017 54.725609 -320.716949 
4.861344 40.691093 -318.541840 
-7.026717 -11.649395 -310.275513 
57.036716 7.008252 -316.516785 
-16.933434 -6.200704 -310.610321 
72.061913 14.273180 -319.842255 
65.457420 39.865540 -322.325592 
19.721422 20.424349 -316.090729 
59.678513 11.631390 -317.305756 
-3.394253 -7.356483 -310.915039 
43.167320 -12.144732 -312.778534 
-23.537912 46.349064 -318.237183 
4.200894 37.884186 -317.910065 
-1.247801 -14.456297 -310.066559 
43.990055 1.229336 -314.439606 
6.677572 11.301165 -314.010132 
33.921043 10.475605 -315.394012 
55.550713 -22.381664 -312.836334 
34.911716 42.011990 -320.244415 
22.858549 -15.612083 -311.275635 
39.932507 37.719078 -320.053406 
21.702763 7.668702 -314.273560 
-2.238471 -3.558914 -311.504395 
72.061913 -18.418985 -315.076599 
19.226086 3.375789 -313.514252 
22.032988 47.790913 -320.686096 
24.179440 47.625797 -320.751434 
8.824032 -8.821342 -311.302490 
-20.565897 -17.923647 -309.185516 
38.709293 22.033443 -317.335419 
21.537651 -17.040770 -310.972260 
17.409849 36.233070 -318.227875 
41.351082 32.600609 -319.126190 
60.623611 16.584745 -318.402283 
14.272723 46.304901 -319.907928 
2.054438 49.772251 -319.724213 
14.437836 -21.101179 -310.146698 
62.320305 45.479343 -323.007294 
-11.955336 -13.465631 -309.651367 
-21.886791 4.531575 -312.216980 
-8.677836 9.650049 -313.098541 
31.609480 -9.337831 -312.505035 
53.734478 -3.558914 -314.892273 
45.974220 -6.861153 -313.792389 
57.697166 -13.300518 -313.871429 
47.955563 5.026912 -315.643829 
61.164516 43.167774 -322.507721 
-24.165340 37.223736 -317.044312 
31.609480 31.609934 -318.594513 
56.376274 13.777843 -317.491150 
37.223282 -2.898464 -313.885712 
-10.659181 -9.172718 -310.365417 
21.207426 59.513859 -322.525482 
16.749401 -13.135406 -311.031281 
61.041264 30.123924 -320.383636 
3.007833 10.310491 -313.614044 
36.562840 44.158447 -320.793762 
10.970485 35.242397 -317.823456 
32.705101 29.298370 -318.237183 
-10.494068 -6.912502 -310.642029 
10.970485 15.924303 -315.002136 
30.783918 58.688297 -323.089142 
-16.603209 49.276913 -318.767548 
-17.758995 5.026912 -312.172302 
-3.064029 19.391655 -314.747986 
17.244738 0.403774 -313.168854 
7.998470 19.061430 -315.322632 
2.729345 3.706013 -312.788483 
13.612274 59.513859 -322.135345 
16.749401 21.703218 -316.203796 
16.088959 -20.070108 -310.351837 
-20.070560 53.684925 -319.392975 
-5.375597 15.594077 -314.059509 
68.541046 -20.400331 -314.274475 
5.852017 33.921497 -317.332336 
12.456495 -0.091563 -312.586273 
-14.952089 47.956017 -318.641937 
-20.235672 48.451351 -318.586884 
-18.089220 41.681763 -317.461517 
18.895861 5.357136 -314.007538 
-6.861605 27.055418 -315.595398 
-12.640525 19.226542 -314.392944 
-20.235672 -19.904995 -309.059509 
19.886528 8.494264 -314.374115 
51.941624 -4.549580 -314.439606 
-21.391459 8.989599 -312.943329 
61.824966 47.460686 -323.098541 
58.027390 45.644455 -322.608826 
40.360409 44.653782 -321.151520 
8.163583 -16.602757 -310.219482 
6.017130 44.158443 -319.032684 
16.914513 -18.253872 -310.496002 
-2.898920 23.519447 -315.219757 
18.895861 -11.484283 -311.462494 
-6.861605 3.540901 -312.155365 
3.375333 51.423370 -319.990173 
69.420113 27.812361 -321.251953 
40.195297 5.687361 -315.196869 
21.296051 9.815155 -314.769836 
60.999405 56.378681 -324.676544 
7.338021 59.513859 -321.781158 
66.208748 4.696688 -317.411621 
46.634670 -10.633814 -313.448944 
31.532963 -11.649395 -312.293182 
4.861344 29.439619 -316.586090 
-2.733808 38.997372 -317.576721 
12.621608 31.444822 -317.342682 
50.267128 -20.181904 -312.458282 
-1.082689 13.117399 -313.815338 
-5.870934 25.335682 -315.467499 
-11.154517 16.914968 -313.969177 
70.080566 -18.914322 -314.782623 
28.472353 6.182698 -314.530670 
67.273659 -7.191370 -316.006958 
63.641205 -10.493616 -314.996429 
-17.947044 -16.767868 -309.321136 
-5.870934 5.606150 -312.623383 
21.372538 34.086613 -318.414368 
3.540445 47.790913 -319.643677 
-13.631195 56.541840 -320.045135 
-21.556572 46.965347 -318.246216 
9.979811 37.388851 -318.305084 
-7.852279 22.034182 -314.769836 
34.416382 44.202732 -320.713867 
43.002209 13.282507 -316.406525 
-8.017391 18.235868 -314.361450 
70.741013 32.765724 -321.971527 
64.301643 45.314232 -323.010559 
17.740074 -5.210030 -312.094543 
-23.703024 5.687361 -312.380310 
-3.724478 51.918709 -319.907867 
69.222275 35.737740 -322.199890 
17.905188 -3.228689 -312.652222 
30.288580 -16.767868 -311.559143 
-19.905451 -13.795856 -309.720337 
46.634670 -4.879805 -314.169006 
9.484481 58.688297 -321.784729 
55.880939 29.133259 -319.619843 
39.699966 59.678967 -323.753540 
-6.861605 36.563297 -317.117767 
41.516197 48.451355 -321.732330 
-9.008061 29.463484 -315.925385 
33.755932 47.295574 -321.231812 
13.447162 -3.663558 -312.293182 
-11.319630 0.238662 -311.565155 
46.469559 1.064224 -314.822601 
39.039520 30.949486 -318.975586 
62.485416 53.239601 -324.236298 
29.628139 15.428966 -316.044159 
3.870670 7.998926 -313.394928 
59.018063 -4.549580 -314.998749 
17.905188 -21.060774 -310.418365 
38.213959 28.803034 -318.161194 
35.407055 15.594078 -316.278442 
0.733543 4.201350 -312.708679 
68.759666 11.301166 -318.647583 
40.195297 -6.653885 -313.283844 
40.690636 18.896317 -317.184631 
-3.889591 25.170570 -315.630493 
49.936909 -0.917117 -314.900787 
64.136536 6.347811 -317.438019 
1.228880 59.348747 -321.488251 
29.738222 -1.247341 -313.779175 
-14.291644 9.815154 -312.993835 
-9.173174 -1.247342 -311.551392 
18.895861 45.479343 -319.987244 
6.677572 41.681763 -318.648529 
2.219550 5.687361 -312.945953 
6.512459 -15.446971 -310.381744 
42.671982 55.220947 -323.077606 
-10.659181 54.065163 -319.876617 
1.393992 21.703218 -315.368500 
23.518991 56.458462 -322.199890 
66.448090 37.451668 -322.034790 
-3.064029 2.385122 -312.256439 
42.059464 -8.016932 -313.448944 
10.144923 17.905643 -315.179047 
41.846420 15.134385 -316.586090 
-10.659181 10.310491 -313.077820 
47.436562 -14.126073 -312.953583 
-18.914778 18.566092 -314.154633 
43.002209 26.491468 -318.372375 
21.581997 -20.070108 -310.807129 
52.248474 -20.070108 -312.622314 
-24.033249 -3.228689 -311.250854 
20.877201 -13.465631 -311.363770 
68.429443 25.005459 -320.621552 
-18.089220 47.295570 -318.359985 
24.839890 26.161243 -317.139923 
29.628139 31.792793 -318.402283 
43.002209 -2.072903 -314.242798 
42.837093 2.802966 -314.934937 
35.076832 -6.861153 -313.191101 
64.136536 9.980267 -317.680237 
-14.621869 -8.347157 -310.373779 
29.628139 7.833814 -314.631592 
18.070299 40.856205 -319.134674 
8.989144 28.307697 -316.814972 
62.155190 33.921501 -321.173737 
-21.886791 -4.219357 -310.914551 
-7.026717 1.276975 -311.962921 
-7.852279 25.335682 -315.265900 
27.811903 57.862740 -322.750244 
-2.238471 -21.225887 -309.422333 
-19.575228 -1.577566 -311.275360 
43.827763 -3.889131 -313.986603 
52.083363 30.123924 -319.467590 
-22.877466 24.510120 -314.934998 
31.774591 2.385122 -314.213226 
49.441574 39.865540 -320.948792 
28.637465 59.645947 -322.966309 
56.046051 38.544640 -321.254089 
-5.705822 -8.842493 -310.626251 
30.836140 11.301166 -315.265167 
53.569374 59.844082 -324.812256 
56.376274 -2.898464 -315.189972 
63.641205 -12.474956 -314.654236 
39.039520 8.329151 -315.449158 
22.858549 1.229336 -313.531830 
25.500338 55.716282 -322.269257 
15.955370 8.659375 -314.109375 
-5.540710 10.805827 -313.395142 
13.777387 -9.998280 -311.540192 
27.170208 -18.088760 -311.302490 
27.357067 54.065163 -322.034790 
36.397728 7.008252 -315.093048 
59.348289 -17.428310 -313.656799 
21.372538 19.391655 -316.133209 
-14.511507 22.859007 -314.769836 
42.239567 20.547432 -317.411621 
-8.842949 53.239601 -319.730713 
21.537651 5.026912 -314.095917 
-19.740339 5.192024 -312.231720 
19.556311 28.719200 -317.411621 
-1.743134 17.905643 -314.485962 
43.002209 46.635124 -321.635345 
40.525520 34.416836 -319.461639 
38.379070 -1.247341 -314.101746 
8.775930 41.186424 -318.732544 
7.833358 9.657060 -313.779175 
20.520157 -22.372925 -310.476929 
53.074036 -8.677381 -314.292786 
-18.419441 57.654526 -320.053406 
20.381865 52.909378 -321.429596 
33.260601 12.291840 -315.760040 
-4.880260 56.402073 -320.548737 
18.730749 -7.191370 -312.089325 
3.210221 -5.375142 -311.615387 
11.961159 -19.409658 -310.288300 
-10.659181 36.124634 -316.916290 
27.811903 47.460686 -320.876831 
69.089890 -22.711889 -314.341034 
-8.677836 2.550234 -312.065399 
10.144923 32.600609 -317.454987 
12.126270 49.772251 -320.305420 
55.880939 42.342216 -321.801178 
52.743813 2.220010 -315.361420 
16.914513 38.049301 -318.763092 
27.316566 2.185640 -313.944275 
13.612274 29.131567 -317.081390 
16.088959 45.479343 -319.901306 
27.646791 31.444822 -318.082092 
-0.257127 40.739300 -318.237183 
34.746605 28.803034 -318.192535 
30.916300 22.693893 -317.081390 
-24.029146 35.076744 -316.751190 
69.915443 -5.540254 -316.522827 
38.213959 6.182698 -315.011230 
46.964886 50.928036 -322.822388 
7.916663 30.454149 -316.916290 
43.992874 -23.042114 -311.702667 
-18.584553 -21.225889 -308.888306 
66.117867 15.265180 -318.732544 
-16.603209 33.426170 -316.225586 
60.338963 40.691097 -321.831238 
-18.254332 14.273179 -313.587402 
-7.356942 7.133005 -312.788483 
71.731689 55.551170 -325.448120 
65.622536 -10.658721 -315.240631 
12.456495 -11.484283 -311.399200 
-12.655161 41.846874 -317.741852 
15.428510 39.370197 -318.771240 
6.182242 -21.886335 -309.515533 
26.491013 6.017586 -314.416779 
-9.943176 -16.767868 -309.321136 
44.157986 50.275742 -322.530090 
48.616013 59.183636 -324.337646 
16.914513 43.663105 -319.489777 
-19.740339 56.211620 -319.837006 
18.565636 59.513859 -322.408112 
-2.403583 26.656582 -315.646423 
10.144923 30.619263 -317.312744 
12.291383 14.367355 -314.769836 
24.839890 18.400980 -316.049347 
-9.338285 0.733999 -311.761505 
70.080566 43.828224 -323.742981 
60.669182 8.164039 -317.019989 
20.162117 32.600609 -318.072083 
47.955563 -23.042114 -311.989655 
46.304447 18.731205 -317.388275 
19.886528 58.027847 -322.203949 
14.602948 -11.951256 -311.137390 
2.219550 32.765720 -317.058777 
1.301862 -3.558914 -311.632690 
18.895861 16.254528 -315.483368 
63.310982 26.161243 -319.971222 
27.151455 0.238662 -313.645630 
56.211163 11.014094 -317.246490 
-10.163843 8.329150 -312.699310 
69.750336 -10.658721 -315.857391 
55.385601 22.859007 -318.690979 
17.905188 7.580844 -314.109375 
7.668246 55.386059 -321.005432 
7.172909 24.840345 -316.117645 
0.568431 -13.465631 -310.320312 
15.758734 -0.917117 -312.845703 
27.481678 34.086613 -318.520325 
-2.898920 -16.767868 -310.012115 
0.073098 18.731205 -314.855804 
42.341759 44.653782 -321.245331 
71.731689 20.217209 -320.523285 
41.020859 3.540901 -314.876129 
39.369743 2.385122 -314.547516 
-16.768322 -20.005838 -308.990906 
1.228880 -6.200704 -311.418213 
16.914513 16.914968 -315.445587 
52.743813 15.098742 -317.237732 
-3.229141 49.276913 -319.430023 
-4.627243 27.151911 -315.925598 
-2.568696 30.784374 -316.355225 
35.407055 8.824488 -315.326569 
32.765266 23.354334 -317.294220 
11.300709 27.261158 -316.751190 
23.684103 12.456952 -315.091888 
26.986341 25.996132 -317.259583 
25.170115 53.734940 -321.959137 
62.105213 10.310492 -317.741852 
-22.189758 31.775045 -316.090729 
-9.008061 59.183636 -320.812775 
-10.163843 42.177101 -317.935699 
30.783918 38.049301 -319.542877 
-25.354143 53.239597 -319.498230 
47.455566 37.058628 -320.218536 
-16.933434 18.235868 -314.212311 
30.949030 9.319825 -315.070068 
4.198220 5.852473 -312.953583 
2.879996 23.024118 -315.553864 
59.513401 3.540901 -316.250488 
-20.235672 24.840345 -315.069214 
28.307240 37.719074 -319.294586 
4.200894 32.798130 -316.916290 
5.191568 24.840345 -315.916046 
39.039520 12.291840 -315.883850 
54.064701 30.619263 -319.678192 
52.743813 49.620792 -323.025421 
13.777387 -1.577566 -312.654114 
33.755932 59.513859 -323.330414 
42.341759 22.693893 -317.800018 
-9.008061 -12.144732 -310.061523 
-12.310300 -22.711891 -308.899719 
5.686905 7.173365 -313.343750 
-11.980076 -19.904995 -308.988098 
58.153515 10.310492 -317.081390 
20.877201 44.488670 -319.964630 
59.018063 20.382320 -318.502563 
51.422913 39.700428 -320.936829 
12.924844 -22.381664 -310.104340 
18.565636 -1.082229 -312.802795 
16.584288 58.697384 -322.034790 
47.130001 40.856209 -320.708374 
53.239147 45.149113 -322.016510 
-9.503398 23.189230 -314.913116 
7.668246 7.718516 -313.614044 
-5.540710 22.693893 -315.065826 
9.814698 -19.574770 -309.754486 
23.849215 5.710108 -314.109375 
37.223282 -10.493616 -312.855652 
43.497536 -20.895662 -311.951050 
39.699966 -14.126073 -312.395203 
-22.051905 -0.917117 -311.460175 
28.307240 -16.100140 -311.467590 
-7.026717 -1.071172 -311.467590 
-3.394253 -5.375142 -311.343079 
33.425709 6.678028 -314.922852 
15.758734 27.812361 -317.056366 
-14.430117 7.833813 -312.623383 
36.893059 21.207882 -317.045776 
-20.400785 41.351540 -317.466919 
37.223282 55.881397 -322.956696 
2.879996 -2.403127 -311.928558 
-1.412910 -5.375142 -311.237335 
-14.621869 58.688297 -320.405640 
-22.382130 41.351540 -317.418091 
47.790447 9.319825 -316.277649 
61.329628 4.201350 -316.595490 
0.568431 51.129421 -320.053406 
-24.363474 55.055832 -319.509277 
26.821230 18.731205 -316.341766 
50.927574 59.678967 -324.612427 
51.753136 46.800236 -322.135040 
28.142128 17.245193 -316.168243 
12.291383 36.714520 -318.237183 
-0.422239 6.017586 -312.893646 
47.460224 3.045564 -315.185883 
5.686905 47.956020 -319.687714 
31.114141 -20.549299 -311.137390 
29.463026 46.139790 -320.868988 
-15.282314 25.996132 -315.205597 
26.986341 -12.309845 -312.118073 
2.549775 -13.465631 -310.434357 
4.035782 -14.786522 -310.376709 
64.136536 16.914968 -318.761993 
19.556311 42.837543 -319.533325 
-14.786981 15.924303 -313.893127 
4.200894 49.607140 -319.910065 
19.886528 -5.540254 -312.317383 
46.964886 26.161243 -318.425171 
-19.905451 -3.558914 -311.062500 
50.102020 33.921501 -319.992706 
4.366007 56.687870 -321.044098 
33.095490 8.624887 -315.100067 
0.073098 23.519447 -315.407562 
-15.777651 6.347810 -312.445496 
-4.550040 13.777842 -313.691742 
-17.263659 10.310491 -312.928436 
47.460224 33.921501 -319.862305 
4.366007 53.469517 -320.548737 
54.229816 8.494264 -316.507080 
15.259493 30.123924 -317.411621 
22.198099 49.731709 -321.044098 
71.071236 17.000305 -320.089294 
38.879211 -9.007607 -313.118683 
-2.238471 15.924303 -314.008972 
-21.315214 2.385122 -311.962921 
61.659855 27.647247 -320.114288 
14.768061 21.538107 -316.151154 
30.618805 55.055836 -322.387543 
-0.092015 38.544636 -317.791718 
-6.696492 -18.749208 -309.314026 
-12.310300 1.889785 -311.899963 
66.117867 -2.566622 -316.586090 
67.768990 -4.713598 -316.420929 
25.005001 43.167774 -320.165283 
17.244738 29.628595 -317.334412 
-14.786981 -19.904997 -308.785095 
53.569374 -21.721224 -312.666534 
69.750336 7.338477 -318.346436 
72.061913 -22.051449 -314.797577 
19.659649 -20.070108 -310.476929 
63.640713 4.500223 -317.017029 
64.466759 -22.381664 -313.540497 
0.073098 33.921497 -317.118164 
64.962090 49.772251 -324.143097 
31.444366 46.139790 -320.838104 
68.924767 48.719551 -324.346344 
23.518991 33.095943 -318.214844 
28.967690 9.815155 -315.065216 
10.640260 -13.135406 -311.073883 
60.008739 54.065163 -324.242493 
70.080566 -14.456296 -315.596832 
57.201828 2.220010 -316.001373 
51.422913 -18.253872 -312.738037 
51.588024 -22.051449 -312.517212 
53.074036 38.544640 -320.820526 
48.616013 1.394448 -315.002747 
14.602948 43.993332 -319.503815 
11.630934 29.372952 -317.081390 
33.590820 51.258259 -322.006439 
64.466759 24.582764 -319.723175 
42.011532 -6.091896 -313.779175 
55.550713 59.365139 -324.841675 
36.727947 17.062447 -316.586090 
18.070299 27.482136 -316.965271 
27.316566 -4.384468 -312.864014 
7.998470 39.370197 -318.351196 
-20.235672 0.697729 -311.467590 
26.160788 -9.172718 -312.312622 
-24.089750 22.859007 -314.957306 
-12.640525 -8.646879 -310.476929 
64.711777 28.803034 -320.383636 
-1.412910 -18.088760 -309.545837 
-5.705822 51.924557 -319.723175 
-21.886791 -22.216562 -308.744415 
6.677572 5.357136 -313.188141 
45.121136 6.540438 -315.393311 
