-50.318474 5.076164 -272.800964 
-79.118469 9.151840 -274.400940 
30.681520 22.577457 -251.648453 
16.281530 -2.179569 -271.800934 
-69.918472 -8.022536 -286.230743 
11.281520 -12.422538 -280.477997 
100.081520 19.056877 -243.800949 
84.681526 29.577454 -238.180176 
14.681533 3.377461 -267.365387 
112.081512 1.177453 -255.939209 
12.681529 14.577456 -258.422607 
14.881521 36.284126 -241.200958 
82.681519 36.377449 -233.651779 
66.081528 2.395399 -261.400940 
-14.918476 -19.222546 -288.682495 
-58.518471 4.777455 -274.062744 
63.681526 6.177448 -258.842529 
85.481537 15.869148 -248.200958 
-36.518471 -6.622543 -280.722687 
1.081526 -11.252335 -280.400940 
26.681528 -0.622547 -270.335968 
146.681534 34.686539 -227.400955 
102.481529 5.777456 -253.544540 
97.281532 -17.459770 -272.800964 
30.481533 26.177458 -248.769363 
-28.518469 9.977453 -266.449005 
115.481514 -17.422548 -270.398315 
76.481522 -3.222547 -264.233612 
10.281533 29.377453 -246.937744 
82.081512 32.860718 -236.200958 
101.281540 29.577454 -235.975067 
31.281530 8.577459 -263.052734 
4.681528 -13.410455 -281.800964 
102.681534 33.777451 -232.803970 
88.081520 24.777449 -241.186005 
-16.318470 12.977460 -262.696320 
-55.918468 39.977455 -246.699478 
107.681526 2.377458 -255.496567 
74.681519 43.577450 -229.772217 
92.081535 -19.822544 -275.556793 
-32.459347 -13.422539 -285.800934 
-44.118473 -18.622536 -291.447693 
-25.118469 40.212059 -242.600952 
-45.918472 12.377449 -266.513947 
82.081512 -19.022545 -276.234680 
132.481537 23.977449 -236.181656 
95.081520 -1.422547 -260.148224 
62.881531 18.697075 -249.400955 
-73.518471 -10.022541 -288.552155 
60.081528 16.177454 -251.732224 
-82.042381 33.777454 -255.332321 
130.881531 1.658536 -253.200943 
144.081512 24.913824 -234.800949 
-5.318478 -15.022536 -284.134796 
146.481522 -11.222548 -262.750916 
-60.518475 21.177448 -261.306946 
-64.118477 23.714655 -259.800964 
71.081520 31.977453 -238.433243 
27.081520 -5.222550 -274.092529 
123.881531 -12.422539 -265.239288 
-46.518475 1.377458 -275.331207 
-64.918472 39.377457 -248.163605 
-55.318474 -6.282871 -282.600952 
-50.318474 44.577457 -242.755508 
82.881523 -15.022536 -272.747528 
59.881523 30.711954 -240.800949 
64.765778 -6.622544 -268.800964 
120.881516 -19.422537 -271.276581 
-48.318474 -19.622538 -292.686798 
44.541267 47.444061 -230.995361 
46.681522 25.839931 -247.000946 
101.681519 22.377451 -241.139191 
-50.918476 -14.622544 -288.946045 
106.081528 -6.366856 -262.600952 
31.481520 -6.622543 -275.390137 
87.242706 -14.822548 -272.000977 
109.081520 15.924936 -245.000961 
-55.318474 -1.022538 -278.320374 
22.281528 -3.822541 -272.949829 
77.681526 -18.622538 -276.535736 
76.281517 23.025011 -244.200958 
-20.118475 34.577450 -246.316681 
-36.518471 6.577456 -270.068481 
67.481529 13.577454 -252.563065 
-5.718470 -10.822540 -280.691986 
-5.118474 21.777458 -254.462357 
4.081532 24.577461 -251.309753 
-11.518478 4.977458 -268.534698 
151.425781 -1.828138 -256.378784 
80.881523 10.977454 -252.570923 
-73.918472 -17.483671 -294.600952 
139.081528 -16.399448 -266.800934 
141.481537 17.377457 -240.626144 
26.281521 -14.822548 -281.890930 
-61.118469 36.220856 -250.000946 
24.681524 2.490857 -267.800964 
-71.518471 8.953134 -272.800964 
108.881516 27.377447 -236.582077 
107.681526 31.377453 -233.834946 
23.681522 16.177454 -256.636932 
-7.518470 34.408501 -245.000961 
123.481529 16.687876 -242.600952 
-10.118469 0.977450 -271.542236 
46.081528 31.319090 -242.800949 
-79.518478 36.177448 -252.635330 
88.481529 32.977455 -235.238785 
104.281532 42.577450 -226.465363 
30.081526 4.977458 -265.900970 
89.881523 16.030527 -247.400955 
83.881516 -6.613410 -265.800964 
60.881527 -16.622549 -277.388824 
22.081524 8.177453 -263.187836 
113.481537 16.465118 -244.000961 
98.481522 4.777454 -254.847946 
-33.318474 13.733812 -264.000946 
-2.318472 12.977460 -261.104736 
55.681526 16.177454 -252.549194 
90.681541 36.977444 -232.109421 
126.081512 1.377456 -253.948120 
141.369949 -9.422547 -261.400940 
-77.518471 -14.319275 -293.000946 
-70.518471 -1.822536 -281.327545 
12.561098 33.177456 -243.800949 
31.281530 -0.422543 -270.351959 
128.281525 -15.822550 -267.390808 
-79.050079 -6.628232 -287.400970 
57.281525 -19.086218 -280.000946 
15.281528 26.177458 -248.970154 
116.681534 46.177452 -222.440247 
131.881516 28.298458 -233.000946 
64.881516 -11.272079 -272.400940 
136.481537 26.577448 -233.860168 
87.681519 -18.969511 -275.400940 
134.681534 19.977455 -238.927292 
72.481529 11.977456 -253.009979 
134.881516 0.177450 -254.121002 
109.481529 5.977459 -252.499634 
113.081528 26.177456 -236.904160 
-44.918468 18.702484 -261.400940 
77.281517 -15.222540 -273.708984 
13.481527 20.040773 -254.000961 
61.681522 2.377458 -262.133301 
-70.318466 34.295925 -252.600967 
-50.118469 20.577454 -260.548828 
61.281532 42.177441 -232.456970 
-75.718468 14.777460 -268.977478 
49.881535 12.397758 -256.800964 
50.081520 7.377454 -260.781311 
-37.518471 -18.744293 -290.800964 
104.681534 18.233274 -243.800949 
67.281532 36.143669 -236.000961 
-63.918472 -11.422549 -287.928406 
56.081520 11.177458 -256.357300 
151.081512 -13.822547 -265.085999 
7.281527 0.377455 -270.333649 
107.881531 -16.976883 -271.000946 
129.281540 -6.622545 -259.868805 
80.081520 47.777447 -226.131073 
-23.118465 8.577459 -266.943359 
136.681519 -3.022544 -256.533630 
95.681534 -12.822545 -269.253906 
9.681522 -4.422536 -274.055725 
-56.318470 -15.022536 -289.846436 
134.881516 -17.622536 -268.264343 
-35.718472 10.977455 -266.462219 
147.481522 22.814249 -236.600952 
53.881527 47.177452 -229.873566 
60.081528 21.574326 -247.600952 
-3.318474 9.735444 -263.800934 
-8.918479 -12.942811 -282.800964 
-62.318474 17.377459 -264.541901 
115.081535 21.601519 -240.000946 
-24.718479 -18.755007 -289.400940 
147.606003 46.377453 -218.600952 
107.881531 34.977455 -231.280701 
-5.918473 37.577457 -242.458557 
150.881516 7.177449 -249.243347 
93.881531 27.301466 -238.600952 
88.681534 -4.822544 -263.743713 
-29.918476 -3.422549 -277.341949 
125.081528 41.177456 -224.713348 
99.681511 -14.822549 -270.344574 
0.681534 -3.822541 -274.361511 
126.081512 -2.552383 -256.800964 
106.681511 46.177452 -223.715698 
146.481522 18.064087 -240.200958 
109.681534 -14.022551 -268.347015 
100.681526 40.177452 -228.599304 
31.081528 -17.503506 -284.200958 
-50.318474 -9.014924 -284.200958 
-49.518475 23.977451 -257.839203 
69.081528 28.977459 -240.894653 
-45.718468 -11.410390 -285.600952 
-48.918472 -3.822541 -279.859375 
102.281525 47.219070 -223.600952 
50.481529 49.777451 -229.218781 
-16.118467 -4.422536 -276.640930 
-18.918470 38.177452 -243.448074 
46.281532 35.342670 -239.600952 
118.881538 25.777451 -236.448502 
-35.118477 43.777458 -241.196411 
107.281525 -9.751698 -265.200958 
49.681530 3.606417 -263.800934 
74.681519 48.707550 -226.400955 
43.655262 -11.822542 -278.000946 
140.281509 29.977446 -231.088974 
12.281522 -18.622538 -285.540649 
-52.518471 33.714199 -250.800964 
-36.918476 36.055676 -247.200958 
-65.918465 0.177453 -278.921722 
-28.918474 38.777447 -244.162537 
46.281532 -3.700426 -270.600983 
-31.518475 7.735901 -268.600952 
-13.518468 10.177457 -264.596497 
-41.518463 20.815603 -259.400970 
14.881521 -15.979728 -283.200958 
118.681534 -6.599105 -261.200958 
-62.118469 43.577454 -244.840240 
-63.918472 -19.111116 -294.200958 
-77.572243 45.015488 -246.253265 
3.881529 33.294655 -244.600952 
-40.318474 39.777451 -244.810379 
72.481529 -4.222548 -265.616241 
-41.318478 -5.422538 -280.269745 
-43.518467 33.177456 -250.189011 
-56.518475 23.777447 -258.782623 
-21.318466 4.177460 -270.284424 
140.881531 35.705154 -226.800949 
-66.718475 -3.760239 -282.200928 
18.681526 38.977451 -238.734818 
102.281525 12.300408 -248.600952 
-4.118472 16.177454 -258.783386 
17.481522 42.577454 -236.142868 
13.081521 -9.422546 -277.917419 
-24.918467 35.377449 -246.261841 
68.881523 -14.222538 -274.087799 
118.681534 37.377449 -228.199478 
93.081520 18.749348 -245.000961 
121.681526 46.177452 -221.743652 
-35.518467 -0.622546 -275.737213 
97.681534 36.177444 -231.758545 
42.481525 14.998905 -257.000946 
-67.318466 42.471222 -246.200943 
149.576096 30.577457 -231.092484 
129.881516 -10.222546 -262.730804 
117.681519 17.777449 -242.529510 
46.081528 11.177458 -258.847046 
27.681530 -11.222547 -278.983948 
-46.318470 35.977459 -248.442429 
-24.918467 28.688602 -251.400940 
118.374092 29.777458 -233.600952 
43.481529 28.956554 -245.400955 
76.281517 14.577456 -250.466949 
120.281532 14.552495 -244.600952 
-11.318475 -10.022541 -280.654297 
54.081528 0.377455 -265.246094 
59.481533 -0.422544 -264.757935 
-52.518471 17.377459 -263.294403 
70.281517 1.300238 -261.600983 
129.481506 10.977453 -246.225327 
91.481522 -16.222542 -272.580933 
127.681541 -19.139265 -270.200958 
124.281509 -16.822536 -268.718781 
46.681522 -18.303310 -282.000946 
-56.518475 28.777458 -254.993881 
-21.918476 13.777458 -262.687042 
-81.318466 22.482685 -264.400970 
133.881531 12.177459 -244.962265 
3.081530 38.215256 -241.000946 
-78.918472 29.577456 -257.767487 
-32.518475 29.977448 -251.312607 
-18.918470 -17.408913 -287.600922 
25.681526 29.377453 -245.854202 
70.881531 47.199596 -227.800949 
-75.718468 10.804603 -272.200928 
100.881531 -0.822551 -258.899048 
7.281527 13.577454 -259.684692 
41.081532 8.707860 -262.600952 
71.881516 4.577451 -258.812134 
139.281525 5.177460 -250.045929 
18.681526 10.377460 -261.488068 
103.281509 26.185862 -238.000961 
104.881508 -13.549305 -268.600952 
46.281532 16.777449 -254.304642 
-74.518471 -6.222536 -285.725800 
-77.718475 -2.822538 -283.817169 
-75.518471 0.777463 -280.277191 
40.281521 12.378909 -260.000946 
91.372238 -12.822545 -269.800964 
88.213905 12.977458 -250.000946 
92.681511 33.633041 -234.200958 
26.881531 8.777448 -262.693176 
49.681530 37.177452 -237.520813 
83.762810 6.577455 -255.600952 
39.481522 24.837948 -250.200958 
113.681511 -2.568520 -258.600952 
83.281532 25.715700 -241.200958 
92.481537 7.255785 -253.800964 
54.681526 -14.022550 -276.515839 
-7.518470 -1.822537 -273.575104 
55.281521 43.177444 -232.394409 
119.481522 20.850559 -240.000946 
-25.718466 4.777455 -270.280243 
145.881516 12.377447 -244.541992 
-56.518475 32.499336 -252.200958 
-48.318474 15.859463 -264.000946 
143.081528 -5.422540 -258.220184 
-36.918476 -15.238186 -287.800964 
-74.118469 20.023874 -264.400970 
131.081543 15.862843 -242.400955 
4.881531 42.777458 -237.454285 
-21.718472 -3.622537 -276.599762 
94.481514 39.577442 -229.800064 
67.081528 19.577452 -248.117477 
-76.518471 33.377460 -254.199860 
150.081528 10.948202 -246.200943 
-64.718468 -15.422543 -291.356201 
-59.718475 8.177453 -271.495270 
92.681511 -8.222542 -265.885773 
-34.718468 17.247477 -261.400940 
133.681519 36.977444 -226.560440 
-29.918476 3.777453 -271.580444 
-40.718468 9.991848 -267.800964 
-13.718471 15.577457 -260.350159 
-31.318470 21.977448 -257.351471 
142.881531 1.756333 -252.600967 
-41.918472 -10.022541 -284.056061 
123.281525 25.074190 -236.400940 
87.881523 4.977457 -256.130981 
76.081528 5.177461 -257.722382 
75.481522 32.177456 -237.668930 
79.281525 19.693769 -246.200943 
70.081535 -19.923857 -278.600922 
-7.918477 11.777454 -262.711945 
-22.518471 31.693346 -248.800949 
-27.718470 25.977455 -253.832108 
42.081520 -14.622545 -280.925018 
97.481537 -20.780912 -275.600983 
142.881531 -19.622540 -269.361877 
-67.518471 28.777458 -256.374207 
74.281532 27.440702 -241.200958 
-60.518475 27.537725 -256.400940 
-69.318474 5.777458 -274.941986 
40.990112 -2.622551 -272.000977 
-0.318468 41.134930 -239.200943 
-11.518478 30.023716 -248.800949 
-34.118473 -9.580721 -282.800964 
-37.718475 -11.222546 -284.573090 
60.681522 9.227254 -257.000946 
69.881531 41.177456 -232.158981 
95.281525 14.840385 -247.600952 
128.081512 26.377445 -234.880890 
-2.518475 6.177449 -266.592682 
78.681526 28.577452 -239.769302 
-39.318474 4.032457 -272.400940 
22.281528 31.577461 -244.217041 
51.081524 -19.258430 -281.600952 
106.881516 23.577457 -239.586197 
77.881531 -8.019171 -267.800964 
39.481522 28.177448 -247.427353 
50.203770 -0.622547 -267.000977 
50.081520 22.492088 -248.800949 
91.081512 46.177452 -225.736786 
-70.118469 14.177450 -268.346558 
117.481514 -9.884558 -264.000946 
113.881516 7.211469 -251.000946 
124.881523 -6.222538 -260.351776 
-38.718475 30.780293 -251.400940 
49.681530 -15.891930 -279.200958 
115.881516 42.577450 -224.966858 
85.081535 22.398075 -243.400940 
50.281525 -10.422548 -274.716614 
32.681526 -9.822538 -278.089050 
65.081520 27.898928 -242.200958 
64.681534 -14.622545 -275.146423 
92.681511 22.279015 -242.400955 
73.681519 -10.297573 -270.200958 
-16.007826 24.777451 -253.400955 
81.281525 44.200008 -228.400955 
-72.318474 42.441540 -246.800964 
132.281525 -4.222549 -257.694916 
95.281525 9.977452 -251.292831 
44.281528 0.777462 -267.705322 
-17.918468 18.177458 -258.764801 
122.681511 32.655972 -231.000961 
55.081532 -6.222537 -270.260315 
132.881531 46.211159 -220.200958 
4.481524 8.577459 -263.926636 
18.281519 23.577459 -250.852203 
-72.823273 24.977453 -260.200958 
-4.518479 2.470815 -269.800964 
-69.118469 38.777447 -249.012878 
41.798664 43.720325 -234.183304 
-60.118473 12.577453 -268.044586 
128.081512 4.484482 -251.400940 
-11.318475 19.996531 -256.600952 
-17.518476 28.777458 -250.483124 
65.081520 9.777449 -255.852051 
97.681534 -7.995001 -265.000946 
116.681534 34.177456 -230.713303 
144.881531 -1.309000 -255.000946 
59.081524 48.577446 -228.357330 
80.681519 1.177453 -260.131653 
143.681519 9.377457 -246.797897 
26.481524 24.177454 -250.098709 
79.081520 38.622829 -232.600952 
-25.118469 -14.886876 -286.200928 
86.081520 -11.222548 -269.259644 
-76.718475 38.777447 -250.069565 
-58.918468 -17.622534 -292.339233 
12.681529 -0.003359 -270.200958 
85.281532 47.474270 -225.600952 
66.281525 43.377449 -231.100403 
-26.118473 -1.422545 -275.303009 
43.881519 -8.022537 -274.912598 
9.481520 23.777447 -251.371231 
-41.518463 28.298370 -253.600952 
126.481522 46.287033 -221.000961 
148.817520 41.577446 -222.310699 
-35.918472 28.006830 -253.200943 
125.281525 20.177460 -239.757401 
118.881538 0.177450 -255.814941 
68.281532 7.052191 -257.400970 
1.081526 21.577456 -253.935272 
84.081512 41.300644 -230.000961 
129.481506 36.177444 -227.592316 
42.081520 33.177456 -242.441376 
-15.918478 -10.022541 -281.182037 
151.481522 -7.476590 -260.600952 
3.081530 -6.822547 -276.581268 
-49.118473 31.177454 -252.343887 
60.681522 -10.031706 -272.200928 
137.081512 9.577459 -246.714630 
-26.518478 12.977460 -263.817078 
7.281527 3.777453 -267.564819 
39.281532 40.577450 -237.468201 
21.081522 13.177447 -259.140259 
93.881531 1.977451 -257.639496 
142.681519 39.977451 -223.526093 
22.081524 42.377449 -235.764435 
-5.318478 -5.856997 -276.600952 
-28.918474 43.777458 -240.395309 
-53.718472 -18.782799 -292.600952 
58.281525 26.977753 -243.800949 
55.281521 -10.022541 -273.200348 
29.881521 31.309374 -244.400955 
23.681522 37.377453 -239.511993 
96.281517 46.177452 -225.057404 
140.481522 11.673635 -245.000961 
-78.918472 24.977453 -261.498749 
-29.718473 18.377460 -259.948730 
69.481522 22.466070 -245.600952 
54.881527 22.515856 -247.800949 
59.481533 -6.622544 -269.655487 
-1.518473 -8.267200 -278.200958 
-44.718475 41.415489 -244.200958 
8.481532 -15.179698 -283.000946 
136.281540 -12.504301 -264.200958 
119.081512 8.958317 -249.000946 
31.281530 12.377448 -260.040405 
-77.718475 4.377464 -277.940155 
39.881527 20.177462 -253.820038 
21.681532 -0.422543 -270.200745 
60.081528 38.777447 -234.916641 
-15.118480 32.377460 -247.425049 
135.081512 6.546102 -249.200958 
-27.518467 -11.022543 -283.316956 
-62.318474 -4.022544 -281.693695 
68.881523 -10.422549 -271.010101 
79.481529 7.227443 -255.600952 
63.281521 47.577446 -228.535767 
-14.918476 42.411007 -239.800964 
-16.718477 -13.622542 -284.186951 
137.081512 39.377453 -224.512451 
98.681526 32.577442 -234.180267 
17.681524 17.577448 -255.694397 
137.281525 33.377457 -228.792831 
42.281525 -18.622538 -284.199890 
-82.518471 40.911415 -249.600952 
-2.518475 -0.781214 -272.200928 
-15.264257 0.177452 -272.800964 
114.081520 -7.622547 -262.593719 
103.881523 -18.444246 -272.800964 
18.881529 2.177456 -268.150574 
75.481522 18.322281 -247.800949 
12.481525 6.726497 -264.800964 
100.081520 44.177448 -225.949265 
144.850616 42.907314 -221.057465 
2.281532 3.577450 -268.187012 
-45.118473 26.577450 -255.348267 
150.481537 16.220024 -242.400955 
128.681519 42.977455 -222.992523 
3.081530 17.177456 -257.206879 
126.357719 13.577453 -244.600952 
-72.718468 28.719463 -257.200958 
-35.118477 2.956116 -272.800964 
136.081528 -7.525153 -260.000946 
7.281527 35.377449 -242.694534 
68.081528 -4.222548 -266.294830 
29.081524 19.377447 -254.088043 
10.081530 41.045063 -238.200943 
144.481522 28.638994 -232.000946 
21.481529 -7.529309 -276.000946 
-19.718468 -7.022550 -279.113098 
114.681526 3.733195 -253.600952 
106.481537 8.777447 -250.733139 
119.281517 -3.222547 -258.472321 
41.481525 5.256214 -265.200958 
102.081520 2.377458 -256.242706 
-74.118469 6.177450 -275.567719 
111.481529 -10.763681 -265.400940 
31.081528 16.377457 -256.787079 
-9.718477 -18.022543 -287.088379 
89.081512 40.377457 -229.972031 
-72.518471 -14.022549 -291.608551 
-27.318478 32.577446 -248.686905 
72.081520 16.177454 -249.944061 
10.881528 11.177459 -261.301025 
105.481522 -2.622552 -259.705719 
-50.518467 27.577452 -255.186432 
132.081528 -20.049519 -270.600983 
108.681519 42.403107 -226.000946 
-23.518473 43.577454 -239.927795 
-68.318474 10.941618 -270.600983 
110.281509 -5.622543 -261.466187 
-31.518475 -16.895983 -288.600952 
128.881531 31.377453 -231.128433 
8.881524 -7.678648 -276.800934 
-0.318468 24.977453 -251.455933 
-9.918467 39.377457 -241.506027 
26.881531 13.777457 -258.593567 
54.881527 31.177452 -241.164215 
89.681519 1.508974 -258.600952 
4.681528 28.981201 -247.800949 
56.881531 34.377449 -238.489395 
-38.918465 24.290659 -256.400940 
-3.118470 28.808378 -248.800949 
28.481527 36.977448 -239.572296 
151.281525 -20.222549 -269.837860 
144.081512 -16.435524 -266.600952 
-45.718468 -6.422540 -281.550415 
151.481522 1.577459 -253.656082 
18.681526 -18.918371 -285.400970 
63.881531 -20.022547 -279.719360 
-1.118466 18.518858 -256.600952 
63.881531 33.777454 -238.077011 
20.881535 -16.079178 -283.000946 
-24.918467 -6.342804 -279.200958 
148.881516 26.977455 -233.685364 
133.081512 42.577450 -222.702545 
-48.518471 39.904186 -245.800964 
49.681530 28.712486 -244.000961 
-63.518471 10.718950 -270.000946 
-72.118469 2.577463 -278.128998 
-22.318468 -0.022536 -273.772491 
-11.518478 -4.515117 -276.200958 
-13.318480 -15.982946 -285.800934 
-61.518467 -7.422542 -284.345337 
15.481531 29.577456 -246.289444 
74.481529 -0.022537 -261.931488 
20.281523 28.577454 -246.731583 
100.298065 8.977450 -251.400940 
53.681522 39.977455 -234.873856 
-81.918472 44.977448 -246.227066 
130.681534 7.496632 -248.800949 
57.281525 6.177448 -260.078217 
123.481529 9.977451 -247.698669 
144.481522 5.977459 -249.436371 
-65.318474 32.816357 -253.000977 
-62.718472 3.854194 -275.400940 
17.481522 32.977455 -243.479843 
86.881531 43.977444 -227.788895 
22.881523 -12.710026 -280.200958 
89.997993 29.377451 -237.600952 
-54.318474 3.777453 -274.320343 
90.881508 -2.003110 -261.200958 
74.881523 35.777458 -235.180237 
49.081520 44.416386 -232.400955 
-36.318466 21.377451 -258.356384 
29.445473 43.408455 -235.151016 
23.081526 -19.222548 -285.523834 
-49.118473 8.943864 -269.600952 
-18.118471 9.977453 -265.248596 
136.681519 16.177452 -241.685074 
-32.037170 36.577457 -246.200943 
-22.318468 21.777458 -256.474976 
43.881519 22.377453 -250.590622 
110.081535 10.777451 -248.776367 
14.481529 40.177456 -238.319260 
-17.318472 21.577456 -256.037781 
123.516815 37.577454 -227.400955 
119.881523 -13.422541 -266.592499 
-80.718475 13.646434 -271.515869 
114.881531 -13.822547 -267.492249 
-1.518473 37.794060 -241.800949 
-41.318478 13.377451 -265.166412 
107.281525 -20.860306 -274.400940 
-19.518480 42.057117 -240.600952 
-44.918468 7.050672 -270.600983 
0.281528 31.377457 -246.456619 
22.281528 25.377460 -249.183380 
139.481537 23.977449 -235.638885 
45.681522 40.036655 -236.200958 
111.881508 47.459309 -222.200958 
133.881531 31.377453 -230.563171 
-56.518475 44.977448 -243.403519 
-21.118477 26.850275 -252.400940 
39.548157 47.458462 -231.959778 
141.081528 -13.022549 -264.197052 
139.681534 46.208118 -219.400955 
114.481522 11.177457 -247.899857 
-29.518471 -7.194301 -280.400940 
112.681526 30.977448 -233.522751 
147.081512 -7.822551 -260.119751 
2.481520 -18.622538 -286.345306 
1.481533 11.177459 -262.132477 
-54.718472 7.761666 -271.200958 
99.881516 -5.022548 -262.371185 
113.681511 39.438965 -227.400955 
6.081522 21.177448 -253.753601 
-21.718472 -11.423131 -283.000946 
64.281525 39.377453 -234.082184 
48.881531 19.377447 -251.574036 
106.281532 13.458929 -247.200958 
0.681534 -15.022536 -283.538635 
85.081535 -2.622551 -262.490082 
89.081512 20.577452 -244.162628 
4.681528 -2.622550 -273.012329 
148.081528 -4.422538 -257.592621 
124.481514 6.577454 -250.168167 
51.281528 33.577450 -239.951981 
-60.718468 40.177456 -247.110596 
42.281525 37.730774 -238.800964 
-67.318466 20.577454 -262.760040 
-17.318472 5.218038 -269.000946 
17.081530 6.177449 -264.972565 
-66.318474 15.777463 -266.380554 
106.281532 39.177452 -228.547775 
130.681534 39.696400 -225.000946 
-24.118467 17.377459 -260.119507 
-79.718468 1.740927 -280.800934 
-33.918468 40.076366 -243.800949 
142.481522 21.177446 -237.692993 
-9.518475 16.777449 -258.918823 
-54.718472 13.177448 -266.848755 
53.881527 26.177458 -245.125534 
18.481524 -11.222547 -279.126404 
-57.718472 -11.101295 -286.800964 
79.681534 -12.545547 -271.200958 
17.281532 -6.622543 -275.389038 
23.681522 21.177448 -252.580399 
10.681525 37.424988 -240.800949 
-70.118469 18.177458 -265.137787 
132.081528 -13.822547 -265.353149 
102.281525 -8.022538 -264.451263 
80.881523 -3.755069 -264.000946 
72.081520 -17.022541 -275.946869 
81.481529 14.477945 -249.800949 
-52.118473 38.066933 -247.600952 
63.881531 24.319714 -245.000961 
-41.318478 -13.822545 -287.127045 
-3.118470 33.796795 -245.000961 
-8.518473 7.377454 -266.263062 
-46.518475 -15.622546 -289.226532 
-56.718468 19.186235 -262.400940 
148.081528 4.177458 -251.030273 
85.481537 0.977449 -259.586945 
95.081520 -4.822544 -262.852905 
-26.518478 21.212854 -257.400970 
86.281525 9.977452 -252.547562 
-58.918468 1.177454 -277.038147 
-6.118476 43.377453 -238.138550 
61.481522 -3.622538 -266.970154 
-43.918476 -2.422547 -278.119324 
7.081523 -10.696104 -279.400940 
-69.318474 -12.022545 -289.318512 
98.481522 26.377445 -238.671768 
56.081520 -3.022543 -267.494965 
-30.118465 0.177452 -274.492401 
-3.718466 -18.422550 -286.793396 
120.281532 41.977455 -224.781754 
32.681526 -13.193539 -280.800934 
124.481514 28.695694 -233.600952 
50.881519 15.777461 -253.902740 
-11.918470 34.577450 -245.399063 
-60.718468 -14.222537 -289.782532 
-39.918468 -0.022536 -275.736633 
48.081532 -7.022551 -272.772369 
-5.518466 26.044271 -251.200974 
9.481520 18.935316 -255.200958 
-11.718467 25.177456 -252.588455 
-81.067688 18.977457 -267.154449 
46.281532 6.177448 -262.760651 
1.681522 0.185811 -271.000946 
7.481530 -18.422550 -285.741577 
130.281525 20.777454 -238.782394 
114.881531 -20.688629 -273.200958 
80.681519 22.977448 -243.566513 
149.081512 -17.022541 -267.313721 
-37.518471 14.777460 -263.657135 
-68.318474 24.777451 -259.595154 
-33.918468 24.840734 -255.400955 
64.281525 -1.287273 -264.600922 
-50.318474 -0.022536 -276.909180 
120.481537 4.542060 -252.200958 
143.081528 32.578472 -229.000961 
74.481529 39.977451 -232.305084 
-50.318474 12.376645 -267.000977 
-77.917091 -18.239784 -296.400970 
-77.718475 -10.338415 -289.800934 
-40.118469 44.237858 -241.600967 
-58.318474 15.777461 -265.257965 
-56.718468 36.377453 -249.380981 
60.281528 12.689211 -254.400970 
147.681519 38.177448 -224.731934 
25.681526 33.628426 -242.400955 
112.281517 34.832569 -230.800949 
139.081528 42.377445 -222.127319 
75.281532 8.592270 -255.200958 
100.481522 15.577456 -246.356506 
70.681526 -7.203228 -268.200928 
111.481529 19.777452 -241.796021 
-61.318474 31.087645 -253.800964 
-65.518471 7.894168 -272.600952 
59.481533 -13.222536 -274.899719 
99.481537 -11.281974 -267.400940 
88.403481 -8.422545 -266.600952 
25.767012 40.215797 -237.006882 
138.681519 -20.622541 -270.365784 
-68.518478 -16.707603 -293.000946 
-14.518470 38.635098 -242.600952 
-45.118473 23.126833 -258.000977 
38.881527 36.134640 -241.200958 
57.081520 2.718770 -262.800934 
93.881531 43.177444 -227.391708 
-53.318470 -11.255984 -286.400970 
97.281532 22.377451 -241.699493 
-33.718468 33.435040 -248.800949 
20.081520 35.606274 -241.200958 
140.481522 -1.304232 -255.000946 
-58.118469 -3.396591 -280.600952 
73.081520 -13.822546 -273.139404 
-10.718480 43.431305 -238.600952 
83.681541 19.177460 -245.957886 
-41.518463 36.515675 -247.400955 
95.281525 30.616156 -236.000961 
150.081528 20.377447 -239.100830 
67.081528 49.377445 -227.240845 
109.481529 -1.422547 -258.230011 
122.081535 -9.022540 -262.744263 
81.881538 -9.622551 -268.496399 
53.481518 19.377447 -250.479126 
-7.118478 30.977449 -247.594650 
51.281528 -4.222548 -269.558441 
-37.918480 -3.328359 -278.200958 
-40.518478 17.377459 -261.936066 
53.481518 4.905574 -261.800934 
-65.918465 -7.126277 -284.800934 
