36.771385 -12.659436 -281.966400 
99.771378 -17.499990 -268.834290 
-38.978611 0.250035 -266.133270 
48.021381 10.750019 -260.030151 
15.521379 -17.249979 -286.830597 
73.271362 14.034384 -251.216354 
14.271379 29.186661 -249.216385 
118.021378 -32.522507 -276.716339 
105.771370 9.000026 -247.225769 
113.271362 -33.999985 -279.064819 
79.771378 9.000027 -253.396713 
96.521385 -20.249968 -271.817230 
15.521379 23.684139 -253.716385 
-36.228611 2.500021 -264.608276 
12.521387 -14.457917 -283.966400 
35.271381 6.740415 -267.716339 
55.271385 -1.999981 -267.831512 
6.771386 17.250011 -257.556000 
-56.728600 24.500021 -245.919174 
90.771385 -30.576088 -281.716339 
88.521370 -2.499975 -259.872772 
54.271374 20.009182 -251.466400 
59.521381 -25.749989 -285.408600 
121.271378 -24.999983 -269.919281 
-7.978618 18.500023 -254.912491 
122.021385 1.250021 -249.509491 
58.521389 13.251298 -255.466339 
40.771370 -29.832487 -293.966339 
91.771362 -25.249966 -277.014709 
61.521385 -1.999981 -266.156799 
88.021378 17.808115 -244.966370 
88.271378 6.500029 -253.152130 
12.771384 13.000020 -261.816223 
82.021385 -13.999975 -270.367279 
117.021362 -8.223809 -257.716400 
93.521355 2.937161 -254.716400 
61.771366 -8.749969 -271.275421 
-18.978613 -10.581321 -276.716339 
-4.478619 -6.146109 -274.716339 
99.021385 -35.499966 -283.916199 
116.271385 -17.249981 -264.876526 
-35.478611 -10.249978 -274.783691 
60.521362 -4.749990 -268.535522 
-64.478615 -18.999971 -279.077362 
109.021362 -10.749973 -261.395264 
-17.978611 2.500021 -266.364594 
52.771393 17.449163 -253.716385 
66.021393 12.679437 -253.966354 
-2.978608 -14.999963 -282.062988 
103.771370 -5.499966 -258.555450 
46.771381 19.750023 -253.558960 
83.271393 11.000015 -251.017624 
-24.978607 13.028809 -257.466370 
37.771374 8.500033 -265.242889 
-18.478601 -19.249983 -283.745850 
-22.978603 26.750023 -247.163239 
41.021381 4.500025 -267.124359 
53.771381 -21.249987 -283.311584 
-26.728600 -22.578217 -285.716370 
99.271355 2.500020 -253.549988 
60.521362 6.750011 -259.755493 
35.271381 30.374506 -249.216385 
81.771378 -8.499987 -266.179688 
54.771362 -10.499990 -274.516785 
36.271393 -27.762865 -293.966339 
-26.978611 -30.577068 -292.216400 
-60.228600 -17.555035 -278.216400 
-51.978607 -6.164587 -269.966400 
-23.228615 -10.832107 -276.466370 
58.521389 1.250022 -264.426880 
-2.478614 -10.999984 -278.942474 
-16.978609 -7.999992 -274.835571 
45.440826 -25.749987 -289.216370 
64.771393 -23.249962 -282.015625 
77.271370 4.500024 -257.312408 
73.771385 -30.626005 -285.966400 
-1.978606 28.250019 -248.091797 
0.021383 -28.249985 -293.343903 
4.521385 -23.249960 -289.815735 
-10.478617 -1.749969 -270.572021 
86.021362 15.500016 -247.102661 
-9.478615 -24.249975 -288.853180 
114.771362 12.757503 -242.466354 
77.521393 21.750011 -244.624130 
69.021385 -1.749969 -264.095245 
-5.978614 -24.999981 -289.903290 
36.021381 -21.749979 -289.377136 
-67.228600 13.250016 -253.409561 
-51.728611 17.606537 -251.466400 
-47.728603 -22.791214 -283.716339 
-40.728603 14.750011 -254.670380 
123.271385 -31.391211 -274.716339 
-35.728603 -15.775837 -279.216339 
39.200668 29.500017 -248.466370 
73.021393 -12.749977 -271.576263 
80.271362 19.313402 -245.716385 
45.271366 26.250013 -249.087967 
73.021393 17.210476 -248.966385 
92.271355 -17.249979 -270.423248 
18.521383 8.915924 -266.216370 
-6.728604 -2.499974 -271.542694 
124.771362 -26.249981 -270.066986 
127.521362 -29.749966 -272.639221 
-9.478615 -29.774254 -293.466400 
49.521385 26.000015 -248.165863 
3.271386 19.500010 -255.345459 
67.021370 22.060284 -246.966370 
-30.978607 9.000027 -260.014160 
18.271389 2.500022 -271.419556 
-20.478607 -3.292805 -270.716370 
-12.478606 -18.107538 -283.466370 
-63.728600 -5.499966 -268.342224 
-1.228616 18.672607 -255.466339 
14.521390 2.500022 -270.595703 
49.271374 2.250009 -266.178650 
110.521385 -31.249975 -277.441345 
83.521362 -11.499979 -268.034668 
113.271362 -20.749964 -268.407013 
51.021366 -6.572402 -272.466400 
-9.728611 22.500017 -251.644135 
-10.478617 6.000006 -264.401276 
118.771385 11.250011 -242.708435 
41.021381 12.000018 -261.316254 
94.271370 -23.249962 -274.788483 
51.771378 22.500017 -250.215591 
-24.478617 24.000011 -249.168610 
1.521394 -6.749964 -276.005157 
76.271393 -23.249962 -279.151031 
124.771362 -34.675312 -276.966400 
-23.478615 -14.249987 -279.174164 
125.521362 -20.749966 -266.000916 
88.271378 -21.249987 -274.622833 
2.021387 -14.749980 -282.536133 
10.771379 -8.499986 -278.814941 
-36.978607 17.109119 -253.216385 
91.021370 15.250020 -246.126495 
109.021362 -23.455151 -271.466370 
78.771393 -1.999981 -261.838501 
-22.228613 2.250009 -266.177368 
-12.728618 14.250019 -257.705566 
95.771370 -10.249979 -264.102295 
116.521362 6.500028 -246.690567 
-36.728611 -28.249985 -289.383331 
-50.478611 -14.169937 -276.466370 
10.271385 26.000015 -251.127365 
-3.978610 15.500017 -257.635834 
112.021355 17.424976 -239.716385 
13.521389 -28.499966 -295.575867 
65.021362 -3.297753 -266.216370 
77.021370 -28.999962 -283.764893 
-34.478603 13.169609 -256.466400 
79.771378 -24.749971 -279.582336 
16.793161 -23.249960 -291.966339 
123.271385 17.750015 -237.022079 
-13.228611 3.750020 -265.866455 
-34.978619 -1.929200 -268.216370 
18.271389 26.000015 -252.319580 
-55.728603 -25.614626 -285.216400 
127.271355 -18.249966 -263.530090 
117.771355 -3.749974 -254.117783 
1.021385 -9.749985 -278.340698 
102.521370 -9.749986 -262.139679 
77.771362 -4.749990 -264.214203 
-0.228614 -4.249966 -273.723145 
81.021378 23.500017 -242.561890 
102.771370 1.250021 -253.652573 
66.021393 1.745575 -262.216400 
68.771362 19.000299 -248.716385 
105.021355 -12.617774 -263.716370 
37.021374 2.000028 -270.604431 
-66.911057 3.500008 -260.966400 
51.271378 -0.484384 -267.716339 
2.271384 -21.050846 -287.716400 
77.021370 13.000019 -251.088287 
62.521378 13.929554 -253.966354 
-2.478614 2.250010 -268.227264 
-45.978611 4.669183 -261.966339 
-38.728615 -2.749986 -268.528412 
84.271370 4.629843 -255.466339 
69.771378 -27.687885 -284.466400 
8.521393 -27.228212 -293.716339 
-33.945759 -7.499969 -272.716370 
57.771389 26.750023 -245.796326 
119.771370 -20.499296 -266.716400 
126.271385 0.750027 -249.166855 
54.021393 -17.999985 -280.616180 
-60.728600 -31.918648 -289.966339 
86.521355 -10.107465 -266.216370 
-60.228600 22.596664 -246.966370 
115.271370 -11.495389 -260.716370 
97.271393 -30.124611 -279.716370 
118.160614 -22.999979 -268.966339 
54.521385 5.250030 -262.507568 
-64.478615 6.750011 -258.641235 
-31.978607 -15.499986 -279.373169 
106.521378 0.500016 -253.353928 
-49.978603 -27.614422 -287.466339 
-65.728615 -11.214858 -272.716370 
1.021385 4.750007 -266.678986 
68.021385 -33.382126 -289.716400 
-7.728606 0.750029 -268.876221 
-13.978617 16.994812 -255.466339 
75.521378 -33.749973 -288.303467 
-47.478600 -29.749964 -289.435150 
81.521370 -0.249989 -259.853882 
-11.478618 19.750023 -253.581726 
50.521378 -28.352654 -289.966339 
99.521378 13.702653 -245.216385 
-58.728611 6.750011 -259.161835 
6.021381 -20.249968 -287.578827 
-49.728607 4.535698 -261.716400 
115.271370 -25.499977 -271.590881 
-32.728611 26.000015 -246.841995 
80.771385 6.000005 -255.355057 
80.521385 -27.749962 -281.890289 
110.521385 1.750015 -251.504517 
57.271397 8.750014 -259.112000 
-2.478614 -2.077675 -271.716400 
129.271378 2.750031 -247.226395 
108.021385 19.500008 -239.166443 
92.021385 -8.749969 -263.802429 
-23.228615 -23.479824 -286.716370 
71.271370 -6.541259 -267.216370 
7.271379 -9.710646 -279.216339 
99.021385 8.500031 -249.095291 
121.771362 -15.499987 -262.353699 
77.521393 1.500033 -259.509460 
-30.978607 -27.999971 -289.758667 
83.271393 -17.404175 -272.716370 
45.771389 3.750020 -266.114868 
77.021370 17.276489 -247.966385 
39.521366 -25.249964 -290.757111 
85.771393 -15.499987 -270.598419 
-65.288452 -29.749964 -287.716400 
93.021362 12.500010 -247.652115 
102.521370 6.630115 -249.716385 
-26.478605 -17.201580 -281.216339 
41.021381 15.000024 -258.994690 
-33.978611 -30.233120 -291.216339 
-34.978619 23.500019 -248.529602 
-60.978611 10.500022 -256.094086 
104.521362 -29.499985 -277.441895 
42.877262 21.750013 -253.216385 
-26.978611 21.623739 -250.716354 
14.021381 -25.499975 -293.223785 
112.021355 8.250019 -246.362946 
-53.728600 15.000024 -253.228134 
115.771362 9.750015 -244.452011 
-26.228609 -9.249991 -274.873901 
6.271392 1.750016 -269.817505 
118.521370 -39.385738 -282.216370 
-19.728619 11.000015 -259.554230 
61.271374 -21.133192 -281.216339 
49.771374 -25.249966 -287.605835 
10.521383 -1.249975 -272.917084 
-5.728617 26.000015 -249.398758 
111.271378 -36.249973 -281.433990 
69.021385 15.429743 -251.216354 
47.324215 -5.499965 -272.716370 
-45.478596 0.305974 -265.466400 
107.521362 -26.249981 -274.147583 
94.521370 -27.499981 -278.231049 
-43.478607 -16.249992 -278.805542 
112.271378 -26.931561 -273.466339 
128.021378 14.750010 -238.324860 
111.521370 4.750006 -249.049377 
66.021393 8.750014 -256.912964 
-2.728611 -22.135918 -287.966370 
122.521378 -18.773386 -264.716400 
-62.478607 -8.249975 -270.615845 
-21.228611 16.500019 -255.167328 
82.271378 -3.249980 -261.951843 
87.771385 -13.249971 -268.373169 
2.271384 27.500013 -249.115845 
-28.478609 -19.782341 -283.216400 
-39.728611 -14.148837 -277.466400 
-21.478611 7.663959 -261.966339 
35.521393 16.857960 -259.716400 
98.271378 -24.499989 -274.841003 
131.271362 17.000011 -236.156647 
43.021385 -13.249970 -280.161224 
78.021385 -16.979969 -273.716400 
-65.978600 9.750016 -256.204468 
-2.978608 -19.116737 -285.466339 
10.771379 4.500025 -268.318817 
-47.478600 -12.249982 -275.233093 
-5.978614 -9.129172 -276.966400 
-28.228613 -11.999970 -276.900360 
71.271370 0.346415 -261.966339 
-56.978603 -15.999978 -277.298767 
35.271381 -4.577166 -276.466370 
-31.728615 1.955592 -265.466400 
103.771370 -15.249975 -266.075836 
61.021393 -12.999989 -274.809631 
98.521393 21.068134 -240.216354 
-2.728611 23.750017 -251.410065 
95.521370 -34.249969 -283.624634 
93.699760 8.750013 -250.216400 
129.271378 -1.249977 -250.273788 
78.271370 -13.999975 -271.281891 
50.521378 -22.499985 -285.177185 
-28.478609 0.250035 -267.129456 
-8.978605 15.250021 -257.307983 
119.271378 17.000011 -238.388168 
102.771370 20.500010 -239.619263 
54.029552 26.250013 -246.966370 
-30.478611 17.250011 -253.711700 
122.771362 -4.249968 -253.486328 
125.521362 -15.462346 -261.716400 
42.771374 -27.749960 -291.620270 
-49.943928 12.250014 -255.716385 
41.521370 26.871244 -249.716385 
74.271378 -8.749969 -268.163971 
-62.978596 -26.475407 -285.216400 
-14.228612 -1.850343 -270.216339 
89.771370 -27.499981 -279.383301 
-39.228607 23.771114 -247.966385 
-1.228616 -24.749969 -290.285095 
-47.978615 -6.249971 -270.397400 
47.521381 22.615679 -251.216354 
120.021370 -35.198219 -278.466370 
72.021362 -23.249842 -280.216400 
88.271378 3.500007 -255.427216 
97.271393 -15.035875 -267.466400 
44.771378 -30.447458 -293.216339 
69.271385 -14.749981 -274.059296 
-60.228600 -13.749963 -275.213623 
-23.228615 19.143873 -252.966339 
91.271370 -11.499979 -266.189362 
40.271370 24.250010 -252.126938 
-48.728600 15.500017 -253.324326 
70.195953 -19.249983 -277.466400 
35.271381 22.398571 -255.466339 
53.771381 -24.249977 -285.690979 
-30.228601 23.199238 -249.216385 
68.771362 -30.629017 -287.216400 
48.771385 -16.860731 -281.216339 
5.021394 -7.499969 -277.058929 
127.271355 -12.999990 -259.515045 
95.021378 -7.286765 -261.966339 
116.271385 -36.244186 -280.216400 
123.521355 -12.822696 -259.966370 
103.771370 -26.499964 -275.184143 
75.561401 -19.749977 -276.466370 
-49.228607 -20.240046 -281.466400 
-23.478615 10.250025 -259.795715 
62.771389 0.750028 -263.764069 
63.771366 19.000017 -249.941269 
-33.228611 -12.499965 -276.777588 
71.271370 5.000019 -258.458252 
87.521385 -31.722757 -283.466370 
9.271383 -21.876041 -289.466339 
121.021370 -6.749966 -255.809250 
-35.228615 -19.092358 -281.966400 
116.521362 -29.768772 -274.716339 
43.521374 -3.908491 -272.716370 
-44.228603 -6.225682 -270.716370 
102.021378 10.000012 -247.365601 
12.771384 -11.249966 -281.416199 
-63.978596 -13.749963 -274.947174 
-3.728613 7.404917 -263.966339 
84.771362 -28.821684 -281.716339 
60.271385 10.287517 -257.216400 
-44.478615 11.000015 -257.197144 
63.771366 -6.499982 -269.049377 
-44.228603 21.750013 -249.026169 
-33.478607 -4.559762 -270.466400 
45.771389 -7.999992 -275.120758 
-17.478615 -4.999972 -272.421844 
73.271362 -3.966457 -264.716400 
-30.478611 -9.749985 -274.873840 
-15.478612 12.000017 -259.183258 
-9.978607 26.000015 -248.938385 
-23.978605 -28.249985 -290.658447 
57.271397 -22.499985 -283.323212 
-57.978603 12.500011 -254.790283 
65.021362 -28.249987 -286.183044 
-27.478607 10.488339 -259.216370 
37.271385 -7.650858 -277.966339 
11.521385 19.250013 -256.621674 
-52.228603 23.917265 -246.716385 
69.271385 10.750019 -254.702805 
107.521362 11.500023 -245.009171 
50.521378 5.750024 -263.155457 
114.021370 0.500016 -251.683594 
4.021392 -4.432922 -274.466400 
18.021389 -10.999983 -282.308594 
43.021385 6.711745 -264.716400 
87.271370 22.629387 -241.716385 
-55.478607 -21.749981 -282.089813 
53.771381 -4.999972 -270.502716 
-40.478607 -29.749964 -290.178955 
-14.978603 -15.249974 -280.867981 
11.271387 -19.249981 -287.653717 
13.671518 -21.249985 -289.716400 
-9.728611 -20.148701 -285.466339 
-45.728607 -25.243736 -285.966400 
-14.728605 -22.377647 -286.716370 
105.771370 -37.900753 -284.216339 
46.271389 -19.140966 -283.716339 
61.282700 -28.499968 -287.216400 
102.021378 17.469009 -241.966385 
66.271362 -11.729991 -272.466400 
73.771385 2.500021 -259.691223 
128.521347 -40.499958 -280.981873 
99.271355 -7.999993 -261.496429 
-37.228603 8.750014 -259.631470 
54.771362 11.250012 -257.845306 
103.771370 13.250015 -244.585770 
71.771393 -32.749989 -288.351501 
72.021362 8.000010 -255.961151 
55.021374 -27.742659 -288.216339 
106.771378 15.250020 -242.434509 
2.021387 11.000016 -261.852478 
72.771370 -26.214577 -282.466339 
-17.478615 23.746380 -249.966385 
42.271378 -6.499982 -275.156464 
37.771374 -16.943790 -284.966339 
60.521362 3.555470 -262.216400 
88.702927 -17.749971 -271.716400 
96.521385 6.500028 -251.208542 
-55.978600 9.000027 -257.669922 
91.271370 -5.756862 -261.716400 
39.521366 -10.427033 -279.216339 
110.271362 -14.749982 -264.125824 
-15.728610 -29.731071 -292.716339 
124.021362 -1.456954 -251.216354 
-19.978615 -29.249971 -291.893127 
35.771370 -24.749969 -291.815796 
46.521370 0.500017 -268.376465 
93.271385 -36.249973 -286.108124 
-36.978607 -5.749977 -271.079529 
79.021362 -31.662766 -285.466339 
0.521392 0.255459 -270.216339 
42.771374 -9.706801 -277.466400 
37.521397 13.181085 -261.716400 
-32.728611 19.617088 -251.716370 
51.521389 13.000019 -257.374634 
-4.478619 -27.621901 -292.216400 
88.271378 11.000014 -249.836563 
105.713615 -8.249976 -260.216400 
-59.228603 -6.438351 -269.466370 
-37.978603 5.750024 -261.898804 
-61.228607 -28.951950 -287.466339 
2.021387 24.500021 -251.342392 
117.771355 -0.499972 -251.696045 
86.271385 -26.249981 -279.191772 
-53.478603 4.500025 -261.398987 
-58.228596 -9.249991 -271.768494 
99.021385 -3.917343 -258.466400 
127.771378 -24.256445 -268.216370 
-38.978611 -19.249983 -281.708984 
-28.728603 3.928059 -264.216400 
125.271347 -38.749966 -280.225037 
58.521389 -29.999977 -289.265381 
80.021378 -34.614655 -287.966370 
-7.228613 12.686559 -259.466339 
131.521393 13.558409 -238.716385 
-27.728601 -25.499975 -287.965424 
90.271393 20.500010 -242.572388 
118.521370 -27.249969 -272.295502 
130.271393 6.250016 -244.392990 
4.271388 6.513947 -265.716370 
110.771355 -1.879163 -254.216370 
-42.728607 7.750028 -259.924866 
115.521378 18.250010 -238.355133 
126.771378 12.000016 -240.581512 
-49.978603 21.000023 -249.063736 
-42.478611 -3.451711 -268.716400 
115.021385 3.500007 -249.253189 
-23.478615 -1.249975 -268.818634 
60.271385 24.250010 -247.042328 
108.021385 4.250012 -250.207306 
-62.478607 -2.499974 -266.066559 
54.021393 2.250009 -264.904907 
-62.728607 13.250016 -253.843781 
106.521378 -35.202091 -281.716339 
71.271370 24.791025 -243.966385 
-39.228607 -8.249974 -272.845520 
44.463223 13.250016 -259.216370 
-43.478607 16.750015 -252.899048 
-23.228615 5.000019 -263.878510 
-62.978596 4.000031 -260.914795 
110.021362 13.516657 -242.966385 
8.521393 -3.889954 -274.716339 
51.212906 -11.499978 -276.216400 
16.771391 -5.249983 -277.352203 
40.771370 -19.154257 -285.466339 
14.521390 15.717931 -259.966370 
98.771362 -12.271859 -264.966370 
-67.228600 17.750017 -249.999161 
60.771381 17.500021 -251.747482 
114.021370 -6.150343 -256.716370 
-9.478615 -15.999978 -282.122742 
-52.228603 9.750016 -257.425415 
-66.228607 -16.232914 -276.716339 
-14.228612 26.000015 -248.563171 
92.271355 -2.249993 -258.747437 
67.271393 -21.138645 -279.716370 
-29.228615 -6.911970 -272.716370 
-43.478607 -27.499979 -288.073547 
38.521378 17.856876 -257.716400 
58.271381 -14.749981 -277.001038 
126.521378 -4.984685 -253.466370 
75.021385 -0.749982 -261.799194 
80.771385 3.000014 -257.596710 
-56.478603 2.418005 -262.716339 
-54.728596 21.590151 -248.216354 
-51.978607 -16.999968 -278.607147 
-61.228607 -21.249987 -281.129700 
2.021387 16.594151 -257.466370 
120.271362 -9.999969 -258.317627 
114.306396 -38.499954 -282.716400 
-49.728607 7.500016 -259.432770 
10.521383 15.250021 -259.652435 
7.271379 -14.008884 -282.716400 
-54.728596 -9.999968 -272.775299 
81.271378 16.250023 -247.686874 
-34.978619 -23.363476 -285.466339 
65.521400 -14.749981 -275.025391 
103.771370 -19.216751 -269.216400 
35.271381 -0.400847 -273.216400 
6.271392 23.750017 -252.404602 
52.521381 -15.077121 -278.716400 
-51.228603 1.250022 -264.138306 
-29.728609 -3.999984 -270.370026 
55.771385 -7.749981 -272.124695 
-5.228609 20.750010 -253.447174 
42.521393 1.500034 -268.878510 
121.521362 -37.999966 -280.464661 
6.271392 28.750010 -248.600510 
-63.978596 19.496569 -248.966385 
56.771366 17.500021 -252.732574 
62.521378 -16.227402 -276.966400 
-18.728615 20.250015 -252.529953 
7.521391 8.250021 -264.778931 
40.021389 -14.499969 -282.177612 
-27.478607 7.500016 -261.534607 
-32.228603 -20.749964 -283.588745 
-17.478615 15.581273 -256.216339 
-40.478607 -11.085278 -274.966400 
47.271370 -2.499974 -270.439087 
89.271378 -34.749958 -285.695435 
102.521370 -31.688221 -279.716370 
84.021370 -6.059833 -263.716370 
-33.728600 6.477528 -261.716400 
-48.228611 -16.999968 -278.954559 
103.021362 -35.590771 -282.966339 
-66.978615 21.796770 -246.966370 
130.021362 -8.563139 -255.716385 
121.021370 7.750026 -244.854477 
-0.228614 13.250016 -259.805725 
-39.228607 12.001328 -256.966339 
101.021378 -21.176434 -271.466370 
-49.978603 -1.868463 -266.716400 
-55.478607 -0.499970 -265.107391 
6.521389 14.250019 -259.879181 
-9.728611 -8.249974 -275.826904 
70.771378 21.770918 -246.216385 
-7.478610 8.554958 -262.716339 
-57.478611 -28.234489 -287.216400 
-53.228607 -31.249973 -290.215179 
125.271347 -10.249980 -257.704132 
74.521362 20.250015 -246.428055 
63.771366 -19.143200 -278.966400 
55.271385 23.250021 -248.863907 
-60.978611 0.250035 -264.018372 
4.021392 -27.371264 -293.216339 
-56.978603 -3.999985 -267.690826 
-43.228611 -13.283349 -276.466370 
122.271370 4.750005 -246.838943 
75.771370 7.493012 -255.466339 
-38.728615 -23.804911 -285.466339 
59.521381 -17.749971 -278.949036 
-20.728605 -6.777114 -273.466339 
94.521370 15.955917 -244.716354 
108.521370 -20.539917 -269.216400 
-17.478615 7.000022 -262.894318 
-5.478606 -12.999989 -280.148956 
107.021370 -31.999979 -278.895721 
102.021378 -1.749970 -256.098267 
120.271362 14.000020 -240.353607 
-30.978607 11.949621 -257.716400 
0.771388 8.134180 -263.966339 
9.771393 -16.749983 -285.339752 
53.771381 -30.249958 -290.663483 
-58.728611 15.750013 -252.196335 
47.271370 -13.999974 -279.360199 
6.271392 -1.243717 -272.216339 
83.521362 8.000010 -253.212250 
66.771385 25.500021 -244.559525 
-66.728607 0.250035 -263.562103 
14.521390 -0.404871 -272.966370 
-18.728615 -14.749981 -280.100128 
99.271355 -27.661331 -277.216339 
-6.728604 5.500012 -265.201813 
-49.978603 -10.036922 -273.216400 
128.771362 -32.749992 -274.774536 
129.271378 -27.079529 -270.216339 
97.271393 11.500023 -247.358887 
84.021370 19.250011 -244.881378 
-51.478615 -22.749968 -283.316803 
107.771378 -5.999990 -258.091919 
47.271370 14.750011 -257.214966 
35.271381 26.000015 -252.644592 
8.021384 20.093630 -255.466339 
-23.228615 -18.499975 -282.670074 
39.021378 21.500015 -254.715286 
-42.728607 24.750019 -246.926071 
18.771379 -18.249962 -288.363495 
122.521378 11.000014 -242.105240 
-48.478607 25.029861 -246.216385 
111.021378 -8.428284 -259.216370 
-56.728600 18.626015 -250.216400 
-41.478603 19.750023 -250.775696 
107.021370 -16.939199 -266.716400 
128.021378 8.873872 -242.716385 
11.021392 7.507139 -265.966400 
-12.228609 0.750029 -268.375183 
-60.228600 19.629457 -249.216385 
7.021382 4.750007 -267.528687 
92.021385 6.250016 -252.462265 
126.021355 4.500023 -246.348312 
-19.478603 -23.499973 -287.143616 
-57.478611 -19.363678 -279.966370 
105.021355 -23.749985 -272.632324 
18.021389 -14.749980 -285.320587 
-25.978609 -3.613150 -270.466400 
-41.478603 2.500021 -264.117340 
66.771385 -17.749971 -277.065704 
40.021389 -0.249988 -271.130676 
77.521393 -7.749982 -266.595093 
-58.728611 -23.749985 -283.403381 
-2.978608 11.000016 -261.255219 
10.021389 10.750020 -263.186279 
-63.728600 24.000011 -245.630341 
-63.228607 16.571085 -251.216354 
17.771378 18.750019 -258.079254 
-8.728608 -11.249966 -278.376984 
129.271378 -15.749969 -261.370972 
43.021385 -22.999977 -287.764526 
35.271381 -18.499975 -287.256195 
38.271366 -2.695149 -273.716400 
-12.478606 -11.249966 -277.891235 
-65.728615 -23.358768 -282.466339 
-13.228611 8.000010 -262.536987 
97.271393 -0.249989 -256.048248 
-26.978611 18.656218 -252.966339 
118.771385 3.750018 -248.251740 
96.771370 18.445440 -242.466354 
85.271362 1.661293 -257.466370 
9.771393 23.000010 -253.438171 
68.587868 -23.999966 -281.716339 
16.521379 -8.188194 -279.716370 
10.271385 29.193024 -248.716385 
-16.478613 -24.999981 -288.754150 
79.021362 -21.100021 -276.716339 
83.021370 -32.249966 -285.046173 
46.771381 6.432169 -263.716370 
-6.228611 -20.999975 -286.553101 
-45.478596 14.105507 -254.716400 
-45.978611 -8.884197 -272.716370 
-28.978603 26.294313 -246.966370 
94.021378 21.500013 -240.946091 
-19.728619 -0.249988 -268.384491 
58.771370 21.500015 -249.378708 
18.521383 13.000020 -262.922943 
-24.978607 16.250023 -255.031281 
52.271370 8.750014 -260.386780 
49.296295 17.000013 -254.966415 
72.521385 -16.899622 -274.966400 
-10.728614 -26.999985 -291.016663 
43.487339 -16.749983 -282.716400 
-21.728607 22.000025 -250.922226 
-66.478592 -7.749981 -269.931458 
58.521389 -10.499990 -273.586884 
-16.228619 -12.442566 -278.466370 
-14.728605 21.750013 -251.749634 
43.771385 18.500023 -255.416092 
-19.228607 27.000017 -247.342667 
-13.228611 -7.499969 -274.808441 
18.771379 -27.999971 -296.225891 
88.521370 -7.499970 -263.712311 
6.021381 11.000016 -262.377899 
0.271380 21.506691 -253.466370 
84.271370 -21.249987 -275.629272 
91.021370 0.921332 -256.716370 
130.771362 10.676853 -240.966385 
-28.728603 14.561482 -255.966400 
0.271380 -17.413206 -284.466400 
-45.478596 -18.825598 -280.716400 
-43.978607 -21.396912 -282.966339 
75.021385 24.250008 -243.460953 
61.021393 -32.338383 -290.716339 
46.521370 -22.249973 -286.122772 
47.521381 -10.999984 -276.950195 
118.021378 -14.749982 -262.455383 
-5.978614 -16.874470 -283.216400 
84.021370 -34.999969 -287.388306 
-47.228603 18.500023 -251.211884 
63.771366 4.500025 -260.647003 
122.021385 -28.499968 -272.654480 
112.271378 -17.857500 -266.216370 
79.771378 -10.749973 -268.392426 
114.271370 -14.249988 -263.067963 
106.521378 -2.499975 -255.672272 
67.521362 -5.749978 -267.545715 
83.271393 -23.999966 -278.081696 
66.521385 -8.749969 -270.139893 
-30.478611 -23.249962 -285.846741 
55.021374 14.750011 -255.170166 
14.521390 6.072307 -267.716339 
128.271393 -36.249973 -277.661621 
64.521370 -31.999979 -289.430481 
-46.728615 -3.414786 -268.216370 
130.271393 -4.749991 -252.810532 
4.271388 -12.249982 -280.819000 
-8.228615 -5.403286 -273.716400 
67.771385 4.500025 -259.672577 
-54.978607 -12.999989 -275.090210 
70.021370 -10.499990 -270.603607 
-56.978603 -31.249973 -289.701569 
-10.228605 10.750019 -260.696991 
44.271385 10.076651 -261.716400 
18.271389 15.935548 -260.466400 
5.271390 -17.249979 -285.044891 
13.021379 -5.705273 -276.966400 
-53.228607 -3.499991 -267.674713 
124.271370 14.750010 -239.026184 
92.521378 -20.180561 -272.716370 
48.543571 -30.999964 -292.716339 
-53.728600 -28.436518 -287.716400 
18.521383 6.000006 -268.610474 
15.271381 10.563755 -264.216400 
18.271389 29.901365 -249.216385 
17.521381 -1.791304 -274.716339 
-24.978607 -6.405360 -272.716370 
104.521362 3.750019 -251.405655 
-61.978607 -11.170126 -272.966370 
63.021362 26.000015 -245.114258 
-36.978607 20.750010 -250.462708 
-20.478607 -26.393627 -289.466339 
74.271378 11.000015 -253.204849 
65.271378 16.068779 -251.716370 
129.271378 -20.999977 -265.402283 
10.521383 -24.499987 -291.785309 
-66.478592 -2.749986 -265.912842 
39.521366 -21.749054 -287.966370 
124.771362 7.750026 -244.123657 
-39.728611 -26.612913 -287.716400 
15.021383 20.469719 -256.216339 
-11.978611 -4.667675 -272.716370 
-33.728600 -25.999968 -287.769989 
93.271385 -14.249988 -267.830109 
-44.478615 -31.249973 -291.044617 
35.271381 11.250013 -264.168640 
